# .PCD v.7 - Point Cloud Data file format
VERSION .7
FIELDS x y z intensity
SIZE 4 4 4 1
TYPE F F F U
COUNT 1 1 1 1
WIDTH 1533
HEIGHT 1
VIEWPOINT 0 0 0 1 0 0 0
POINTS 1533
DATA ascii
-20.013706 7.512256 -0.082142 2
-19.992006 7.572082 -0.081678 2
-19.983940 7.640509 -0.082056 2
-19.979359 7.710356 -0.082652 2
-19.963297 7.776025 -0.082598 2
-19.913403 7.828868 -0.080597 2
-19.874540 7.885749 -0.079248 2
-19.869005 7.955473 -0.079846 2
-19.837177 8.015017 -0.078931 2
-19.736811 8.191321 -0.075979 57
-19.711596 8.253324 -0.075502 61
-19.694824 8.315193 -0.075480 42
-19.702354 8.390887 -0.076943 38
-19.705891 8.465173 -0.078189 47
-19.667379 8.525465 -0.077044 23
-19.867235 8.758574 -0.090935 2
-19.918243 8.851544 -0.094994 2
-19.949177 8.940009 -0.097951 2
-19.950531 9.015766 -0.099189 2
-19.969784 9.099830 -0.101499 2
-19.985031 9.182471 -0.103593 2
-19.956356 9.245335 -0.103112 2
-19.945585 9.316486 -0.103705 2
-19.956249 9.397808 -0.105583 2
-19.930435 9.462273 -0.105318 2
-19.922424 9.535238 -0.106125 2
-19.896118 9.599608 -0.105861 2
-20.114033 9.782290 -0.120143 2
-20.022629 9.968741 -0.118726 68
-19.996355 10.030374 -0.118485 39
-20.455387 10.589877 -0.151940 8
-20.439493 10.663635 -0.152517 8
-20.472759 10.763506 -0.156076 20
-20.330969 10.766665 -0.149013 33
-20.247490 10.804281 -0.145551 46
-20.044533 10.776797 -0.134861 30
-19.943674 10.803504 -0.130347 46
-19.853348 10.835403 -0.126474 55
-19.818905 10.897797 -0.126005 52
-19.754620 10.947575 -0.123814 21
-19.627592 10.953546 -0.117641 10
-19.465994 10.939049 -0.109353 7
-19.330681 10.942502 -0.102745 10
-19.200741 10.952138 -0.096546 7
-19.048540 10.943895 -0.088892 12
-18.726055 10.909459 -0.072359 15
-18.598732 10.912677 -0.066209 22
-18.476704 10.922126 -0.060467 14
-18.366814 10.934164 -0.055386 14
-18.241732 10.932304 -0.049274 11
-18.103233 10.921352 -0.042324 14
-17.827465 10.828190 -0.026913 19
-17.646912 10.868472 -0.019129 24
-17.490948 10.846112 -0.011130 18
-17.365620 10.842154 -0.005037 51
-17.297588 10.874225 -0.002531 20
-17.239571 10.912469 -0.000660 15
-17.107941 10.902309 0.005840 20
-16.865417 10.892864 0.017559 31
-16.747803 10.889277 0.023200 17
-16.666824 10.909558 0.026524 10
-16.569365 10.918171 0.030894 14
-16.453979 10.910154 0.036501 17
-16.343657 10.908526 0.041702 17
-16.203999 10.885738 0.048787 14
-16.130125 10.907907 0.051669 14
-16.039949 10.918172 0.055597 14
-15.966157 10.939494 0.058472 12
-15.960604 11.009240 0.056945 16
-15.172843 10.585634 0.104136 11
-15.864670 11.162362 0.057386 22
-15.706909 11.120779 0.065689 20
-15.459804 11.011553 0.079841 20
-15.541702 11.142358 0.072641 24
-15.362935 11.074495 0.082564 4
-16.424545 10.933790 0.139565 22
-16.892334 11.332295 0.111374 6
-16.177877 10.911049 0.150382 6
-16.179140 10.985889 0.148694 14
-16.313745 11.155541 0.139364 26
-15.796804 10.862120 0.167309 13
-16.049570 11.113111 0.151254 6
-15.639599 10.964045 0.171512 5
-15.428349 10.954725 0.180389 13
-15.047498 10.743800 0.200804 5
-15.270584 11.058965 0.184401 18
-14.938352 10.875459 0.202169 40
-14.908397 10.927821 0.202143 31
-14.984294 11.058487 0.195981 28
-15.001307 11.140886 0.193328 35
-14.972106 11.191273 0.193287 35
-15.209266 11.452058 0.177502 13
-14.318946 10.819244 0.228376 4
-14.906776 11.427633 0.190121 14
-13.970654 10.812025 0.242337 4
-13.784969 10.798687 0.249956 24
-13.851874 10.924438 0.244160 11
-13.645924 10.821827 0.254791 9
-14.270041 11.420501 0.215244 5
-14.072588 11.472992 0.221505 5
-13.495354 11.258493 0.249187 6
-13.153008 11.023972 0.268408 11
-13.239540 11.172757 0.261151 22
-12.847925 10.884928 0.283642 25
-13.069788 11.157568 0.267937 22
-13.043064 11.204406 0.267660 35
-13.005574 11.244955 0.267947 26
-12.942956 11.399368 0.265997 11
-13.149382 11.669379 0.250878 27
-12.958331 11.556929 0.261028 9
-11.907679 10.614467 0.325914 4
-12.323740 11.229217 0.293363 3
-12.293621 11.270963 0.293250 4
-12.210383 11.331494 0.294482 7
-12.269547 11.464031 0.288524 9
-11.911738 11.171335 0.309761 19
-11.134893 10.571932 0.354767 4
-11.698776 11.303972 0.313310 16
-11.291023 10.941474 0.338310 9
-11.338009 11.132524 0.330933 19
-11.207979 11.062177 0.337524 16
-11.135093 11.053054 0.340291 49
-11.035563 11.013925 0.344873 15
-11.051296 11.101998 0.341637 50
-10.984029 11.097898 0.344033 30
-11.030016 11.217451 0.338790 15
-10.606077 10.808216 0.365689 15
-10.787459 11.084992 0.351015 34
-10.553079 10.886434 0.365010 34
-10.549811 10.952681 0.363037 8
-10.652733 11.143477 0.353633 17
-10.372898 10.956577 0.368715 26
-10.622664 11.398985 0.346480 4
-10.569395 11.479322 0.345609 15
-9.883986 10.713235 0.392290 11
-9.883494 10.785705 0.389953 31
-10.043423 11.123672 0.373870 11
-10.057636 11.214473 0.370445 24
-9.570529 10.738442 0.401326 1
-9.967776 11.396194 0.367221 27
-9.909589 11.395501 0.369028 22
-9.911873 11.474124 0.366326 15
-9.341634 10.793152 0.406519 11
-9.207158 10.823599 0.409536 15
-9.250667 10.955258 0.403760 8
-9.154801 10.896580 0.408605 12
-9.029057 10.795217 0.415784 31
-8.994803 10.819829 0.415944 20
-8.833183 10.665153 0.425992 38
-8.923738 10.865430 0.416441 20
-8.802167 10.765274 0.423426 22
-8.858670 10.915876 0.416566 21
-8.796768 10.900423 0.418876 18
-8.744089 10.897847 0.420465 18
-8.684772 10.885110 0.422591 18
-8.587641 10.815763 0.427765 41
-8.577771 10.875360 0.425939 29
-8.403404 10.684261 0.437557 41
-8.492760 10.893486 0.427659 15
-8.438931 10.890611 0.429244 15
-8.282469 10.725491 0.439422 41
-8.337216 10.885212 0.432216 18
-8.291888 10.890577 0.433252 14
-8.254754 10.904770 0.433741 15
-8.213733 10.916536 0.434416 14
-8.164233 10.914584 0.435805 14
-8.104292 10.895429 0.438087 21
-8.065505 10.910007 0.438577 16
-7.985039 10.856227 0.442644 22
-7.855326 10.719984 0.450998 41
-7.913655 10.890155 0.443253 19
-5.594162 7.081162 0.642809 4
-5.492889 7.006452 0.648144 53
-5.459808 6.998028 0.649290 59
-5.428828 6.992907 0.650257 63
-5.395939 6.984176 0.651402 69
-5.369079 6.985710 0.652009 73
-5.330471 6.966246 0.653687 73
-5.297894 6.957048 0.654828 65
-5.267361 6.951190 0.655789 74
-5.233057 6.938190 0.657106 70
-5.202712 6.932039 0.658065 62
-5.170548 6.922235 0.659202 62
-5.145196 6.922285 0.659799 65
-5.118845 6.922784 0.660399 65
-5.090662 6.919638 0.661176 74
-5.066247 6.923447 0.661596 73
-5.032640 6.909426 0.662906 80
-5.002026 6.898264 0.664033 74
-4.981393 6.908845 0.664094 75
-4.951701 6.901527 0.665045 75
-4.918513 6.886930 0.666350 69
-4.892582 6.886486 0.666943 75
-4.865951 6.881841 0.667709 75
-4.840110 6.881177 0.668301 69
-4.814310 6.880405 0.668891 72
-4.787523 6.880018 0.669483 69
-4.761805 6.879025 0.670071 72
-4.741240 6.888768 0.670126 75
-4.718950 6.894818 0.670358 75
-4.696003 6.896681 0.670764 75
-4.669739 6.891194 0.671524 75
-4.644168 6.889704 0.672109 75
-4.620283 6.891750 0.672515 75
-4.594786 6.890052 0.673098 75
-4.567717 6.884594 0.673858 75
-4.545530 6.889999 0.674084 75
-4.516973 6.880659 0.675019 75
-4.491669 6.878533 0.675599 75
-4.467976 6.879980 0.676001 75
-4.445858 6.885015 0.676224 75
-4.427844 6.896912 0.676091 75
-4.396525 6.879641 0.677376 75
-4.375961 6.888108 0.677420 75
-4.353392 6.888680 0.677816 75
-4.331766 6.897411 0.677861 75
-4.309663 6.901939 0.678081 75
-4.290054 6.909698 0.678121 104
-4.266484 6.910346 0.678516 102
-4.253400 6.941131 0.677496 107
-4.226926 6.934164 0.678244 108
-4.205799 6.937909 0.678458 107
-4.168250 6.900790 0.680620 75
-4.147259 6.904331 0.680833 75
-4.122831 6.904800 0.681226 75
-4.100821 6.908555 0.681439 75
-4.075804 6.900571 0.682180 75
-4.049833 6.892851 0.682923 75
-4.027904 6.896337 0.683134 75
-4.006251 6.903875 0.683169 75
-3.983017 6.903419 0.683556 75
-3.957251 6.895301 0.684295 75
-3.934099 6.894655 0.684680 75
-3.910753 6.889786 0.685240 75
-3.887884 6.893096 0.685448 75
-3.867079 6.895652 0.685653 75
-3.846277 6.898136 0.685858 75
-3.822044 6.893250 0.686416 75
-3.799058 6.892082 0.686797 75
-3.777278 6.894645 0.687001 75
-3.756664 6.900951 0.687027 75
-3.733731 6.899530 0.687406 75
-3.710830 6.898022 0.687785 75
-3.690114 6.899959 0.687985 101
-3.669559 6.910098 0.687833 102
-3.648892 6.916028 0.687857 104
-3.630322 6.925441 0.687702 104
-3.613878 6.946636 0.687018 107
-3.590988 6.948802 0.687217 107
-3.566021 6.939026 0.687944 107
-3.544235 6.936594 0.688316 108
-3.524492 6.945952 0.688160 108
-3.500695 6.939770 0.688708 108
-3.480965 6.944845 0.688725 108
-3.461217 6.949855 0.688742 108
-3.436563 6.939544 0.689465 108
-3.415794 6.944660 0.689482 108
-3.391164 6.938299 0.690027 108
-3.367521 6.935726 0.690396 107
-3.339635 6.905334 0.691997 75
-3.318230 6.902086 0.692363 75
-3.297593 6.906790 0.692376 75
-3.275205 6.903620 0.692742 75
-3.252677 6.904496 0.692931 75
-3.232032 6.908971 0.692942 75
-3.210752 6.905336 0.693305 75
-3.190104 6.909665 0.693315 75
-3.166244 6.898260 0.694030 75
-3.145375 6.906558 0.693863 75
-3.124984 6.906534 0.694047 75
-3.102816 6.902717 0.694408 75
-3.082178 6.906668 0.694415 75
-3.061096 6.902499 0.694774 75
-3.039024 6.898443 0.695132 75
-3.018401 6.902172 0.695137 75
-2.997766 6.905829 0.695142 75
-2.976441 6.905476 0.695323 75
-2.954468 6.901105 0.695679 75
-2.933187 6.900597 0.695858 75
-2.912558 6.903956 0.695860 75
-2.892327 6.903134 0.696038 75
-2.872297 6.910301 0.695863 75
-2.850445 6.905545 0.696216 75
-2.828636 6.900709 0.696568 75
-2.808007 6.903703 0.696568 75
-2.786814 6.902668 0.696743 75
-2.766178 6.905518 0.696741 75
-2.745007 6.904333 0.696915 75
-2.724365 6.907036 0.696912 75
-2.703217 6.905702 0.697084 75
-2.683055 6.912226 0.696904 75
-2.662386 6.914712 0.696899 75
-2.642286 6.913038 0.697070 75
-2.621615 6.915382 0.697064 75
-2.600506 6.913682 0.697233 75
-2.580249 6.919854 0.697050 75
-2.559554 6.921982 0.697042 101
-2.539240 6.928015 0.696858 103
-2.518517 6.929999 0.696849 103
-2.497427 6.927932 0.697015 102
-2.476705 6.929770 0.697005 102
-2.456309 6.935519 0.696818 103
-2.436279 6.933148 0.696983 104
-2.415844 6.938757 0.696795 103
-2.395084 6.940311 0.696782 103
-2.374320 6.941792 0.696769 104
-2.353550 6.943201 0.696755 104
-2.332525 6.940549 0.696917 102
-2.312703 6.957769 0.696197 107
-2.291434 6.950983 0.696534 105
-2.270425 6.948112 0.696694 105
-2.249633 6.949157 0.696677 105
-2.229379 6.962107 0.696131 107
-2.209080 6.950989 0.696643 107
-2.188738 6.963800 0.696095 107
-2.166435 6.952616 0.696604 107
-2.147044 6.965249 0.696056 107
-2.125750 6.949886 0.696741 107
-2.104953 6.950428 0.696720 107
-2.084155 6.950896 0.696699 107
-2.062315 6.951310 0.696675 107
-2.042554 6.951615 0.696654 107
-2.021751 6.951866 0.696630 108
-2.000948 6.952044 0.696606 108
-1.980037 6.920181 0.697994 112
-1.959343 6.940194 0.697086 108
-1.938610 6.932162 0.697414 109
-1.917933 6.924058 0.697741 109
-1.897185 6.927870 0.697537 109
-1.877503 6.927629 0.697511 109
-1.856785 6.927303 0.697483 110
-1.835902 6.934896 0.697101 109
-1.814319 6.926410 0.697424 109
-1.794530 6.929888 0.697219 109
-1.773680 6.933267 0.697012 109
-1.752944 6.932580 0.696981 109
-1.732056 6.935813 0.696773 109
-1.711478 6.930987 0.696917 109
-1.690569 6.934074 0.696708 108
-1.668466 6.961036 0.695436 107
-1.650548 6.924119 0.696996 58
-1.629400 6.930982 0.696608 60
-1.608437 6.933780 0.696396 69
-1.586700 6.948468 0.695652 75
-1.566425 6.955172 0.695264 75
-1.544295 6.957674 0.695048 75
-1.523183 6.960171 0.694833 75
-1.502049 6.962593 0.694618 75
-1.480892 6.964941 0.694402 75
-1.459381 6.971195 0.694008 75
-1.437472 6.981353 0.693437 32
-1.369619 7.039286 0.690479 0
-1.344093 7.080921 0.688487 0
-1.323676 7.070785 0.688798 0
-1.288710 7.195658 0.683080 0
-1.278152 7.093992 0.687467 0
-1.255028 7.107452 0.686712 0
-1.235695 7.097144 0.687022 0
-1.207122 7.154076 0.684314 0
-1.184622 7.159339 0.683911 0
-1.153370 7.231893 0.680490 0
-1.103893 7.269661 0.678437 2
-1.048718 7.350710 0.674429 3
-0.469207 11.130885 0.504381 11
-0.416130 11.005694 0.509361 30
-0.384183 10.992623 0.509633 27
-0.329586 11.109360 0.504034 37
-0.293823 11.095428 0.504295 33
-0.272513 11.006799 0.507938 50
-0.243671 10.965402 0.509447 68
-0.207851 10.975397 0.508648 75
-0.146959 11.114758 0.501971 48
-0.103025 11.155537 0.499740 40
-0.066103 11.156848 0.499287 40
-0.035392 11.134807 0.499906 39
0.004545 11.151565 0.498738 43
0.045394 11.172089 0.497391 43
0.082685 11.164668 0.497285 38
0.109372 11.114408 0.499143 45
0.150239 11.142700 0.497441 40
0.194747 11.178276 0.495375 39
0.221037 11.127718 0.497231 34
0.269209 11.178596 0.494450 32
0.303010 11.162950 0.494699 42
0.323509 11.088727 0.497624 47
0.361417 11.092377 0.496979 40
0.406693 11.135211 0.494554 30
0.449448 11.157993 0.493014 23
0.480237 11.130094 0.493794 35
0.522243 11.148685 0.492430 18
0.564408 11.167106 0.491064 20
0.571611 11.045853 0.496132 27
0.608660 11.044696 0.495658 47
0.636966 11.016780 0.496441 47
0.668889 10.996058 0.496860 44
0.699671 10.971373 0.497458 54
0.767512 11.077280 0.491963 49
0.784732 11.002182 0.494885 33
0.809350 10.962221 0.496202 10
0.901510 11.156358 0.486586 23
0.953524 11.070868 0.489380 72
1.116688 11.497822 0.468817 36
1.126063 11.395072 0.472987 13
1.086475 11.131650 0.484692 25
1.183480 11.323572 0.475052 15
1.171288 11.155959 0.482276 3
1.212102 11.168407 0.481072 13
1.281838 11.142204 0.480981 27
1.496647 11.685966 0.454614 36
1.553186 11.739013 0.451421 41
1.389925 11.119661 0.480036 15
1.628111 11.714221 0.451126 52
1.627791 11.469636 0.461262 24
1.591668 11.126912 0.476081 41
1.863942 11.670574 0.448596 10
1.835432 11.481226 0.456917 18
1.854618 11.414706 0.459279 28
1.859085 11.315127 0.463271 42
1.812529 11.080899 0.473758 38
2.003074 11.478848 0.453762 16
1.988428 11.223511 0.464455 2
2.350497 11.828376 0.432548 19
2.131519 11.072297 0.467646 42
2.186374 11.106018 0.465134 23
2.217060 11.080405 0.465514 48
2.307726 11.198483 0.458835 18
2.333994 11.161434 0.459755 24
2.424072 11.279478 0.453077 33
2.408027 11.138546 0.459059 52
2.411559 11.049939 0.462514 81
2.587698 11.361083 0.446219 37
2.664497 11.432031 0.441683 42
2.692748 11.397583 0.442413 39
2.660004 11.228303 0.449857 33
2.665770 11.151100 0.452775 42
2.744570 11.229295 0.447877 34
2.855910 11.375938 0.439524 11
2.776954 11.112956 0.451699 42
2.919639 11.328460 0.439894 21
3.032998 11.473704 0.431526 38
3.175122 11.675907 0.420241 13
2.993222 11.111285 0.446606 40
3.161179 11.362654 0.432761 16
3.092232 11.133684 0.443319 33
3.147347 11.159722 0.440953 10
3.209885 11.195299 0.438028 13
3.518949 11.620696 0.413924 21
3.299834 11.108688 0.439092 21
3.728398 11.845062 0.400017 20
3.809141 11.910933 0.395434 31
3.957158 11.822299 0.394945 3
4.018049 11.843576 0.392533 15
4.387618 12.419991 0.361011 8
3.765678 11.215846 0.422863 20
3.820964 11.230592 0.420823 22
3.864564 11.224239 0.419880 43
3.904213 11.210776 0.419302 64
3.943840 11.197160 0.418724 19
4.428244 11.946257 0.377592 18
4.462500 11.921565 0.377557 46
4.347892 11.641221 0.391098 26
4.376823 11.605412 0.391606 26
4.452963 11.648278 0.387887 18
4.369683 11.423143 0.398494 16
4.393539 11.380529 0.399371 46
4.539020 11.539709 0.389404 11
4.596599 11.546366 0.387504 13
4.629150 11.516639 0.387639 23
4.621379 11.427132 0.391101 21
4.679184 11.437818 0.389025 15
4.859968 11.640028 0.376436 12
4.920916 11.653087 0.374166 7
5.066988 11.796492 0.364696 2
4.990316 11.517086 0.376943 3
5.124053 11.562474 0.371290 20
4.816103 11.023189 0.399692 12
5.311498 11.672109 0.361702 22
4.994399 11.133823 0.390333 16
5.046144 11.137010 0.388621 25
5.286862 11.407702 0.371706 10
5.371322 11.451056 0.367562 12
5.758072 11.921546 0.339128 11
6.884667 13.424884 0.251689 6
6.809305 13.228287 0.260845 13
6.957723 13.249229 0.255392 17
5.635908 11.359685 0.362302 18
5.673844 11.331774 0.362027 18
5.700342 11.292236 0.362508 31
5.693735 11.212400 0.365420 32
5.753437 11.147336 0.365650 25
5.800965 11.136215 0.364454 22
7.553115 13.337344 0.232987 8
6.179610 11.474943 0.340602 11
6.006938 11.178916 0.356179 5
6.593732 11.851047 0.314290 16
6.515484 11.678602 0.322602 16
6.236052 11.252440 0.346035 13
6.544780 11.563128 0.325387 17
6.579101 11.530270 0.325285 28
6.630978 11.518972 0.323873 20
6.700638 11.529049 0.321149 16
6.714426 11.471049 0.322540 15
7.291358 12.092994 0.282555 4
6.904402 11.557159 0.313175 11
7.358287 12.015927 0.282678 18
7.347492 11.925520 0.285927 25
7.208765 11.686673 0.298373 21
7.287801 11.702994 0.295061 16
7.251719 11.586215 0.300009 7
7.328110 11.599088 0.296881 10
7.513808 11.739085 0.285870 7
7.266613 11.381605 0.305849 8
7.329443 11.379118 0.303658 4
7.630320 11.640579 0.284710 13
7.428545 11.343609 0.301152 6
7.531966 11.384534 0.296128 9
7.581694 11.366041 0.294869 7
8.343287 12.038463 0.246489 42
8.102779 11.705347 0.265404 12
8.109902 11.638221 0.267147 10
8.696126 12.183545 0.229034 6
8.895483 12.313564 0.217715 19
8.331816 11.647146 0.258575 7
8.553679 11.804904 0.245572 29
8.643769 11.671524 0.246042 30
8.621648 11.575104 0.249675 17
8.729377 11.608497 0.244583 11
8.900043 11.702995 0.235310 13
9.506231 12.226215 0.196992 7
8.749320 11.411476 0.249433 9
8.928230 11.508176 0.239749 8
9.587652 12.067543 0.198312 15
6.458748 8.846071 0.410810 2
6.433351 8.767753 0.413967 1
6.413391 8.695119 0.416745 1
6.395977 8.625415 0.419335 1
6.390014 8.566666 0.421163 1
6.382432 8.509508 0.423006 1
6.355025 8.432377 0.426175 1
6.366005 8.390034 0.426861 1
6.379787 8.350349 0.427356 1
6.322544 8.246013 0.432432 1
6.347805 8.217056 0.432164 1
5.697555 7.606925 0.474638 1
5.735752 7.593163 0.473432 1
5.767864 7.574031 0.472608 1
6.419346 8.028743 0.434090 1
6.388621 7.953385 0.437278 2
6.397476 7.911458 0.437970 2
6.412312 7.874629 0.438278 2
6.422703 7.836716 0.438792 2
6.424814 7.789796 0.439869 2
6.417363 7.735428 0.441526 2
6.434601 7.701153 0.441643 3
6.457961 7.671809 0.441373 3
6.462389 7.627544 0.442261 4
6.492715 7.556326 0.442686 10
6.515569 7.526780 0.442416 18
6.541492 7.499583 0.441952 28
6.548244 7.457777 0.442648 52
6.668838 7.410364 0.438552 1
6.709346 7.395959 0.437129 1
6.760632 7.386925 0.435108 1
6.816304 7.378431 0.432876 1
6.857965 7.361796 0.431433 1
6.912601 7.354262 0.429211 1
6.977056 7.353376 0.426403 1
7.027453 7.344462 0.424384 1
7.112809 7.355074 0.420390 1
7.148070 7.332497 0.419324 1
7.270058 7.324609 0.414086 1
7.443987 7.395815 0.404827 3
7.440904 7.343407 0.406076 2
7.590310 7.350133 0.399249 9
7.702427 7.376235 0.393674 3
7.735775 7.347348 0.392768 2
7.791377 7.335253 0.390507 1
8.099971 7.387142 0.375483 1
8.178545 7.390000 0.371851 1
8.288836 7.409711 0.366435 1
8.368850 7.409749 0.362779 1
8.455788 7.413499 0.358726 1
8.580362 7.439658 0.352507 1
8.636945 7.423558 0.350213 1
8.815312 7.429347 0.341878 1
8.916747 7.438555 0.337014 1
9.017250 7.449049 0.332162 1
9.122519 7.459027 0.327091 1
9.231447 7.470350 0.321817 1
9.319802 7.469052 0.317721 1
9.422169 7.475126 0.312831 1
9.521236 7.478598 0.308132 1
9.637890 7.491224 0.302441 1
9.744294 7.497291 0.297336 1
9.840386 7.496906 0.292819 1
9.940122 7.497845 0.288099 1
10.054054 7.505785 0.282582 1
10.124830 7.492410 0.279455 1
10.287552 7.467401 0.272143 1
10.464606 7.508415 0.263051 4
10.593589 7.520314 0.256711 4
10.798896 7.514363 0.246990 6
15.811391 9.925497 -0.030771 2
15.770933 9.827764 -0.027337 2
15.770938 9.746793 -0.026117 2
15.787015 9.677819 -0.025865 2
15.772572 9.597982 -0.023990 2
15.770082 9.520441 -0.022739 2
15.788903 9.453340 -0.022684 2
15.738844 9.353779 -0.018834 2
15.749813 9.283474 -0.018377 2
15.749635 9.208150 -0.017320 2
15.760036 9.137935 -0.016862 2
15.776026 9.074156 -0.016777 2
15.789543 9.005617 -0.016518 2
15.813740 8.941978 -0.016860 2
15.768313 8.847509 -0.013393 2
15.788289 8.782364 -0.013533 2
15.817668 8.725058 -0.014248 2
15.831192 8.653523 -0.014014 2
15.839433 8.583534 -0.013552 2
15.829002 8.505807 -0.012083 2
15.855101 8.443664 -0.012625 2
15.830148 8.071031 -0.007068 2
15.849788 8.010530 -0.007379 2
15.855549 7.941058 -0.006909 2
15.857315 7.870192 -0.006236 2
15.850154 7.799654 -0.005131 2
15.795323 7.707755 -0.001422 2
15.786122 7.630031 -0.000164 2
15.771700 7.554174 0.001325 2
15.778339 7.489838 0.001626 2
15.747454 7.269011 0.005296 24
15.794538 7.219513 0.003367 6
15.816992 7.081426 0.003463 4
15.035992 6.747603 0.046061 2
15.054792 6.628469 0.046107 16
15.880430 6.764179 0.002876 4
15.812935 6.673879 0.007033 4
15.794548 6.599768 0.008541 4
15.768233 6.523474 0.010460 4
15.784549 6.457282 0.010106 4
15.656004 6.219696 0.018363 6
15.648189 6.147233 0.019244 6
15.666056 6.085735 0.018717 4
15.668343 6.019792 0.019011 2
15.658849 5.950646 0.019921 2
15.659781 5.887912 0.020242 2
15.672890 5.825319 0.019922 2
15.673377 5.762643 0.020245 2
15.632009 5.685607 0.022804 2
15.628949 5.619086 0.023309 2
15.610172 5.548630 0.024638 2
15.614341 5.484300 0.024733 2
15.622147 5.420972 0.024623 2
15.610341 5.352832 0.025544 2
15.578872 5.280082 0.027497 2
15.550994 5.208540 0.029247 2
15.526717 5.138168 0.030793 2
15.498274 5.067108 0.032548 2
15.492907 5.001666 0.033065 2
15.474919 4.936711 0.034228 2
15.468391 4.874526 0.034773 2
15.407680 4.797411 0.038192 2
15.381788 4.728344 0.039751 2
15.394705 4.667785 0.039238 2
15.376124 4.600666 0.040385 2
15.369028 4.536124 0.040911 2
15.299032 4.459080 0.044761 2
15.299253 4.396491 0.044875 2
15.287482 4.331664 0.045614 2
15.299015 4.271437 0.045106 2
15.278923 4.205310 0.046263 2
15.270368 4.141521 0.046797 2
15.265510 4.078534 0.047123 2
15.204817 4.008939 0.050395 2
15.199477 3.946290 0.050725 2
15.205727 3.885707 0.050430 2
15.164469 3.817309 0.052641 2
15.201811 3.761973 0.050676 2
15.132914 3.686602 0.054329 2
15.146144 3.627527 0.053618 2
15.135021 3.567807 0.054189 1
15.128081 3.505789 0.054526 1
15.124871 3.444420 0.054655 1
15.046280 3.372573 0.058767 1
15.038635 3.311032 0.059109 1
14.999092 3.245361 0.061131 1
14.994951 3.184609 0.061265 1
14.970777 3.121418 0.062451 1
14.974123 3.061819 0.062168 1
14.977260 3.002222 0.061884 1
14.928261 2.939631 0.064362 1
14.923357 2.876386 0.064477 1
14.890100 2.813142 0.066092 1
14.892363 2.753896 0.065813 1
14.846727 2.689832 0.068065 1
14.872410 2.633094 0.066521 1
14.857858 2.575391 0.067112 1
14.843373 2.514869 0.067680 1
14.772962 2.449608 0.071209 1
14.781909 2.391522 0.070512 1
14.758802 2.330836 0.071508 1
14.755390 2.271856 0.071447 1
14.735835 2.211750 0.072234 1
14.680202 2.149297 0.074930 1
14.680136 2.090939 0.074660 1
14.683851 2.032846 0.074179 1
14.607617 1.970023 0.077944 1
14.598947 1.911517 0.078103 1
14.605877 1.856808 0.077436 1
14.584839 1.797806 0.078234 1
14.563591 1.738962 0.079033 1
14.562088 1.681111 0.078770 1
14.556392 1.623126 0.078720 1
14.534525 1.564633 0.079523 1
14.508458 1.506175 0.080541 1
14.506142 1.448574 0.080280 1
14.455707 1.389827 0.082582 1
14.441003 1.332188 0.082964 1
14.410123 1.274379 0.084202 1
14.414985 1.217289 0.083519 1
14.379706 1.159753 0.084974 1
14.360204 1.102576 0.085576 1
14.344495 1.045551 0.085964 1
14.312612 0.991479 0.087235 1
14.244591 0.934906 0.090413 1
14.300193 0.877955 0.086947 1
14.231779 0.821900 0.090129 1
14.231070 0.765379 0.089667 1
14.210194 0.709208 0.090278 1
14.209090 0.652764 0.089816 1
14.179838 0.597004 0.090860 1
14.170358 0.540888 0.090830 1
14.156691 0.484959 0.091016 1
14.146821 0.428981 0.090988 1
14.144739 0.372759 0.090529 1
14.118636 0.320353 0.091387 1
14.112058 0.261605 0.091122 1
14.101414 0.205896 0.091097 1
14.082599 0.150669 0.091505 1
14.023715 0.097789 0.094074 1
14.024632 0.044553 0.093426 1
14.013238 -0.010740 0.093405 1
-20.879179 1.044167 -0.007927 2
-20.926838 1.110505 -0.009837 2
-20.950298 1.176941 -0.010519 2
-20.997490 1.243861 -0.012425 2
-20.992577 1.306918 -0.011704 2
-21.027328 1.374069 -0.012995 2
-21.021906 1.440524 -0.012247 2
-21.076151 1.508570 -0.014554 2
-21.090225 1.575777 -0.014823 2
-21.076225 1.638799 -0.013695 2
-21.073996 1.702181 -0.013178 2
-21.071421 1.768891 -0.012633 2
-21.076595 1.835944 -0.012496 2
-21.089357 1.906762 -0.012737 2
-21.110006 1.974755 -0.013410 2
-21.142561 2.040213 -0.014717 2
-21.190653 2.110180 -0.016806 2
-21.237503 2.318954 -0.018176 16
-21.287563 2.458028 -0.020115 2
-21.306244 2.527378 -0.020779 2
-21.320972 2.593166 -0.021268 2
-21.343439 2.659754 -0.022160 2
-21.392923 2.735784 -0.024407 2
-21.410604 2.805829 -0.025067 2
-21.432337 2.873005 -0.025954 2
-21.481325 2.946536 -0.028222 2
-21.522089 3.019606 -0.030085 2
-21.590017 3.099394 -0.033326 2
-21.606386 3.170541 -0.033978 2
-21.670519 3.243842 -0.037067 2
-21.722073 3.319639 -0.039522 2
-21.741610 3.391972 -0.040370 2
-21.788631 3.467937 -0.042621 2
-21.855621 3.543333 -0.045898 2
-21.866419 3.615371 -0.046341 2
-21.864611 3.689381 -0.046154 2
-21.886751 3.763244 -0.047196 2
-21.913069 3.834376 -0.048465 2
-21.930717 3.908044 -0.049304 2
-21.995508 3.988967 -0.052539 2
-22.020489 4.064326 -0.053774 2
-22.033344 4.138039 -0.054410 2
-22.045931 4.211878 -0.055045 2
-22.062187 4.286490 -0.055879 2
-22.145151 4.372479 -0.060096 2
-22.118099 4.436697 -0.058765 2
-22.141396 4.513218 -0.059993 2
-22.179506 4.596275 -0.061987 2
-22.229713 4.678269 -0.064603 2
-22.287449 4.762115 -0.067613 2
-22.348770 4.847150 -0.070818 2
-22.452898 4.940979 -0.076201 2
-22.494596 5.019679 -0.078436 2
-22.527447 5.100722 -0.080243 2
-22.618704 5.193994 -0.085019 2
-22.635229 5.272557 -0.086029 2
-22.631912 5.347166 -0.086049 2
-22.652538 5.423218 -0.087284 2
-22.637753 5.491806 -0.086740 2
-22.711658 5.583811 -0.090710 2
-22.695526 5.656213 -0.090135 2
-22.710300 5.735684 -0.091140 2
-22.702293 5.962942 -0.091589 40
-22.966932 6.259567 -0.105999 3
-22.944569 6.331870 -0.105224 3
-22.929693 6.406079 -0.104842 3
-22.810200 6.608719 -0.099976 100
-23.139845 6.932100 -0.118065 3
-22.984503 6.967747 -0.110635 3
-23.078712 7.074274 -0.115927 3
-23.164762 7.179291 -0.120822 3
-23.204361 7.271389 -0.123368 3
-23.308638 7.383325 -0.129231 3
-23.347395 7.476351 -0.131770 3
-23.443050 7.587319 -0.137233 3
-23.294025 7.623118 -0.130213 3
-23.104252 7.641072 -0.121086 3
-23.102606 7.725794 -0.121649 3
-23.185465 7.833878 -0.126523 3
-23.314621 7.953766 -0.133756 3
-23.221922 8.005723 -0.129674 3
-23.204914 8.082422 -0.129485 3
-23.236837 8.175706 -0.131821 3
-20.195427 7.649062 0.019669 2
-23.110622 8.797372 -0.131481 3
-23.247976 8.932598 -0.139415 3
-23.317352 9.043504 -0.143864 3
-23.352612 9.142184 -0.146570 3
-23.347862 9.221684 -0.147180 3
-23.106781 9.213742 -0.135607 3
-23.011044 9.261202 -0.131566 3
-23.052631 9.362633 -0.134661 3
-23.653727 9.688993 -0.166839 3
-23.645481 9.773658 -0.167411 3
-23.688839 10.057170 -0.172778 67
-23.712317 10.156227 -0.175077 63
-23.650810 10.219579 -0.172957 7
-20.649923 9.097210 -0.018141 5
-20.437218 9.154788 -0.008926 5
-20.151733 9.177054 0.004097 2
-20.148537 9.252067 0.003243 2
-23.377609 10.904304 -0.169140 33
-23.245167 10.933339 -0.163411 45
-23.210363 11.007570 -0.162844 67
-23.056232 11.025043 -0.155981 43
-22.873425 11.027731 -0.147599 43
-22.751989 11.058870 -0.142467 42
-22.542597 11.041843 -0.132605 24
-22.385559 11.053583 -0.125582 10
-22.176847 11.042980 -0.115875 40
-22.018421 11.047281 -0.108706 10
-21.835230 11.038024 -0.100213 9
-21.638144 11.029088 -0.091107 16
-21.379190 10.982538 -0.078616 28
-21.273296 11.013446 -0.074305 15
-21.135565 11.027061 -0.068290 15
-20.941439 11.009993 -0.059246 18
-20.786465 11.012346 -0.052298 11
-20.564819 10.977833 -0.041757 20
-20.463110 11.006568 -0.037668 11
-20.310570 11.002798 -0.030767 11
-20.084738 10.957693 -0.019899 13
-19.974741 10.983348 -0.015426 15
-19.849112 10.995455 -0.010037 15
-19.553108 10.991733 0.003178 10
-19.457466 11.014261 0.007015 15
-19.346279 11.031310 0.011624 12
-19.269714 11.067808 0.014342 17
-18.917007 11.021574 0.030699 33
-18.905937 11.095023 0.029823 40
-18.826069 11.127349 0.032712 30
-18.749599 11.161312 0.035409 30
-18.594666 11.146974 0.042429 47
-18.358368 11.081420 0.053955 22
-18.110899 11.003100 0.066199 22
-18.069098 11.055177 0.066994 24
-17.858074 11.000632 0.077175 22
-17.725222 10.993977 0.083029 29
-17.521923 10.941313 0.092816 44
-17.433378 10.960938 0.096219 42
-17.425314 11.032293 0.095119 17
-17.229704 10.981201 0.104510 31
-17.141388 10.999247 0.107900 19
-16.923334 10.930569 0.118584 10
-16.875288 10.973845 0.119718 18
-16.812305 11.003143 0.121766 10
-16.714678 11.004869 0.125848 6
-18.307919 11.088909 0.167900 15
-17.817955 10.862860 0.190388 30
-18.091492 11.111444 0.175824 7
-17.627083 10.896424 0.197131 7
-17.784550 11.073466 0.188166 7
-17.090658 10.851783 0.218259 10
-16.821512 10.824826 0.228877 6
-17.166187 11.129403 0.210578 24
-16.565531 10.876842 0.237553 26
-16.530952 10.927759 0.237928 16
-16.578545 11.035142 0.234214 13
-16.446743 11.245178 0.235218 6
-15.818656 10.873335 0.265276 25
-15.920420 11.019587 0.258782 9
-16.146152 11.253235 0.246084 13
-16.250965 11.401413 0.239424 6
-15.208414 10.855837 0.287839 8
-15.273186 11.049273 0.281688 9
-15.680082 11.432132 0.259453 6
-15.062787 11.107513 0.288051 23
-15.005327 11.136009 0.289517 51
-15.007607 11.211056 0.287902 34
-14.998765 11.274064 0.286919 8
-14.311885 10.802413 0.320926 13
-14.645825 11.140106 0.302141 16
-15.223405 11.678364 0.270594 40
-14.223268 11.014372 0.319578 7
-14.950363 11.684562 0.279990 9
-13.853850 10.921917 0.334376 7
-13.693716 10.857900 0.341286 5
-14.192941 11.350838 0.313367 8
-13.206917 10.854341 0.357973 7
-13.254887 11.107567 0.350616 5
-12.935513 10.960420 0.364654 20
-12.959641 11.052622 0.361717 32
-13.036170 11.193857 0.355896 45
-12.981775 11.211503 0.357277 20
-12.870100 11.178983 0.361713 7
-13.117951 11.557206 0.344644 21
-13.133079 11.645738 0.342039 44
-12.957464 11.551783 0.349988 10
-11.906375 10.609281 0.406676 6
-12.436824 11.193281 0.375447 7
-11.892899 11.144395 0.393925 7
-11.985518 11.383204 0.385016 9
-12.247792 11.729852 0.368078 7
-11.769506 11.302347 0.393767 16
-11.578782 11.240630 0.401218 30
-11.526611 11.256596 0.402402 19
-11.214819 10.995243 0.418676 54
-11.195127 11.040590 0.418094 22
-11.127677 11.037333 0.420218 15
-10.950331 10.912290 0.428840 24
-11.001604 11.113487 0.421992 22
-10.999829 11.179290 0.420296 31
-10.627753 10.825388 0.440763 25
-10.640762 10.909721 0.438120 21
-10.488663 10.877755 0.443442 4
-10.446590 11.039803 0.440253 12
-10.478244 11.148993 0.436348 12
-10.618461 11.386023 0.425807 20
-10.200062 10.954164 0.449672 6
-10.104372 10.908727 0.453650 14
-9.888296 10.780663 0.463317 40
-9.944248 10.920413 0.457831 23
-9.902828 10.943359 0.458341 23
-9.782899 10.860008 0.464025 24
-9.686621 10.808728 0.468140 36
-9.726864 10.934629 0.463452 18
-9.664461 10.922429 0.465509 18
-9.622443 10.939759 0.466159 18
-9.563404 10.934690 0.467906 16
-9.441664 10.846557 0.473735 20
-9.360831 10.807477 0.477039 30
-9.362454 10.881248 0.474854 26
-9.304061 10.874941 0.476592 16
-9.248175 10.871564 0.478171 40
-9.194762 10.871141 0.479591 38
-9.183741 10.928664 0.478189 20
-9.018686 10.776775 0.486978 24
-8.996130 10.817602 0.486355 28
-8.864791 10.846968 0.488855 20
-8.875992 10.936640 0.485882 18
-8.802649 10.904795 0.488695 18
-8.768013 10.928617 0.488848 22
-8.719810 10.932487 0.489938 20
-8.595128 10.819021 0.496486 48
-8.555835 10.831007 0.497095 35
-8.490466 10.807377 0.499427 26
-8.509022 10.910165 0.495826 20
-8.382370 10.792543 0.502523 26
-8.307206 10.755691 0.505480 35
-8.338087 10.878551 0.500941 24
-8.322938 10.931049 0.499678 20
-8.273211 10.929580 0.500908 22
-8.221442 10.924502 0.502293 22
-8.171906 10.922574 0.503519 22
-8.088737 10.866083 0.507235 26
-8.047953 10.877203 0.507835 24
-8.010977 10.890513 0.508271 22
-7.932873 10.839801 0.511668 35
-7.844894 10.771540 0.515840 33
-7.865717 10.880223 0.511918 5
-5.504056 7.020400 0.688070 42
-5.470915 7.012014 0.689077 46
-5.437874 7.003471 0.690084 50
-5.403995 6.990704 0.691240 54
-5.369194 6.978373 0.692400 55
-5.332555 6.962391 0.693713 52
-5.298023 6.949715 0.694870 52
-5.271384 6.950847 0.695405 51
-5.237063 6.937862 0.696559 51
-5.210540 6.938741 0.697092 49
-5.182146 6.935994 0.697780 52
-5.152774 6.933677 0.698469 55
-5.124499 6.930674 0.699155 56
-5.097320 6.926998 0.699836 56
-5.072055 6.926747 0.700361 58
-5.034731 6.905653 0.701818 62
-5.006747 6.902137 0.702499 69
-4.977006 6.894938 0.703335 65
-4.949160 6.891169 0.704014 66
-4.919582 6.883706 0.704847 63
-4.895437 6.886843 0.705216 59
-4.864231 6.875546 0.706202 66
-4.840164 6.878466 0.706569 68
-4.816113 6.881289 0.706935 71
-4.792077 6.884016 0.707300 73
-4.767366 6.882548 0.707816 76
-4.740989 6.877367 0.708486 78
-4.718735 6.883418 0.708695 78
-4.694790 6.885758 0.709057 78
-4.674201 6.895267 0.709110 78
-4.643640 6.882879 0.710087 80
-4.618130 6.881279 0.710602 80
-4.592664 6.879573 0.711115 78
-4.568860 6.881416 0.711473 79
-4.545076 6.883165 0.711831 80
-4.518126 6.877488 0.712496 79
-4.493853 6.874924 0.713003 78
-4.471735 6.880054 0.713205 79
-4.443921 6.874490 0.713869 73
-4.421832 6.879435 0.714069 78
-4.397707 6.876487 0.714574 76
-4.375636 6.881260 0.714772 74
-4.353561 6.885952 0.714970 73
-4.328502 6.883143 0.715475 73
-4.307924 6.891374 0.715517 73
-4.282924 6.888375 0.716020 76
-4.257974 6.885274 0.716523 78
-4.235950 6.889529 0.716717 80
-4.213925 6.893703 0.716910 81
-4.191899 6.897794 0.717103 101
-4.169503 6.897674 0.717447 102
-4.150262 6.909098 0.717331 102
-4.126847 6.909199 0.717676 102
-4.102097 6.905451 0.718173 103
-4.080095 6.909128 0.718362 103
-4.052754 6.897653 0.719165 105
-4.034482 6.908331 0.719045 104
-4.011200 6.907981 0.719386 105
-3.989242 6.911323 0.719572 104
-3.966002 6.910798 0.719912 105
-3.940253 6.902602 0.720558 103
-3.918354 6.905683 0.720742 104
-3.895214 6.904884 0.721080 105
-3.873333 6.907798 0.721263 102
-3.850239 6.906825 0.721599 105
-3.825972 6.901951 0.722088 102
-3.802953 6.900795 0.722423 81
-3.780994 6.899233 0.722755 80
-3.760231 6.901415 0.722934 81
-3.738442 6.903834 0.723113 81
-3.712107 6.890846 0.723905 78
-3.690475 6.897227 0.723931 76
-3.667711 6.899688 0.724110 78
-3.647014 6.901474 0.724285 74
-3.626325 6.903187 0.724460 74
-3.604611 6.905116 0.724635 78
-3.581846 6.903110 0.724963 78
-3.562247 6.912592 0.724831 78
-3.540540 6.914286 0.725005 79
-3.517825 6.912035 0.725331 101
-3.495144 6.909697 0.725656 81
-3.474479 6.915019 0.725674 102
-3.453795 6.920268 0.725692 101
-3.432130 6.921566 0.725862 102
-3.412459 6.926414 0.725878 102
-3.388927 6.919789 0.726354 103
-3.368226 6.924739 0.726369 104
-3.345690 6.921833 0.726690 105
-3.323192 6.918842 0.727010 105
-3.303378 6.927462 0.726870 104
-3.280046 6.920409 0.727342 103
-3.258490 6.921075 0.727508 106
-3.236944 6.921662 0.727672 104
-3.216446 6.921953 0.727836 105
-3.194925 6.922389 0.727999 106
-3.172615 6.918830 0.728315 105
-3.151132 6.919106 0.728477 106
-3.129662 6.919306 0.728639 106
-3.108205 6.919427 0.728800 106
-3.087508 6.923398 0.728807 106
-3.064600 6.915508 0.729272 106
-3.042479 6.911463 0.729585 106
-3.021105 6.911270 0.729743 106
-2.999054 6.907063 0.730054 106
-2.977723 6.906713 0.730211 106
-2.957439 6.906114 0.730367 106
-2.935488 6.901670 0.730676 106
-2.914854 6.905039 0.730679 106
-2.893584 6.904387 0.730834 106
-2.872941 6.907608 0.730835 106
-2.851095 6.902853 0.731141 106
-2.829875 6.901972 0.731294 106
-2.809241 6.904971 0.731294 106
-2.788596 6.907898 0.731293 106
-2.767400 6.906793 0.731444 106
-2.746749 6.909575 0.731441 106
-2.726608 6.908186 0.731591 106
-2.707486 6.914660 0.731435 106
-2.685773 6.917359 0.731431 106
-2.664614 6.915886 0.731579 106
-2.643473 6.914338 0.731726 106
-2.623241 6.920659 0.731567 106
-2.603146 6.918851 0.731714 106
-2.582454 6.921059 0.731707 106
-2.561754 6.923194 0.731699 106
-2.540268 6.917302 0.731997 105
-2.518548 6.919387 0.731988 105
-2.498527 6.917225 0.732131 105
-2.478537 6.927032 0.731815 106
-2.456780 6.928892 0.731804 106
-2.436771 6.926521 0.731946 106
-2.417089 6.928068 0.731935 106
-2.395329 6.929703 0.731922 106
-2.374878 6.935173 0.731755 106
-2.354131 6.936584 0.731742 106
-2.333378 6.937922 0.731727 106
-2.313184 6.931147 0.732019 105
-2.292451 6.932342 0.732004 103
-2.271714 6.933465 0.731988 102
-2.249935 6.934567 0.731970 105
-2.229190 6.935542 0.731953 102
-2.208275 6.932451 0.732088 103
-2.187538 6.933280 0.732069 103
-2.167835 6.934001 0.732051 104
-2.148130 6.934657 0.732032 104
-2.125901 6.919323 0.732624 103
-2.105210 6.919865 0.732603 103
-2.084517 6.920335 0.732582 103
-2.064857 6.920714 0.732561 102
-2.043071 6.917061 0.732690 62
-2.023380 6.913306 0.732822 62
-2.002711 6.913490 0.732798 62
-1.981021 6.917603 0.732619 62
-1.961371 6.917639 0.732595 61
-1.940687 6.917607 0.732570 61
-1.920057 6.909509 0.732850 102
-1.899484 6.901339 0.733131 105
-1.879834 6.905101 0.732951 104
-1.859126 6.908781 0.732770 108
-1.837407 6.960342 0.730747 112
-1.816983 6.899914 0.733018 106
-1.797283 6.903402 0.732836 104
-1.776526 6.906792 0.732653 103
-1.754710 6.910073 0.732467 62
-1.734783 6.917347 0.732130 55
-1.714101 6.916524 0.732098 51
-1.693063 6.923615 0.731758 51
-1.671973 6.930631 0.731418 53
-1.651037 6.933580 0.731230 53
-1.630078 6.936455 0.731042 53
-1.610368 6.935328 0.731009 53
-1.589127 6.942049 0.730666 56
-1.568097 6.944705 0.730476 58
-1.546769 6.951275 0.730131 60
-1.525099 6.961755 0.729632 60
-1.504568 6.956214 0.729748 57
-1.480888 6.990446 0.728325 30
-1.411606 7.068790 0.724974 0
-1.394874 7.019083 0.726779 0
-1.358446 7.164164 0.721038 0
-1.334898 7.181909 0.720224 0
-1.323265 7.084279 0.723876 0
-1.300066 7.109951 0.722755 0
-1.232147 7.126391 0.721691 11
-1.209873 7.139813 0.721029 15
-1.182445 7.184747 0.719131 7
-1.155206 7.225600 0.717385 4
-1.096608 7.330721 0.712964 8
-0.473984 11.121968 0.564432 30
-0.447546 11.057428 0.566662 31
-0.416679 11.024432 0.567657 28
-0.387267 10.983446 0.568960 21
-0.340972 11.048926 0.566090 52
-0.316914 10.976165 0.568628 64
-0.278765 10.990075 0.567765 67
-0.231705 11.055053 0.564890 45
-0.177270 11.159192 0.560466 34
-0.137240 11.188635 0.558984 31
-0.104532 11.166480 0.559506 33
-0.066841 11.171729 0.558945 31
-0.031325 11.165057 0.558847 31
-0.000380 11.134714 0.559677 31
0.046584 11.186638 0.557253 28
0.078224 11.159974 0.557927 27
0.106337 11.125743 0.558914 28
0.156309 11.188912 0.556021 25
0.193536 11.189283 0.555607 28
0.227434 11.173886 0.555811 27
0.252720 11.119328 0.557566 40
0.287185 11.107639 0.557614 43
0.338320 11.169911 0.554712 34
0.360420 11.103390 0.556932 43
0.388436 11.064086 0.558064 51
0.419890 11.040268 0.558575 45
0.488589 11.171801 0.552869 25
0.521258 11.151541 0.553221 25
0.556701 11.142817 0.553106 24
0.583336 11.099083 0.554390 24
0.622761 11.113829 0.553346 30
0.662311 11.128426 0.552301 37
0.689557 11.088280 0.553427 30
0.730945 11.102143 0.552374 60
0.770379 11.108123 0.551630 42
0.793011 11.052266 0.553378 25
0.855879 11.142734 0.549204 26
0.892370 11.136689 0.548923 45
0.924896 11.123329 0.548960 42
0.966437 11.128047 0.548204 47
1.034993 11.224662 0.543701 17
1.075231 11.229472 0.542947 19
1.108643 11.211157 0.543128 21
1.151805 11.231518 0.541753 22
1.185737 11.221141 0.541627 22
1.193485 11.114139 0.545393 42
1.234802 11.122128 0.544477 68
1.275659 11.134323 0.543410 74
1.319631 11.149591 0.542179 60
1.369955 11.183673 0.540163 40
1.423066 11.225115 0.537833 30
1.432139 11.133640 0.540980 39
1.493130 11.197459 0.537706 29
1.527432 11.181561 0.537720 26
1.568202 11.184432 0.536949 65
1.616493 11.214174 0.535087 34
1.664143 11.235540 0.533529 26
1.705696 11.233477 0.532903 27
1.749575 11.243168 0.531812 26
1.787660 11.242070 0.531198 24
1.833107 11.255169 0.529947 21
1.868903 11.241865 0.529794 17
1.918766 11.265829 0.528068 17
1.960297 11.267163 0.527284 14
2.009039 11.175534 0.529637 26
2.129512 11.071689 0.531058 60
2.171997 11.080263 0.529959 42
2.216345 11.087938 0.528851 52
2.282363 11.147059 0.525533 35
2.320885 11.139553 0.525052 36
2.357840 11.128223 0.524728 45
2.391610 11.109417 0.524719 28
2.415751 11.068501 0.525656 31
2.606532 11.408248 0.510155 33
2.595954 11.286246 0.514565 29
2.685645 11.390709 0.509170 26
2.647983 11.210463 0.516114 31
2.678650 11.183401 0.516413 19
2.817616 11.392336 0.506417 35
2.799985 11.264011 0.511156 33
2.864475 11.313346 0.508131 28
2.857398 11.113394 0.515062 22
2.899611 11.110928 0.514245 7
3.012245 11.162933 0.510067 31
3.060084 11.170607 0.508769 17
3.102697 11.167334 0.507945 5
3.197061 11.178098 0.505499 7
3.582776 11.753016 0.477729 28
3.355064 11.227320 0.500312 15
3.735603 11.867289 0.470476 24
3.448771 11.232373 0.498005 9
3.480719 11.206374 0.498125 13
3.826457 11.764791 0.471758 26
3.612786 11.280605 0.492616 9
3.970466 11.850413 0.465584 14
4.050323 11.554187 0.473293 20
3.914144 11.231512 0.487006 37
3.961846 11.231704 0.485832 7
4.005596 11.224781 0.484978 16
4.472537 11.937888 0.450611 6
4.380978 11.615846 0.463158 16
4.438616 11.627895 0.461325 34
4.444385 11.549692 0.463654 16
4.432986 11.444312 0.467271 40
4.547267 11.552361 0.460945 24
4.601212 11.561285 0.459277 16
4.625340 11.517986 0.460009 36
4.566124 11.342786 0.467020 24
4.610779 11.333436 0.466144 16
4.817064 11.576356 0.453181 16
4.929791 11.670183 0.447298 36
5.008533 11.628508 0.446488 6
4.961947 11.477361 0.452378 14
5.158959 11.538037 0.445189 12
5.299099 11.665152 0.437499 25
4.981652 11.122096 0.462655 28
5.087345 11.199769 0.457393 40
5.548281 11.706779 0.429346 6
5.695840 11.832635 0.421450 17
5.328738 11.240433 0.449428 8
5.653061 11.617815 0.429047 6
5.528721 11.367548 0.439989 23
5.499083 11.250826 0.444279 4
5.665404 11.327150 0.437257 21
5.682355 11.274805 0.438296 29
5.706218 11.232066 0.438847 25
5.735313 11.200203 0.438922 55
5.761866 11.165076 0.439160 12
6.294896 11.788982 0.405470 9
6.334403 11.758653 0.405173 11
6.159411 11.459480 0.418940 14
6.535411 11.865724 0.396127 13
6.466437 11.696325 0.403011 6
6.205004 11.220141 0.424366 8
6.610000 11.571414 0.402183 31
6.654445 11.550724 0.401401 15
6.696313 11.526765 0.400781 24
6.707546 11.465691 0.402127 29
6.770358 11.470668 0.400044 9
6.809441 11.443190 0.399585 9
7.237236 11.871893 0.374473 11
7.277738 11.842765 0.373999 9
7.279131 11.767970 0.375989 11
7.286082 11.703989 0.377503 7
7.413283 11.778864 0.371447 4
7.755447 12.090285 0.352179 5
7.545705 11.774473 0.367341 7
7.519510 11.373751 0.378790 7
7.605257 11.398168 0.375349 23
7.706662 11.435110 0.371061 30
7.963755 11.638123 0.357336 16
8.088365 11.696670 0.351708 10
8.091825 11.622013 0.353511 19
8.719391 12.211047 0.317558 10
8.747414 12.162157 0.317867 15
8.441282 11.763434 0.338237 7
8.510483 11.617731 0.339563 25
8.615051 11.649208 0.335226 25
8.629579 11.589610 0.336208 12
8.706177 11.592024 0.333529 17
8.862561 11.672642 0.326181 15
9.680785 12.086012 0.287810 13
6.426586 8.873121 0.478364 1
6.438062 8.831628 0.478940 1
6.374521 8.718028 0.483856 1
6.393953 8.679308 0.484073 1
6.403029 8.633922 0.484806 1
6.386894 8.568535 0.486895 1
6.404377 8.531323 0.487127 1
6.368109 8.446099 0.490381 1
6.313426 8.345287 0.494646 1
6.333045 8.311072 0.494714 1
6.337499 8.263638 0.495622 1
6.395982 8.263492 0.493502 1
6.403165 8.218598 0.494242 1
6.355548 8.126893 0.498015 1
6.362146 8.082269 0.498758 1
6.347178 8.019615 0.500682 1
6.364312 7.986885 0.500764 1
6.396334 7.917307 0.501085 1
6.401936 7.872856 0.501831 1
6.422802 7.841095 0.501731 3
6.434239 7.801719 0.502138 3
6.426832 7.747301 0.503562 3
6.442164 7.709028 0.503788 3
6.459293 7.674687 0.503857 4
6.465710 7.634357 0.504449 4
6.469958 7.590122 0.505198 4
6.486621 7.555750 0.505268 6
6.501122 7.517423 0.505494 13
6.517496 7.482988 0.505564 17
6.535787 7.452419 0.505477 22
6.571036 7.432357 0.504525 4
6.664985 7.406926 0.501410 1
6.692632 7.383038 0.500808 1
6.734216 7.366976 0.499508 1
6.825368 7.384454 0.495632 1
6.867057 7.367790 0.494327 1
6.897886 7.345471 0.493548 1
6.952554 7.337696 0.491556 1
7.011644 7.330357 0.489376 1
7.094760 7.344186 0.485852 1
7.141999 7.332401 0.484208 1
7.190362 7.318776 0.482548 1
7.248625 7.311676 0.480371 1
7.350988 7.331873 0.475945 1
7.566528 7.333694 0.467321 17
7.743110 7.356392 0.459846 3
7.871307 7.393978 0.454041 1
7.912382 7.323028 0.453595 1
8.072631 7.376513 0.446207 1
8.193947 7.401573 0.440866 2
8.250113 7.387308 0.438819 2
8.408119 7.436028 0.431581 2
8.449828 7.414201 0.430234 2
8.550559 7.425822 0.425925 2
8.695897 7.463790 0.419359 2
8.735527 7.436869 0.418159 2
8.778527 7.411800 0.416784 2
8.903968 7.435447 0.411240 2
9.105471 7.502891 0.401869 2
9.131572 7.466240 0.401350 2
9.185216 7.445509 0.399439 2
9.345132 7.488173 0.392149 2
9.499648 7.523885 0.385180 2
9.560632 7.505483 0.382907 2
9.600714 7.475003 0.381677 2
9.776915 7.520095 0.373642 2
9.817115 7.488739 0.372405 2
9.888787 7.474447 0.369594 2
10.013187 7.488327 0.364159 2
10.102638 7.482477 0.360465 2
10.363085 7.512134 0.349036 4
10.467143 7.511789 0.344625 4
10.669459 7.564650 0.335319 7
10.758638 7.557569 0.331615 4
10.799253 7.522236 0.330345 4
10.914606 7.524683 0.325385 2
17.077200 10.569180 0.022685 4
17.053278 10.474127 0.024913 4
17.093405 10.411242 0.023975 4
17.054380 10.309499 0.026911 4
17.043636 10.222114 0.028441 4
17.075718 10.155721 0.027857 4
17.057077 10.065122 0.029743 4
17.084999 9.996974 0.029336 4
17.076494 9.911784 0.030695 4
17.040716 9.818297 0.033322 4
17.025724 9.726878 0.035010 4
17.017591 9.639003 0.036346 4
16.973309 9.543118 0.039336 4
16.976011 9.468853 0.040027 4
16.994507 9.397840 0.039980 4
16.998104 9.320371 0.040643 4
16.997726 9.241385 0.041485 4
17.035152 9.175006 0.040522 4
17.063581 9.108649 0.039943 4
17.060928 9.033068 0.040815 4
17.011457 8.934209 0.043974 4
11.180472 6.387693 0.326529 26
17.132227 8.595979 0.041796 4
17.111618 8.506902 0.043510 4
17.110357 8.433444 0.044212 4
17.120001 8.364400 0.044378 4
17.070953 8.269200 0.047380 4
17.058847 8.188579 0.048595 4
17.072605 8.117940 0.048557 4
17.093597 8.050071 0.048161 4
17.121849 7.984892 0.047405 4
16.924482 7.837869 0.057422 4
16.882238 7.526381 0.061619 8
16.777521 7.413218 0.067147 8
16.799801 7.347771 0.066583 16
15.028685 6.684802 0.151349 27
15.063608 6.630492 0.150116 6
16.937731 7.109030 0.061850 4
16.913279 7.028414 0.063453 4
16.907545 6.954065 0.064153 4
16.921940 6.813953 0.064289 8
16.930660 6.744513 0.064267 8
16.954433 6.679687 0.063520 4
16.866898 6.581771 0.068035 4
16.893946 6.518266 0.067109 4
16.886232 6.444642 0.067817 4
16.847500 6.362359 0.069981 4
16.725748 6.190289 0.076350 12
16.768375 6.065067 0.074899 4
16.820694 6.008945 0.072699 4
16.753067 5.920957 0.076155 4
16.746935 5.849576 0.076693 4
16.756016 5.782263 0.076502 4
16.760981 5.713969 0.076495 4
16.734674 5.637985 0.077951 3
16.731354 5.567945 0.078311 3
16.673391 5.484868 0.081237 3
16.665617 5.414256 0.081784 3
16.665358 5.345572 0.081965 3
16.621267 5.270329 0.084194 3
16.616585 5.201023 0.084562 3
16.592146 5.127454 0.085849 3
16.586935 5.058388 0.086220 3
16.554127 4.983510 0.087879 3
16.521023 4.908912 0.089541 3
16.499359 4.837039 0.090653 3
16.500906 4.770174 0.090661 3
16.498293 4.702558 0.090854 3
16.444475 4.624940 0.093448 3
16.425644 4.554589 0.094383 3
16.402622 4.483666 0.095504 3
16.387184 4.414414 0.096258 3
16.383280 4.347471 0.096458 3
16.339802 4.273539 0.098510 3
16.327515 4.205488 0.099084 3
16.311039 4.136884 0.099844 3
16.296507 4.006580 0.100468 3
16.175234 3.723767 0.105928 3
16.160458 3.660117 0.106540 3
16.169643 3.596847 0.106010 3
16.127167 3.526332 0.107903 3
16.124008 3.461556 0.107934 3
16.124580 3.397361 0.107779 3
16.053598 3.323949 0.110986 3
16.053682 3.260055 0.110834 3
16.013880 3.191332 0.112553 3
16.033333 3.129992 0.111467 3
16.004946 3.063047 0.112628 3
15.988222 2.997658 0.113229 3
15.987152 2.934133 0.113081 3
15.886186 2.863344 0.117650 3
15.908492 2.802649 0.116380 3
15.886850 2.737538 0.117175 3
15.864972 2.672601 0.117972 3
15.874691 2.610730 0.117267 3
15.842819 2.420037 0.117975 3
15.729198 2.224625 0.122467 3
15.693508 2.160226 0.123843 3
14.588419 -0.970935 0.147344 3
14.581450 -1.028689 0.146878 3
-22.267078 1.040083 0.039304 4
-22.282808 1.107510 0.039132 4
-22.306274 1.178665 0.038628 4
-22.409405 1.251005 0.034508 4
-22.444296 1.326538 0.033495 4
-22.451082 1.394616 0.033689 4
-22.453568 1.466228 0.034094 4
-22.459795 1.537968 0.034317 4
-22.481642 1.613821 0.033850 4
-22.495461 1.682403 0.033685 4
-22.493076 1.750491 0.034240 4
-22.498165 1.826062 0.034494 4
-22.582973 1.901624 0.031123 4
