# .PCD v.7 - Point Cloud Data file format
VERSION .7
FIELDS x y z intensity
SIZE 4 4 4 1
TYPE F F F U
COUNT 1 1 1 1
WIDTH 1479
HEIGHT 1
VIEWPOINT 0 0 0 1 0 0 0
POINTS 1479
DATA ascii
-3.107264 6.788517 1.353396 0
-3.081679 6.765062 1.351544 0
-3.067481 6.800309 1.353676 0
-3.046729 6.796105 1.353151 0
-3.167976 7.982727 1.432338 0
-3.144769 7.986696 1.432342 0
-3.121548 7.990589 1.432346 0
-3.087499 7.935508 1.428364 0
-3.062609 7.935462 1.428100 0
-3.038966 7.951291 1.428899 0
-3.014668 7.946940 1.428368 0
-2.989780 7.946632 1.428103 0
-2.963692 7.946412 1.427837 0
-2.939948 7.953827 1.428101 0
-2.917380 7.960994 1.428365 0
-2.890912 7.948472 1.427299 0
-2.866089 7.947723 1.427030 0
-2.844003 7.958610 1.427558 0
-2.818684 7.953733 1.427022 0
-2.795782 7.968578 1.427813 0
-2.769100 7.951632 1.426479 0
-2.744459 7.962486 1.427003 0
-2.719238 7.957248 1.426464 0
-2.697376 7.971636 1.427253 0
-2.673393 7.978140 1.427510 0
-2.648592 7.976618 1.427234 0
-2.624565 7.982954 1.427490 0
-2.600138 7.985233 1.427478 0
-2.582001 8.058991 1.432247 0
-2.350511 6.796015 1.347184 0
-2.330231 6.797345 1.347170 0
-2.308693 6.794680 1.346889 0
-2.289433 6.795806 1.346875 0
-2.268730 6.788951 1.346328 0
-2.247265 6.786059 1.346046 0
-2.227572 6.798989 1.346825 0
-2.205755 6.764001 1.344419 0
-2.237000 8.080912 1.432006 0
-2.213472 8.081793 1.431984 0
-2.188703 8.082637 1.431961 0
-2.162692 8.083429 1.431936 0
-2.132914 7.884599 1.418640 0
-2.113141 8.084675 1.431885 0
-2.088362 8.085169 1.431859 0
-2.063582 8.085575 1.431832 0
-2.038734 7.970145 1.424111 0
-2.015797 7.998307 1.425941 0
-1.991232 7.978505 1.424586 0
-1.965611 7.986557 1.425086 0
-1.942648 7.886759 1.418425 0
-1.918562 7.886659 1.418395 0
-1.893149 8.026159 1.427648 0
-1.684516 6.734732 1.341914 2
-1.643739 6.744627 1.342643 1
-1.534686 6.885677 1.352271 0
1.985427 50.828152 4.277111 30
2.168339 50.921486 4.283933 30
1.952633 46.381550 3.982296 23
2.102933 46.276196 3.975899 23
2.252175 46.166374 3.969234 23
2.906193 51.280136 4.310625 30
2.625525 45.159111 3.904235 44
2.792961 45.265873 3.912116 44
3.000787 45.729023 3.943801 46
3.163357 45.766960 3.947170 46
3.297731 45.562519 3.934398 45
3.669516 47.322895 4.052806 25
3.829143 47.351513 4.055636 25
3.689998 45.047829 3.902719 22
3.861564 45.162388 3.911356 44
4.966354 52.097790 4.375979 61
5.160594 52.252453 4.387476 30
5.373358 52.464382 4.402909 30
5.883590 53.357956 4.465431 30
6.028288 53.142300 4.452322 61
6.207906 53.098339 4.450812 30
6.897847 56.238045 4.662706 30
7.094645 56.291096 4.667785 30
7.295630 56.306408 4.670455 30
5.828490 45.620529 3.956434 23
5.996305 45.615273 3.957581 23
6.162823 45.646145 3.961119 23
6.313121 45.630749 3.961507 23
6.442301 45.460423 3.951580 46
6.596051 45.422997 3.950620 70
6.695869 45.070202 3.928533 45
6.852113 45.051472 3.928886 45
7.032470 45.190201 3.939804 46
7.229680 45.365700 3.953329 23
7.412116 45.425465 3.959178 23
7.664350 45.130589 3.942729 46
7.770936 44.882420 3.927773 45
7.950707 45.001778 3.937602 23
8.184494 45.317097 3.960834 70
8.347882 45.283520 3.960591 23
8.513917 45.260990 3.961134 47
8.665403 45.245434 3.961984 47
8.815956 45.225479 3.962567 23
9.046081 45.493702 3.982858 24
9.280153 45.768597 4.003665 49
9.471942 45.868347 4.012621 25
12.891558 58.453049 4.871465 30
12.974552 57.911804 4.837621 30
7.778025 36.606762 3.391725 12
7.968453 36.811035 3.407587 13
10.888437 46.119095 4.048530 25
8.110320 35.920723 3.352435 12
11.866106 47.126785 4.127929 27
8.692353 36.089947 3.372182 12
9.451519 38.124268 3.514225 14
9.161377 36.735062 3.420856 39
12.267056 46.160286 4.072533 26
9.601126 37.253613 3.461085 13
9.654167 36.985134 3.444864 13
9.525781 35.351154 3.338824 24
13.048033 45.372318 4.035579 51
9.746137 35.213505 3.333937 12
10.894584 37.751617 3.514987 14
13.826704 45.660713 4.067692 26
10.677268 35.969349 3.398536 13
11.683593 37.551586 3.517033 14
15.028286 46.033710 4.113704 27
15.283587 46.231503 4.131061 28
11.959758 37.131115 3.496037 14
11.919425 36.654552 3.465431 13
12.119579 36.434399 3.455706 13
11.794369 35.266335 3.376287 12
12.656202 37.049198 3.504979 14
16.636570 46.435394 4.171082 29
16.868357 46.547283 4.182879 29
21.973289 58.331139 5.021467 34
13.149156 36.836941 3.502170 14
19.585636 51.588501 4.553015 30
18.605007 48.821472 4.360813 30
18.855015 48.508579 4.347010 30
23.292246 58.094894 5.035592 34
20.819962 52.021572 4.606922 30
19.475502 48.122555 4.337271 30
19.867964 48.109421 4.345521 61
19.941383 47.859600 4.331987 61
20.113459 47.800934 4.332458 61
20.352276 47.882202 4.343066 30
20.690403 48.167480 4.368482 30
20.457661 47.247238 4.307030 30
21.015776 47.587650 4.341234 30
26.756767 58.721912 5.155343 38
21.399784 47.543880 4.348081 30
21.684471 47.301491 4.340628 30
21.970594 47.064480 4.333683 61
22.177673 47.069080 4.339282 61
22.504406 47.298672 4.361464 61
22.643475 47.170738 4.357454 61
22.778170 47.035362 4.352923 61
23.071936 47.194424 4.370148 30
25.408976 51.089672 4.663672 30
24.196571 48.495075 4.477354 30
26.402475 52.078346 4.748943 30
30.669127 59.283104 5.290519 42
26.835161 52.014706 4.756962 30
26.740797 51.435123 4.720229 30
26.803606 51.137291 4.704453 30
27.364214 51.703518 4.753298 30
27.448692 51.442238 4.740353 30
27.867390 51.752274 4.770293 30
32.981518 59.983234 5.395998 44
27.863173 50.943062 4.722961 30
33.246624 59.495075 5.375157 44
27.973326 50.341194 4.691144 30
27.876936 49.797089 4.656798 30
34.240883 59.745167 5.418553 45
34.523788 59.743938 5.426803 45
36.996681 63.240211 5.701538 53
29.117941 50.286091 4.721620 30
37.045128 62.407688 5.655114 51
37.168949 62.106339 5.641560 51
32.616966 54.583450 5.073303 37
36.604755 59.880276 5.497241 48
31.419535 51.575886 4.865206 31
37.557396 59.977356 5.532223 49
38.167404 60.437923 5.577350 50
38.457855 60.419643 5.585450 50
40.125996 60.629025 5.650480 52
40.509827 60.729034 5.668506 52
40.870445 60.770939 5.682596 53
41.140808 60.684784 5.686675 53
41.467758 60.719124 5.699348 53
41.808205 60.747536 5.712189 54
45.921806 65.863602 6.131235 63
46.205856 65.797401 6.137089 63
46.339314 65.528687 6.126814 63
45.961311 64.559647 6.060953 63
46.113052 64.299812 6.051892 63
46.389668 64.204575 6.056122 63
46.482285 63.846748 6.039817 62
46.783585 63.805630 6.047949 63
47.199352 63.886738 6.066711 63
47.400059 63.668533 6.061885 63
44.322685 57.312969 5.612569 52
45.073971 57.821510 5.666522 53
45.599598 58.070076 5.698617 54
46.440186 58.668217 5.760637 56
44.113632 55.507942 5.509410 49
45.361992 56.590134 5.611881 52
45.023335 55.803307 5.558165 50
44.480484 54.769684 5.484068 49
46.179531 56.345314 5.629107 52
45.054932 54.672440 5.500244 49
46.951454 56.465557 5.664035 53
45.358524 54.282570 5.491325 49
46.832245 55.557388 5.612544 52
47.188168 55.570686 5.626637 53
45.631680 53.490887 5.460776 48
45.750179 53.253708 5.453104 48
47.927647 55.238220 5.637658 53
46.036400 52.817291 5.441732 48
49.271946 55.925072 5.724210 55
47.005806 53.147186 5.495813 49
47.099934 52.883144 5.486090 49
48.296600 53.778477 5.577789 52
49.077423 54.225182 5.630733 53
49.276928 54.061089 5.630306 53
4.598886 7.736377 1.555482 0
4.611240 7.702034 1.554255 0
4.645856 7.690430 1.555048 0
49.737141 53.080528 5.599607 52
49.912537 52.911655 5.598239 52
52.777668 55.398220 5.835608 59
53.366154 55.581390 5.868253 60
51.483555 53.356770 5.683229 55
53.265522 54.726162 5.822289 58
4.874309 7.596005 1.559576 1
4.854143 7.530646 1.555576 0
4.826064 7.456061 1.550812 0
4.892106 7.473493 1.554363 0
4.907766 7.445270 1.553647 0
4.924437 7.415813 1.552920 0
4.945031 7.387828 1.552433 0
4.970275 7.366392 1.552459 0
5.003184 7.354151 1.553248 1
5.019461 7.324444 1.552519 0
5.054512 7.309513 1.553284 0
5.082495 7.290316 1.553558 0
5.125352 7.284257 1.555084 1
5.129334 7.243644 1.553350 0
5.085070 7.160994 1.547610 0
5.247061 7.260762 1.559161 1
80.156097 71.935814 7.763447 63
83.153915 73.494041 7.964200 63
69.766655 61.659267 6.842748 51
68.715599 60.348179 6.737228 52
70.495377 61.412796 6.863092 50
74.981293 64.722244 7.208954 63
75.027710 64.308769 7.192250 46
68.774239 58.732166 6.666457 53
69.778793 59.136005 6.728776 52
75.822266 63.139469 7.174710 46
77.261787 63.837749 7.269612 63
78.252373 64.168541 7.328326 63
104.838989 84.506691 9.412498 63
77.243134 62.504501 7.209859 63
136.376083 107.697418 11.843800 63
147.943054 115.787201 12.717446 63
88.932259 68.111877 7.981596 63
83.317978 62.573425 7.488591 63
85.391838 63.608208 7.627805 63
85.673988 63.371483 7.630867 63
85.822922 63.016861 7.622893 63
86.519562 63.047096 7.656476 63
86.590714 62.659836 7.643678 63
104.150642 73.250626 8.901458 63
99.806839 69.747803 8.554070 63
103.220673 71.547356 8.788155 63
105.447189 72.498482 8.931845 63
106.375885 72.572159 8.978758 63
116.450874 78.636612 9.700632 63
11.694251 8.581662 1.915617 78
11.691409 8.520918 1.913262 78
11.686116 8.455978 1.910642 83
11.706397 8.402112 1.909711 80
11.797374 7.784348 1.892671 2
11.744554 7.701818 1.887175 2
11.755150 7.588679 1.883908 6
11.757645 7.528066 1.882012 20
11.762358 7.471622 1.880381 18
11.765721 7.417620 1.878771 22
11.759126 7.356229 1.876415 38
11.759524 7.298300 1.874544 27
11.763319 7.242100 1.872915 15
11.777807 7.190879 1.872012 9
11.795749 7.141263 1.871351 6
11.798909 7.085128 1.869724 4
11.816471 7.035465 1.869062 2
11.822867 6.980978 1.867677 2
11.851056 6.935994 1.867739 2
11.868080 6.886187 1.867077 2
11.862855 6.827015 1.864970 2
11.871109 6.776527 1.863848 2
11.869116 6.719049 1.861983 2
11.832108 6.535210 1.854474 74
11.855115 6.488514 1.854295 18
11.960480 6.306507 1.854534 24
12.139583 6.318585 1.864415 4
62.601891 25.132322 5.093919 11
62.765343 24.679688 5.089774 7
62.703545 24.159159 5.071858 90
46.746067 14.161615 3.947222 91
-154.921158 25.936337 10.378964 63
-116.103935 24.115488 8.073056 63
-131.085022 30.452751 9.074300 63
-130.953934 30.897009 9.076156 63
-130.978195 31.353889 9.087376 63
-79.462166 20.390278 5.867675 63
-48.329548 16.077997 3.980961 57
-48.337185 16.259750 3.986182 57
-181.086288 77.043907 13.139308 63
-174.180939 76.250725 12.736680 63
-164.332642 72.623238 12.084642 63
-161.134628 71.877335 11.886704 63
-158.615204 71.378922 11.733721 63
-157.597473 71.575783 11.684789 63
-156.963562 71.974571 11.663331 63
-151.912994 70.296028 11.335243 63
-151.279129 70.636810 11.312148 63
-147.209122 69.946373 11.069878 63
-146.185974 70.078743 11.019247 63
-144.171677 69.725334 10.899233 63
-141.153336 68.867027 10.708499 63
-140.442444 69.119896 10.679007 63
-139.499069 69.253265 10.633133 63
-14.350276 7.193543 1.833257 2
-14.278634 7.211562 1.830062 2
-14.203462 7.227344 1.826611 2
-14.085721 7.220783 1.820134 1
-14.195014 7.331040 1.829777 2
-14.363827 7.473573 1.843711 2
-13.501513 7.123247 1.785828 1
-13.428304 7.133213 1.782332 1
-13.374079 7.158126 1.780377 1
-12.714601 7.096228 1.743714 1
-12.586860 7.070402 1.736137 1
-12.651998 7.157326 1.742743 1
-85.012909 60.495804 9.894639 63
-84.196999 60.346939 9.831233 63
-82.687004 59.686943 9.692484 63
-15.698558 11.275774 2.462957 104
-15.847053 11.462831 2.483550 104
-15.962675 11.626944 2.500660 111
-76.287598 58.689964 9.209764 49
-75.617783 58.583378 9.159577 50
-75.103027 58.593628 9.126485 50
-74.861435 58.796276 9.122644 51
-74.384987 58.831596 9.093711 51
-73.921600 58.874290 9.066156 51
-73.350449 58.826668 9.026337 52
-72.709496 58.717827 8.978444 52
-72.076340 58.610283 8.931223 53
-71.506203 58.549835 8.890974 53
-70.851646 58.414680 8.840896 54
-70.238564 58.308964 8.795341 54
-69.669662 58.235691 8.754663 55
-69.196159 58.239227 8.724822 55
-68.581299 58.118252 8.678489 56
-68.059509 58.052467 8.641510 56
-67.519905 57.987457 8.603539 56
-67.031578 57.983234 8.572639 57
-66.386772 57.817322 8.521996 57
-65.017899 56.982994 8.384594 59
-64.498955 56.894394 8.346780 59
-64.074318 56.925945 8.322435 60
-63.733852 57.011288 8.306771 60
-63.478878 57.172863 8.301276 60
-63.179535 57.292881 8.290504 60
-62.681316 57.227386 8.255835 60
-62.514587 57.843990 8.285099 60
-62.202641 57.948280 8.272880 60
-61.708908 57.877995 8.238503 61
-61.239410 57.827019 8.206917 61
-59.882404 56.915497 8.066292 63
-50.339306 48.028996 6.916799 51
-50.245823 48.267292 6.926776 52
-49.254688 47.621502 6.825556 50
-49.003811 47.699295 6.815799 50
-49.319317 48.342175 6.876788 51
-49.232193 48.586376 6.887797 51
-48.794102 48.459259 6.853673 51
-56.209827 56.361038 7.812503 61
-48.847454 49.182060 6.904907 51
-49.733589 50.437214 7.040290 53
-49.494072 50.882072 7.056340 53
-47.709549 49.329170 6.849069 51
-53.105358 55.811348 7.596552 59
-52.683334 55.741123 7.567795 58
-52.432377 55.853359 7.561249 58
-52.381699 56.164570 7.579688 58
-52.333202 56.499596 7.599953 59
-52.264309 56.814228 7.617746 59
-52.231026 57.170628 7.640483 59
-52.140285 57.464928 7.655805 59
-51.758137 57.430626 7.632274 59
-51.508121 57.544197 7.626391 59
-40.109600 44.841995 6.114281 39
-39.982197 45.005062 6.118718 39
-40.619373 46.059921 6.227418 43
-40.386875 46.090839 6.216972 42
-39.276909 45.099247 6.087059 38
-39.194324 45.314678 6.097838 38
-48.726948 57.059021 7.441307 57
-39.402134 46.199566 6.171746 41
-36.163834 42.569553 5.740940 26
-38.979839 46.314548 6.157527 40
-37.596565 44.933350 5.985678 34
-35.896065 43.136524 5.767395 27
-35.360466 43.069733 5.734622 26
-35.408066 43.433300 5.763375 27
-45.524673 56.669521 7.245101 55
-35.342880 43.964725 5.798574 28
-34.635330 43.358513 5.718205 25
-34.463032 43.425529 5.714313 25
-37.151512 47.252762 6.130769 39
-44.016212 57.106461 7.200301 54
-43.670071 57.051559 7.178923 100
-43.334293 57.007748 7.158951 54
-41.948616 55.529232 6.980767 52
-41.314552 55.458332 6.944260 51
-40.385117 55.363186 6.891896 51
-39.995861 55.213234 6.861875 50
-39.776978 55.283508 6.856651 50
-39.304268 55.411545 6.843780 100
-39.118397 55.548176 6.845324 100
-38.867931 55.568802 6.835098 50
-38.543167 55.518452 6.816062 50
-38.264118 55.513187 6.802659 50
-37.952606 55.456783 6.783915 49
-34.773129 51.024437 6.298429 44
-37.340794 55.352810 6.747815 49
-34.418411 51.245636 6.299159 44
-34.244987 51.342953 6.298769 44
-34.162983 51.603264 6.315125 44
-33.687992 51.634438 6.296249 44
-33.599213 51.887012 6.311882 44
-33.339638 51.864914 6.298690 44
-33.124279 51.912991 6.292963 44
-34.755527 55.001297 6.605075 47
-34.609810 55.187134 6.613257 47
-34.579700 55.567539 6.641727 48
-34.514248 55.870747 6.662686 48
-34.451641 56.203827 6.686172 48
-34.421253 56.595627 6.715712 48
-30.942415 51.037117 6.130467 38
-30.702709 51.005157 6.117870 38
-30.504982 51.044842 6.112746 37
-31.752069 53.658321 6.371674 45
-29.177895 49.502171 5.935410 32
-25.362299 43.044960 5.265245 13
-25.222940 43.140362 5.267159 13
-24.534767 42.594913 5.195774 13
-24.557083 42.967747 5.226525 13
-24.419832 43.081936 5.230223 13
-24.306110 43.205494 5.235654 13
-28.425917 51.392281 6.056425 35
-28.373283 51.743420 6.082675 36
-30.342403 55.995434 6.502387 46
-27.248688 50.422745 5.932468 31
-33.448063 63.074799 7.194688 54
-29.664164 56.090363 6.484111 46
-26.622362 50.448830 5.910761 30
-26.339378 50.770779 5.926401 31
-26.147930 50.797611 5.921505 31
-29.943533 59.652897 6.785118 49
-23.826767 47.645245 5.578732 19
-22.970631 46.645901 5.465989 32
-22.928364 46.976349 5.491756 33
-22.816795 47.158203 5.502876 17
-25.312450 53.143124 6.084558 36
-25.154907 53.304867 6.092528 36
-24.879091 53.173965 6.072240 36
-24.677649 53.687332 6.108101 37
-24.391737 53.528172 6.085290 36
-25.523376 56.743992 6.391004 45
-25.357689 56.895748 6.398230 45
-23.987928 54.117226 6.121200 37
-24.840149 56.722061 6.366881 44
-24.542423 57.109623 6.389875 45
-24.473036 57.506428 6.421036 45
-24.256472 57.536507 6.416787 45
-41.096767 101.270584 10.624616 63
-23.793396 57.516159 6.400757 45
-23.786425 58.060852 6.446552 45
-39.092754 99.057365 10.376509 63
-38.752747 99.193886 10.377864 63
-29.897715 76.359123 8.179069 63
-29.722530 76.737846 8.206045 62
-37.694859 99.553917 10.377247 63
-37.374294 99.690659 10.379604 63
-37.014694 99.827339 10.380938 63
-26.098089 69.809891 7.512074 57
-26.008018 70.288536 7.550390 57
-25.142420 70.124916 7.512514 57
-24.803761 69.872452 7.481713 56
-24.672192 70.284950 7.513578 57
-32.257164 94.529449 9.796919 45
-31.949656 94.695381 9.803112 45
-25.309204 74.834236 7.921408 61
-25.445387 76.223755 8.044609 62
-18.112288 53.375313 5.887918 29
-17.744720 53.416470 5.882274 29
-17.545595 53.417805 5.877484 29
-17.356749 53.452793 5.875914 29
-17.160088 53.460320 5.871830 29
-16.814775 53.641880 5.879406 58
-16.624352 53.670403 5.877455 58
-16.431799 53.690556 5.874781 58
-16.240326 53.713852 5.872460 58
-16.046812 53.728756 5.869417 57
-15.857426 53.758362 5.867801 57
-15.667004 53.783436 5.865821 57
-15.487778 53.813179 5.864544 86
-15.286146 53.831520 5.861845 57
-15.096676 53.858402 5.860206 57
-14.914523 53.874607 5.857838 28
-14.722234 53.888542 5.855114 28
-14.159147 53.984398 5.852283 28
-13.956351 53.948971 5.845235 28
-12.170737 46.808441 5.183337 13
-13.506744 53.669556 5.812125 26
-13.320137 53.697876 5.811153 26
-12.967871 53.853943 5.818512 27
-12.789184 53.874561 5.817161 27
-12.599670 53.888626 5.815092 27
-12.400178 53.899925 5.812663 26
-12.209230 53.904778 5.809865 26
-12.041767 53.981541 5.813871 27
-9.942781 44.606342 4.950019 11
-9.756605 44.445736 4.932851 11
-9.558541 44.209812 4.908868 22
-9.426453 44.346020 4.918937 11
-9.258398 44.273624 4.910001 11
-10.730156 54.133553 5.807006 26
-10.569006 54.256752 5.815631 27
-8.675174 43.480812 4.831182 10
-2.880726 6.950938 1.502784 0
-2.858709 6.946239 1.502068 0
-2.836277 6.945554 1.501709 0
-2.818298 6.968296 1.503501 0
-2.774860 6.954268 1.501706 0
-2.756649 6.976824 1.503496 0
-2.735731 6.979570 1.503493 0
-2.710821 6.950623 1.500621 0
-2.689511 6.949255 1.500258 0
-2.670674 6.959555 1.500971 0
-2.649360 6.958044 1.500607 0
-2.632055 6.992090 1.503469 0
-2.607219 6.958755 1.500236 0
-2.589691 6.992677 1.503096 0
-2.545412 6.973142 1.500929 0
-2.505039 6.992958 1.502344 0
-2.481989 6.971013 1.500183 0
-2.464137 6.996532 1.502324 0
-2.441556 6.978403 1.500520 0
-2.421551 6.991966 1.501583 0
-2.379544 6.979076 1.500124 0
-2.357311 6.976601 1.499751 0
-2.315714 6.983210 1.500080 0
-2.253938 6.986561 1.500032 0
-2.192156 7.017184 1.502486 0
-2.170683 7.006016 1.501392 0
-2.087320 6.992425 1.499877 0
-2.023088 6.869941 1.488704 0
-2.275332 44.569077 4.878181 11
-2.123014 44.546024 4.875853 11
-1.818927 44.482391 4.869752 22
-1.667461 44.413925 4.863472 21
-1.515900 44.400707 4.862202 21
-1.371685 44.410961 4.863086 21
-1.217502 44.556042 4.876131 22
-1.050458 44.903557 4.907419 33
-0.893598 45.043514 4.920092 22
-0.734756 45.218746 4.935981 11
-0.344474 52.772076 5.615207 20
0.019555 53.058498 5.641521 21
0.144607 51.897305 5.537457 18
0.314468 51.515160 5.503521 17
0.659111 51.338943 5.488636 16
0.892227 52.523361 5.595707 20
1.052560 52.179035 5.565348 19
1.387535 51.679173 5.521781 17
1.552418 51.620117 5.517190 17
1.299482 45.710995 4.986029 23
1.451623 45.543842 4.971778 11
1.747406 45.428307 4.962984 23
2.051346 47.125755 5.116814 25
2.074281 45.583897 4.978832 11
2.232638 45.597324 4.981027 11
2.395777 45.657772 4.987507 23
2.546974 45.594749 4.982900 11
2.680796 45.368755 4.963633 23
2.903014 45.974167 5.019426 12
3.081337 46.146988 5.036249 24
3.229472 46.046017 5.028405 24
3.398657 46.194744 5.043087 12
3.402998 44.918201 4.929111 22
3.544990 44.808315 4.920551 22
3.704144 44.836262 4.924491 22
3.858515 44.884396 4.930231 22
4.017719 44.907261 4.933804 22
4.344139 46.125099 5.045592 12
4.558817 46.501160 5.081287 12
4.720647 46.497852 5.082690 12
4.876016 46.450638 5.080160 12
5.119640 46.977787 5.129752 25
7.158850 56.359383 5.987299 33
5.710497 45.618328 5.016006 12
6.031901 46.581566 5.105534 12
6.316601 46.340488 5.087911 25
6.426854 46.052830 5.063936 24
6.703781 46.653492 5.120925 12
6.693560 45.787415 5.044183 24
6.701504 44.961895 4.971331 11
6.833893 44.825943 4.961267 23
7.435079 45.442551 5.024826 12
7.710057 45.966499 5.075330 12
7.777622 45.560543 5.040672 24
7.867593 45.230713 5.013121 12
8.080869 45.456535 5.036519 24
8.189497 45.182590 5.014286 12
8.528851 45.275345 5.028301 12
8.677892 45.215240 5.025673 24
9.027987 45.979019 5.098883 12
9.009665 45.199890 5.030350 12
9.223383 45.397022 5.051559 12
9.377586 45.386734 5.053565 24
9.544350 45.360325 5.054446 12
12.924955 57.584335 6.186560 40
12.999334 57.070110 6.143195 39
13.157690 56.879120 6.129718 38
13.394676 57.016983 6.146507 39
13.788909 56.957241 6.149441 39
14.041093 57.063908 6.164003 39
14.275446 57.104420 6.172511 40
8.369844 36.254227 4.238461 7
14.700759 57.175083 6.187869 40
12.042168 47.611446 5.301920 14
15.136314 57.165009 6.196692 41
9.090360 36.849083 4.305927 7
8.866656 35.270401 4.164690 7
12.219410 45.346130 5.110622 12
9.270293 35.722885 4.213149 7
12.626904 45.050312 5.095005 12
12.808671 45.057018 5.100045 12
13.135217 45.514606 5.147338 13
15.401152 51.102024 5.682188 24
10.846582 37.542259 4.408085 8
18.183062 57.844723 6.329059 45
18.424543 57.894115 6.339584 45
10.902728 36.486149 4.319613 8
19.380974 58.040665 6.377697 45
19.613951 58.055294 6.385344 45
19.840181 58.050381 6.391211 45
15.839472 46.620152 5.313559 14
12.194595 36.905243 4.390797 8
16.275740 46.790955 5.340465 28
16.379128 46.586575 5.326294 14
16.563322 46.606743 5.333395 28
16.726694 46.574577 5.335535 28
21.764547 58.292885 6.467335 46
22.007614 58.312675 6.476313 46
22.263506 58.360828 6.488112 46
22.513775 58.393234 6.498487 47
22.750387 58.391655 6.505671 47
23.014284 58.451241 6.518857 47
23.270895 58.491440 6.530264 47
20.040926 50.658112 5.778005 28
23.793999 58.586746 6.554817 47
20.764391 51.338623 5.857561 30
20.115904 49.449711 5.680449 24
24.574280 58.701324 6.589629 48
19.444344 47.118675 5.466215 17
20.237417 47.564892 5.529444 20
20.786137 47.849373 5.571465 21
21.224829 48.331512 5.625983 23
21.145395 47.775673 5.577907 21
21.215849 47.104176 5.525771 20
21.393017 47.055000 5.528080 20
21.898466 47.647259 5.594160 22
22.043049 47.528305 5.589753 22
22.295580 47.617462 5.606124 22
22.393530 47.409039 5.592903 22
22.680391 47.559734 5.615595 23
28.972099 58.984600 6.766889 50
29.251894 59.020172 6.780183 50
29.546253 59.056011 6.794113 50
29.806284 59.050571 6.803514 50
30.083982 59.075428 6.816072 50
30.386944 59.167370 6.835009 51
30.884775 59.103222 6.849171 51
27.438211 52.583618 6.197782 43
32.709076 61.342930 7.098025 53
32.745983 60.921589 7.066208 53
32.824570 60.576435 7.042125 53
32.854687 60.152481 7.009969 53
32.884300 59.732475 6.978172 52
32.964573 59.401901 6.955509 52
33.271255 59.450306 6.971804 52
33.589046 59.514301 6.989842 52
28.467218 50.690224 6.090513 39
34.187489 59.573341 7.019213 53
34.488998 59.625767 7.035873 53
34.784584 59.643406 7.049652 53
35.104134 59.696758 7.067275 53
35.411671 59.728424 7.082781 54
35.739235 59.788845 7.101428 54
36.059029 59.834305 7.118660 54
36.375248 59.871567 7.135179 54
36.692188 59.907341 7.151684 54
37.012047 59.944939 7.168526 55
37.308338 59.944542 7.181505 55
37.585114 59.913017 7.191323 55
37.824207 59.824165 7.195184 55
38.155144 59.869373 7.213377 55
38.437271 59.840717 7.223863 55
39.188862 60.489201 7.306703 56
39.533154 60.541397 7.326238 56
39.835857 60.553547 7.340940 57
40.195503 60.622070 7.362543 57
40.512222 60.627136 7.377495 57
40.857361 60.669571 7.396624 57
41.168301 60.661880 7.410501 57
41.521927 60.710728 7.430649 58
41.890556 60.777111 7.452876 58
44.817173 56.658390 7.298344 56
44.343925 55.686710 7.205353 55
45.002689 56.073643 7.266632 56
45.234573 55.975090 7.271724 56
46.023151 56.500423 7.349603 57
45.648117 55.660076 7.271239 56
46.719303 56.146893 7.361475 57
46.320271 55.292114 7.281069 56
46.477802 55.087662 7.275293 56
46.613144 54.859097 7.266744 56
46.734089 54.615494 7.256461 56
47.612274 55.201015 7.343837 57
70.849152 80.056084 10.298193 63
47.427803 54.266216 7.269998 56
47.980755 54.486782 7.315070 57
71.477341 79.107765 10.267840 63
48.505135 54.278572 7.329646 57
49.975372 55.448891 7.489444 59
49.461460 54.534370 7.399575 58
72.326042 77.804176 10.226817 63
72.549492 77.498772 10.218832 63
50.242172 54.238319 7.423207 58
50.859055 54.492538 7.474661 59
50.747856 54.008305 7.436325 58
73.392479 76.258781 10.183870 63
73.584282 75.925179 10.172763 63
51.439816 53.590584 7.448000 59
51.600491 53.381603 7.443486 59
57.432117 58.279778 8.096886 61
58.016163 58.460278 8.142242 60
57.633430 57.695694 8.070693 61
58.025272 57.670746 8.091816 61
75.194733 73.386055 10.100494 63
75.371422 73.045708 10.089025 63
75.590546 72.745605 10.082715 63
75.802650 72.439461 10.075713 63
75.969406 72.092422 10.063550 63
76.172516 71.804214 10.057357 63
76.404671 71.517769 10.053097 63
76.555542 71.158867 10.039553 63
76.764488 70.852676 10.032881 63
76.987190 70.559052 10.027922 63
77.157822 70.220116 10.017121 63
78.831207 71.187767 10.177938 63
80.273926 71.938896 10.311548 63
86.901321 76.047508 10.966612 63
89.639458 77.813858 11.241712 63
90.642342 78.105774 11.320993 63
97.104111 82.931915 12.010462 63
98.156708 83.215500 12.092544 63
103.857628 86.636642 12.650992 63
107.408813 88.880608 13.005828 63
114.830498 94.175499 13.783566 63
115.311615 93.891060 13.796919 63
124.446968 99.734627 14.715064 63
136.975739 108.742607 16.032892 63
148.022079 115.641289 17.134413 63
169.465485 129.257477 19.287291 63
77.169357 58.049435 9.298226 46
11.702174 8.570336 2.281330 43
11.704144 8.509156 2.278548 45
11.737342 8.465240 2.278798 15
11.865185 8.354331 2.282614 1
11.813307 8.265079 2.274785 1
11.863834 8.168761 2.273933 1
11.750640 8.049312 2.260398 1
11.789435 8.008666 2.261319 1
11.823338 7.968441 2.261924 1
11.749105 7.867836 2.252076 1
11.783773 7.825272 2.252661 1
11.796860 7.771976 2.251231 1
11.820486 7.723921 2.250808 1
11.803318 7.659074 2.246717 1
11.813334 7.601692 2.244932 1
11.832765 7.551868 2.244174 1
11.829248 7.494197 2.241427 1
11.842198 7.438559 2.239979 1
11.777849 7.350158 2.231521 1
11.789133 7.297186 2.230096 1
11.788236 7.241664 2.227689 1
11.810010 7.193643 2.227268 1
11.839972 7.146387 2.227495 1
11.846830 7.091741 2.225737 1
11.837813 7.033135 2.222663 1
11.836919 6.975424 2.220238 1
11.854100 6.925661 2.219483 1
11.877409 6.881387 2.219417 1
12.027508 6.884819 2.230653 1
11.933999 6.788373 2.219887 1
11.913667 6.723100 2.215796 1
11.865757 6.534498 2.204869 52
11.872987 6.484212 2.203471 49
11.888406 6.434441 2.202718 50
11.914790 6.388966 2.202964 40
11.996824 6.364861 2.208199 13
12.729381 6.468094 2.267061 1
14.222092 6.581472 2.383987 1
19.221306 7.012290 2.781415 2
19.648037 7.056241 2.815754 2
20.152124 7.118721 2.856659 2
20.519512 7.136129 2.885646 2
20.979662 7.175957 2.922513 3
21.517412 7.233135 2.965938 3
21.940153 7.256303 2.999461 3
64.810425 -2.109063 6.309163 143
64.867050 -2.345465 6.312688 143
64.867096 -2.579322 6.311746 143
64.930023 -2.816845 6.315904 112
64.944344 -3.051964 6.316236 112
65.013542 -3.290789 6.321027 143
65.054039 -3.528269 6.323586 143
65.045967 -3.762698 6.322324 79
-79.471786 20.119314 7.731095 63
-47.897675 16.141771 5.090637 13
-181.327835 76.520813 17.693026 63
-175.117416 75.297768 17.169626 63
-174.468903 75.733849 17.137913 63
-157.124619 71.428833 15.644135 63
-151.631653 70.231667 15.179107 63
-150.846985 70.500854 15.131536 63
-146.578156 69.742050 14.778353 63
-143.861206 69.058914 14.545181 63
-141.265625 68.413223 14.322880 63
-139.655106 68.794823 14.219567 63
-135.901718 67.528694 13.884008 63
-134.488998 67.404892 13.773536 63
-134.007034 67.741287 13.752924 63
-132.519638 67.562820 13.634752 63
-131.070557 67.393021 13.519953 63
-129.557068 67.179062 13.398529 63
-129.406113 67.666580 13.409829 63
-129.327316 68.192909 13.428371 63
-129.271027 68.732597 13.449328 63
-128.636642 68.963707 13.413671 63
-125.868301 68.568932 13.192892 63
-122.674408 67.925064 12.929842 63
-121.862289 68.023254 12.875628 63
-121.734848 68.502075 12.889489 63
-119.187187 67.606560 12.661942 63
-21.527876 12.382648 2.926679 65
-21.178621 12.269354 2.896031 37
-21.073912 12.297825 2.889953 62
-21.012297 12.346869 2.888001 72
-20.979317 12.417416 2.889191 67
-20.969934 12.502320 2.892805 52
-21.004410 12.614288 2.900926 17
-21.451025 13.074544 2.956021 2
-21.244680 13.133890 2.944538 7
-21.037252 13.096514 2.928030 21
-21.105606 13.233887 2.939981 7
-99.159370 64.111206 11.062496 63
-98.804787 64.362869 11.051108 63
-98.090340 64.375908 11.002173 63
-97.952377 64.742874 11.012176 63
-20.553205 12.970153 3.798772 7
-20.737469 13.181908 3.833884 7
-20.751106 13.378232 3.850136 3
-97.118622 64.682457 15.668802 63
-93.431686 62.678425 15.134526 63
-93.228523 63.006310 15.138918 63
-91.946701 63.058636 15.011520 63
-91.501038 63.213940 14.978125 63
-16.179913 11.094320 3.203773 17
-16.265642 11.226850 3.223002 18
-16.306997 11.332411 3.235619 21
-16.328526 11.424397 3.245175 21
-16.512886 11.636121 3.280774 18
-15.868759 11.239690 3.184111 50
-15.784031 11.327053 3.182774 50
-79.861290 60.524387 13.591482 47
-79.278549 60.508026 13.532624 48
-77.364426 59.455196 13.256453 49
-74.896858 58.775902 12.957806 51
-74.511414 58.884197 12.929461 52
-74.213562 59.040028 12.913801 52
-73.000168 58.886482 12.783336 53
-70.396118 58.374104 12.489304 55
-69.813179 58.290180 12.426479 55
-69.296066 58.237396 12.372765 56
-68.751976 58.178005 12.316039 56
-68.233170 58.136238 12.263388 56
-67.131386 57.584343 12.110779 57
-66.489960 57.823021 12.071979 58
-66.014862 57.803158 12.025898 58
-64.703407 57.032806 11.834679 59
-64.229851 57.002140 11.788024 60
-63.798447 57.006138 11.748530 60
-63.523102 57.149506 11.736207 60
-63.286575 57.307770 11.728930 60
-62.879620 57.327610 11.693495 60
-62.429249 57.700050 11.686738 60
-62.337334 58.011597 11.707218 2
-61.850170 57.948666 11.657357 60
-61.371269 57.869915 11.606890 61
-59.862915 56.834347 11.374742 62
-59.468140 56.842701 11.340203 63
-57.770496 55.956886 11.105640 61
-57.443974 55.999256 11.080727 3
-57.122200 56.063705 11.058438 2
-56.876190 56.202518 11.050014 2
-56.649395 56.360046 11.045178 2
-56.308285 56.400551 11.019258 60
-55.862385 56.331367 10.973783 60
-55.467278 56.311077 10.937547 59
-55.111443 56.328758 10.908495 59
-53.194073 55.827484 10.695343 56
-52.767353 55.753033 10.651798 55
-52.398220 55.737537 10.619046 55
-52.308285 56.024517 10.639814 55
-52.210621 56.285149 10.657434 56
-52.203053 56.666397 10.694676 56
-52.143135 56.992134 10.722137 56
-52.097374 57.335915 10.752688 57
-51.813438 57.412521 10.736883 56
-51.485104 57.437149 10.712309 56
-51.381298 57.717384 10.732031 56
-51.023125 58.512581 10.783453 57
-49.606201 57.228333 10.538165 54
-49.237854 57.170570 10.502629 53
-48.866058 57.145630 10.470284 53
-48.499828 57.104492 10.436836 53
-47.862133 56.730789 10.347680 51
-47.305462 56.448517 10.274485 50
-44.679806 56.704964 10.097883 97
-44.633766 57.049461 10.130877 98
-44.425606 57.182289 10.129275 97
-44.084026 57.116627 10.096632 97
-43.730865 57.073444 10.065621 96
-43.395458 57.030769 10.036099 95
-43.053818 56.976849 10.005015 94
-42.075386 56.046047 9.832873 45
-32.591278 43.339756 7.768539 31
-32.375618 43.650673 7.786427 31
-40.305599 55.172691 9.609537 42
-40.013393 55.160191 9.587140 84
-39.764847 55.208130 9.574555 41
-39.527714 55.271301 9.564547 41
-39.306328 55.356369 9.558148 41
-39.118320 55.489708 9.559501 41
-38.594925 55.537121 9.528050 41
-38.307262 55.519482 9.506104 40
-38.014374 55.471050 9.480487 40
-37.721405 55.440784 9.456968 40
-37.403099 55.369263 9.427231 39
-37.111584 55.336151 9.403690 39
-36.836651 55.305599 9.381655 39
-33.789864 51.311466 8.729950 31
-33.603256 51.405499 8.728055 62
-33.496056 51.626781 8.745827 62
-35.353886 55.029713 9.251806 37
-35.049648 54.979309 9.226159 37
-34.790691 54.979290 9.209268 37
-34.564117 55.009792 9.198029 36
-34.514370 55.377399 9.236570 37
-34.449085 55.679451 9.266755 37
-34.402298 56.015839 9.302120 38
-34.358303 56.404907 9.343770 38
-34.291790 56.737278 9.377615 39
-34.233242 57.087048 9.414049 39
-31.671623 53.479687 8.840209 64
-31.598192 53.757778 8.867750 32
-34.034870 58.566280 9.572190 41
-33.940342 58.895275 9.604510 41
-33.919456 59.314087 9.651794 42
-33.839634 59.678322 9.689298 42
-33.795143 60.063068 9.731399 43
-32.656353 58.405479 9.470713 40
-32.442505 58.487782 9.467714 40
-32.246914 58.604401 9.469894 40
-32.655853 59.881012 9.643202 42
-33.518749 62.056141 9.948258 46
-30.214220 56.133438 9.062508 35
-29.944736 56.057137 9.038153 34
-33.313854 63.251259 10.077248 47
-26.782412 50.713116 8.228986 31
-26.536367 50.653740 8.208211 31
-30.286360 59.226566 9.432140 39
-30.075918 59.337173 9.433766 39
-29.895771 59.485100 9.441585 39
-42.579178 86.774155 13.379557 50
-42.572300 87.540222 13.470656 49
-74.534119 158.508270 23.657972 63
-73.935440 158.656097 23.644316 63
-72.804146 159.093384 23.638233 63
-25.368408 53.723724 8.512764 31
-24.952044 53.252899 8.434781 31
-24.645266 53.023487 8.391575 31
-24.221775 53.042076 8.372685 31
-24.247099 53.634678 8.445827 31
-23.989386 53.536610 8.421308 31
-25.176369 56.887585 8.886554 32
-25.013327 57.075047 8.901543 32
-24.566031 56.538048 8.814692 31
-24.186979 56.690693 8.815481 31
-24.728010 58.630802 9.078241 35
-23.789921 56.826096 8.813669 31
-23.618933 57.521584 8.891315 32
-23.509827 57.830513 8.924428 33
-62.799458 163.169418 23.655546 63
-61.549999 163.366241 23.624922 63
-61.016045 163.666550 23.638920 63
-60.502487 163.936218 23.650255 63
-59.983803 164.193069 23.660015 63
-59.410503 164.387222 23.659933 63
-27.997097 76.730560 11.457585 63
-27.747578 76.866089 11.464242 63
-27.402695 76.718834 11.431901 63
-27.407898 77.620232 11.544600 62
-56.004337 165.653015 23.678829 63
-26.841124 77.701790 11.532390 62
-25.736496 75.178421 11.173482 61
-25.404072 75.030365 11.142124 60
-25.141644 75.100433 11.140916 60
-24.829889 74.964745 11.112122 60
-17.917603 53.285507 8.129083 31
-17.731329 53.329525 8.127754 31
-17.552961 53.366360 8.125888 31
-17.360893 53.390057 8.121948 31
-17.167746 53.409245 8.117482 31
-16.984476 53.462040 8.117691 31
-16.628042 53.603909 8.123295 31
-16.440943 53.643345 8.121927 31
-16.252707 53.678291 8.120033 31
-16.051081 53.662758 8.111372 31
-15.854795 53.665634 8.105307 31
-15.667645 53.702328 8.103916 31
-14.027438 55.044800 8.226024 31
-12.790998 53.784573 8.030877 31
-12.599397 53.787098 8.026277 31
-12.406377 53.829659 8.026877 31
-12.220917 53.861935 8.026427 31
-8.992220 44.403172 6.730543 19
-8.795182 44.141525 6.692568 18
-8.603760 44.917618 6.789375 20
-8.541184 45.556549 6.871077 21
-8.210623 44.366306 6.710273 18
-8.066189 44.438942 6.717030 19
-7.913250 44.452156 6.715976 18
-7.598554 44.350132 6.697205 37
-7.465918 44.519093 6.716954 38
-8.780105 56.385353 8.283258 31
-8.585081 56.397041 8.281653 31
-8.381747 56.420982 8.281602 31
-8.187572 56.439148 8.281026 31
-7.994206 56.464523 8.281486 31
-7.800739 56.489223 8.281940 31
-7.616874 56.512260 8.282391 31
-7.423604 56.539593 8.283354 31
-7.229464 56.558353 8.283271 31
-6.833315 54.364674 7.991795 31
-6.298543 54.605812 8.017007 31
-6.113003 54.644382 8.020021 31
-5.925201 54.654629 8.019388 31
-5.739049 54.687950 8.021872 31
-5.190630 54.970119 8.053741 31
-4.629285 55.096146 8.065789 31
-4.432398 54.934803 8.043262 31
-4.246400 55.002571 8.050903 31
-4.056419 54.978550 8.046575 31
-3.881129 55.096214 8.060975 31
-3.692436 55.114510 8.062358 31
-3.113225 55.022919 8.047736 31
-2.924058 55.006817 8.044935 31
-2.735586 55.029709 8.047331 31
-2.375845 54.910778 8.030803 31
-2.179755 55.344265 8.087256 31
-1.989865 55.420086 8.096909 31
-1.799718 55.404026 8.094595 31
-1.618888 55.434952 8.098527 31
-1.428605 55.437428 8.098803 31
-1.229001 55.423248 8.096980 31
-1.026586 56.142113 8.191354 31
-0.846319 55.999962 8.172905 31
-0.656082 55.912506 8.161717 31
-0.454145 55.923248 8.163509 31
-0.249380 56.647392 8.258898 31
-0.080553 55.891964 8.160358 31
0.111279 55.885101 8.160068 31
0.305373 55.933044 8.167049 31
0.532970 56.721218 8.271223 31
0.728078 56.720131 8.271951 31
0.921774 56.690636 8.269034 31
1.444888 55.683720 8.140212 31
1.637805 55.699238 8.143516 31
1.820764 55.706818 8.145792 31
2.015096 55.736832 8.151163 31
2.209384 55.762199 8.156009 31
2.403898 55.786877 8.160849 31
2.588728 55.807709 8.165181 31
2.785376 55.850796 8.172606 31
2.104068 46.136303 6.896951 22
2.244066 45.932320 6.871706 43
2.510408 45.428379 6.808748 41
2.660322 45.361248 6.801677 41
2.834870 45.526268 6.825242 41
3.005805 45.647251 6.843088 42
3.154135 45.562683 6.833925 42
3.370883 46.060555 6.901607 44
3.543209 46.163746 6.917355 44
3.713830 46.310562 6.938826 22
3.880935 46.421337 6.955617 23
4.217969 46.464893 6.966288 23
4.276068 45.720291 6.870409 43
4.420035 45.667976 6.865905 64
6.169433 56.463547 8.296348 31
4.974154 46.107220 6.932205 45
5.155278 46.283829 6.958295 23
6.904743 56.162258 8.270065 31
7.103264 56.166233 8.274242 31
7.302775 56.233696 8.286739 31
7.505801 56.259697 8.294017 31
6.891364 45.981453 6.954181 23
7.166835 45.768642 6.933086 22
7.520986 45.861343 6.953401 46
7.621880 45.568195 6.918211 45
7.732700 45.329140 6.890277 66
7.851460 45.169006 6.872731 65
7.999664 45.107430 6.868633 43
8.154040 45.108978 6.872844 43
8.365374 45.284092 6.900835 22
8.710745 46.017860 7.003931 23
11.965152 58.893375 8.737706 31
12.175159 58.920124 8.746931 31
12.395623 58.943615 8.756117 31
12.624617 58.956036 8.764226 31
12.839840 58.954769 8.770290 31
12.925927 58.453556 8.709037 31
12.991556 57.887238 8.638987 31
13.047282 57.298176 8.565838 31
13.113127 56.800117 8.504635 31
13.348912 56.896393 8.524148 31
13.643905 57.201904 8.572119 31
13.844673 57.125278 8.568808 31
14.095150 57.260513 8.593986 31
14.278561 57.195564 8.591766 31
14.468397 57.152859 8.592647 31
14.734420 57.330990 8.624007 31
14.902694 57.177429 8.610354 31
15.104701 57.137234 8.612215 31
15.345619 57.188072 8.626963 31
15.561964 57.191730 8.635015 31
15.779463 57.231697 8.647753 31
16.003635 57.256374 8.658894 31
16.245268 57.333012 8.677264 31
16.449442 57.291775 8.679602 31
16.684696 57.343945 8.694855 31
16.918022 57.387630 8.709065 31
17.150606 57.426620 8.722751 31
17.396547 57.502197 8.741595 31
17.551064 57.310638 8.723747 31
18.317316 58.900349 8.951324 34
18.602081 59.094574 8.986694 34
18.425488 57.961845 8.839170 32
18.629848 57.905293 8.840406 32
11.104860 36.330486 5.864651 18
19.332287 57.972767 8.877639 33
19.583136 58.035431 8.895884 33
19.833265 58.093330 8.913603 33
20.054090 58.072460 8.920474 33
20.303839 58.124660 8.937659 33
20.528065 58.109375 8.945547 34
20.781775 58.166939 8.963747 34
21.012499 58.164536 8.973682 34
21.195749 58.043606 8.967104 34
21.455166 58.109276 8.986826 34
21.684099 58.126644 8.999364 34
21.937155 58.171894 9.016488 35
22.172308 58.172218 9.027415 35
22.423969 58.181942 9.040350 35
22.694262 58.260468 9.062601 35
22.952217 58.334873 9.083858 35
23.198668 58.352947 9.097843 36
23.443939 58.366375 9.111303 36
23.683138 58.364300 9.122694 36
23.947100 58.415493 9.141804 36
24.198582 58.436657 9.156783 36
24.475372 58.510834 9.179478 37
24.712944 58.497410 9.189802 37
24.987740 58.562069 9.211447 37
25.239693 58.601559 9.229012 37
25.474979 58.577923 9.238281 38
25.691265 58.487747 9.238740 38
26.021906 58.658577 9.276299 38
26.272102 58.660343 9.289658 38
26.629080 58.395901 9.277303 77
26.913216 58.462391 9.300413 77
27.207132 58.545288 9.326083 78
27.503782 58.630363 9.352256 79
27.763210 58.640030 9.367619 79
22.486912 48.002354 7.827732 31
28.305447 58.698185 9.404482 80
28.579269 58.728985 9.423412 81
28.866745 58.783073 9.445930 81
29.162485 58.849831 9.470490 3
29.440155 58.880356 9.489902 82
29.708900 58.892250 9.506733 83
30.022171 58.982864 9.535369 42
30.270420 58.977077 9.549155 42
30.595053 59.082275 9.580334 42
30.817387 59.002861 9.584286 3
32.429680 61.363029 9.951697 47
32.743187 61.421547 9.977144 3
32.828960 61.083794 9.943557 47
32.880810 60.691364 9.901762 46
32.924305 60.289051 9.858434 46
32.959343 59.876930 9.813574 45
32.998039 59.475506 9.770259 45
33.099865 59.183270 9.743362 89
33.399803 59.219940 9.766209 45
33.422928 58.801826 9.720339 44
33.778877 58.927853 9.757012 45
33.999992 58.833111 9.760352 45
34.646347 59.416599 9.867210 46
34.948116 59.466019 9.892109 46
35.260845 59.507584 9.916930 47
35.580734 59.557693 9.943275 47
35.897121 59.599621 9.968582 47
36.199108 59.616779 9.990292 48
36.532139 59.678982 10.019157 48
36.846382 59.709789 10.043401 48
37.184017 59.795475 10.075378 49
38.056133 60.204540 10.179067 50
38.389297 60.228016 10.204202 51
38.693481 60.250957 10.227418 51
39.019897 60.281700 10.253109 51
39.358360 60.327164 10.281343 52
39.737373 60.449711 10.320885 52
40.872036 61.616093 10.526502 55
40.372826 60.467533 10.367054 53
40.715679 60.486099 10.393112 53
41.354660 60.494724 10.439201 54
41.698437 60.528770 10.467336 54
42.048672 60.547077 10.494357 54
71.047646 79.731194 14.710275 63
71.227669 79.374435 14.690066 63
71.457733 79.072304 14.679506 63
71.672989 78.782372 14.669065 63
71.854126 78.430161 14.649867 63
72.088661 78.134888 14.640821 63
72.269638 77.784714 14.622128 63
72.487816 77.474030 14.610538 63
72.674179 77.131584 14.593364 63
72.892509 76.822662 14.582275 63
73.092804 76.496254 14.568141 63
73.543800 75.922287 14.552156 63
73.663979 75.519081 14.524327 63
73.884354 75.215866 14.514746 63
74.021019 74.831825 14.490466 63
74.278687 74.566216 14.487972 63
74.515381 74.280495 14.481927 63
74.756752 73.999489 14.476890 63
74.858673 73.586876 14.447543 63
75.143822 73.348221 14.450600 63
75.306320 72.994843 14.432389 63
75.528442 72.697815 14.424807 63
75.749443 72.400108 14.417219 63
75.892403 72.056480 14.398626 63
76.116852 71.763039 14.392045 63
76.346619 71.449928 14.384320 63
76.512581 71.104843 14.368125 63
76.721611 70.798958 14.359510 63
76.941368 70.502968 14.352914 63
77.109245 70.161873 14.337723 63
77.326630 69.864700 14.331120 63
81.226410 72.264153 14.901295 63
81.547623 72.035126 14.910723 63
84.281090 73.842995 15.321959 63
86.985634 75.596924 15.725963 63
87.431923 75.440971 15.753875 63
98.010185 83.104591 17.405235 63
98.314041 82.740219 17.402363 63
102.056709 85.188492 17.964355 63
104.097984 86.229477 18.245834 63
115.073563 93.712631 19.921066 63
126.719009 100.798553 21.627808 63
137.222488 108.207787 23.253286 63
141.398132 110.589172 23.852713 63
148.149628 114.922356 24.862310 63
159.525314 122.669952 26.600647 63
11.765946 8.546808 2.929847 59
11.784018 8.497455 2.928445 46
11.780089 8.430032 2.923509 46
11.778059 8.367014 2.919095 48
11.781483 8.310230 2.915700 42
11.790730 8.250561 2.912762 36
11.801981 8.195164 2.910344 21
11.804909 8.017008 2.899129 2
11.908543 8.005936 2.909636 2
11.925907 7.953934 2.908213 2
11.799724 7.833624 2.886906 2
11.852061 7.799603 2.890463 2
11.857971 7.742644 2.887551 2
11.837480 7.676025 2.881180 2
11.929932 7.658056 2.890182 2
12.938365 8.014580 3.022522 2
12.998812 7.979343 3.027035 2
12.922328 7.880404 3.012666 2
12.960777 7.835043 3.014197 2
11.997095 7.336991 2.878203 2
11.899941 6.439240 2.816846 63
11.937426 6.398034 2.818899 48
11.997017 6.365191 2.823920 14
12.182655 6.380061 2.845752 6
12.390850 6.402103 2.870541 6
12.603090 6.424146 2.895812 6
12.808210 6.442022 2.920083 6
13.028545 6.463980 2.946318 6
13.256680 6.487162 2.973529 6
13.484190 6.511513 3.000751 6
13.713000 6.531680 3.027936 4
46.887249 14.529325 7.236198 31
-79.405594 20.349775 11.019379 63
-47.836418 16.257168 7.080919 28
-175.913986 75.507858 25.033390 63
-174.104507 76.160088 24.864445 63
-163.975388 72.411789 23.496799 63
-161.328186 71.910599 23.167219 63
-158.310074 71.222725 22.784956 63
-157.239395 71.394547 22.673908 63
-156.901871 71.894936 22.665415 63
-151.032379 70.472336 21.918745 63
-148.863815 70.087128 21.651638 63
-147.072586 69.864578 21.437027 63
-141.897308 68.579796 20.778622 63
-139.697510 68.707916 20.541039 63
-139.406418 69.161919 20.537094 63
-134.983459 67.548088 19.943697 63
-133.350616 67.305893 19.747154 63
-132.912720 67.659782 19.721247 63
-129.969727 67.291466 19.372410 63
-129.276276 67.497299 19.309389 63
-129.186752 68.017204 19.333532 63
-129.145523 68.535561 19.363083 63
-128.831497 68.937965 19.355276 63
-127.444450 68.760170 19.191736 63
-126.007942 68.545059 19.020519 63
-121.848587 67.918137 18.525726 63
-121.641403 68.351845 18.532930 63
-119.110275 67.467094 18.198397 63
-116.800354 66.687660 17.895222 63
-21.392591 12.378868 3.844672 38
-21.089605 12.291248 3.806046 52
-21.017855 12.334338 3.801437 71
-84.606293 59.737289 20.050808 45
-84.272339 59.933945 20.023314 45
-82.439697 59.048092 19.647882 45
-15.819843 11.211097 4.204148 56
-80.201668 59.966412 19.423800 45
-79.728699 60.037189 19.362814 45
-77.660690 58.885159 18.923206 45
-76.134201 58.129623 18.610207 45
-75.641876 58.161751 18.542423 45
-75.255539 58.273434 18.499817 45
-74.913345 58.397133 18.465258 45
-74.579552 58.546516 18.435223 45
-73.910774 58.426975 18.324364 45
-73.403023 58.431549 18.252031 45
-72.819748 58.371437 18.161139 45
-70.820381 57.957970 17.825254 45
-70.206924 57.853348 17.725348 45
-69.679352 57.815891 17.646189 45
-68.702354 57.795715 17.506351 45
-67.291580 56.989853 17.206713 45
-66.992004 57.108673 17.180056 45
-66.860527 57.392117 17.198006 45
-66.377861 57.388885 17.130663 45
-65.059837 56.625679 16.850142 45
-64.568855 56.563316 16.774410 45
-64.193298 56.600456 16.727617 45
-63.921402 56.767757 16.712156 45
-63.648300 56.893799 16.691332 45
-63.279972 56.971184 16.651337 45
-62.728146 57.251167 16.613497 45
-62.654560 57.578255 16.646942 90
-62.225426 57.553329 16.585943 45
-61.732964 57.485332 16.510881 45
-60.202591 56.425541 16.164528 45
-59.781307 56.410992 16.106493 45
-58.914028 55.962917 15.930993 45
-57.907284 55.751720 15.769463 45
-57.595013 55.828098 15.738855 45
-57.378983 55.979122 15.731220 45
-57.082115 56.087463 15.707352 45
-56.858566 56.248924 15.700510 45
-55.831139 55.958984 15.527547 45
-54.562836 55.802845 15.343188 45
-54.212261 55.800663 15.298257 45
-53.555489 55.491875 15.171512 45
-52.762611 55.411301 15.060104 90
-52.581089 55.617371 15.066596 90
-52.529705 55.926670 15.104228 90
-52.477768 56.256657 15.144898 90
-52.437344 56.601498 15.189293 90
-52.407543 56.940842 15.234373 90
-52.225300 57.151779 15.242338 90
-51.830135 57.103691 15.186931 90
-51.630398 57.254078 15.184333 45
-51.304279 57.299847 15.151305 45
-50.941914 57.282055 15.104796 45
-50.526325 57.199974 15.042627 45
-50.339283 57.360767 15.043718 45
-49.598877 56.892231 14.886143 45
-49.156818 56.767227 14.814980 45
-48.784481 56.721066 14.763921 45
-48.392902 56.648846 14.706885 45
-47.538216 55.994606 14.508902 45
-47.140423 55.884544 14.445807 45
-46.801781 55.882431 14.405914 45
-46.503067 55.907433 14.374902 45
-46.261425 56.001415 14.361028 45
-46.022121 56.097454 14.347890 45
-45.811893 56.209465 14.340660 45
-45.516376 56.252586 14.313388 45
-44.993744 56.381634 14.273627 90
-44.926960 56.696484 14.314157 90
-44.806164 56.922943 14.335238 90
-44.455910 56.848961 14.284697 90
-44.106056 56.813080 14.240208 90
-43.764439 56.764946 14.194910 90
-43.421329 56.711960 14.148853 90
-42.406666 55.746906 13.887855 90
-42.166119 55.821259 13.873103 45
-41.430634 55.214687 13.698616 45
-40.642971 54.901093 13.564497 90
-40.339901 54.895306 13.531074 90
-40.076305 54.923096 13.507302 90
-39.858536 54.994560 13.495425 90
-39.646980 55.094322 13.488810 90
-39.448601 55.212666 13.486669 90
-39.263195 55.349724 13.489001 90
-39.024860 55.388737 13.470375 45
-38.715527 55.342052 13.430869 45
-38.401852 55.306767 13.392886 45
-38.085361 55.243980 13.350369 45
-38.365536 56.081223 13.513277 45
-38.118782 56.125866 13.495404 45
-37.925751 56.251793 13.496202 45
-37.635334 56.205772 13.459595 45
-37.282951 56.081913 13.404335 45
-37.037346 56.122040 13.386427 45
-35.384521 54.761082 13.002295 90
-35.107582 54.733658 12.970880 90
-34.869358 54.746140 12.949883 90
-34.783924 55.051182 12.991744 90
-34.720390 55.374168 13.038801 90
-34.680695 55.718639 13.091804 90
-34.627434 56.065769 13.144094 90
-34.572147 56.413193 13.196383 90
-34.526711 56.781265 13.253160 90
-34.471222 57.136089 13.306945 90
