# .PCD v.7 - Point Cloud Data file format
VERSION .7
FIELDS x y z intensity
SIZE 4 4 4 1
TYPE F F F U
COUNT 1 1 1 1
WIDTH 1571
HEIGHT 1
VIEWPOINT 0 0 0 1 0 0 0
POINTS 1571
DATA ascii
0.652284 3.240242 0.011233 1
0.668888 3.238627 0.007964 1
0.670814 3.224440 0.010002 1
0.672674 3.210267 0.012041 1
0.683338 3.203536 0.010894 1
0.691021 3.194292 0.010809 1
0.695698 3.182565 0.011785 1
0.709272 3.178168 0.009576 1
0.716867 3.168833 0.009490 1
0.721429 3.157048 0.010466 1
0.728950 3.147672 0.010380 1
0.733422 3.135866 0.011356 1
0.737844 3.124055 0.012332 1
0.754347 3.121766 0.009058 1
0.758704 3.109904 0.010034 1
0.763010 3.098036 0.011010 1
0.779497 3.095565 0.007734 1
0.771474 3.074289 0.012961 1
0.778706 3.064738 0.012874 1
0.782822 3.052844 0.013850 1
0.793069 3.045561 0.012699 1
0.796746 3.034120 0.013679 1
0.803838 3.024481 0.013591 1
0.804668 3.010267 0.015630 1
0.814798 3.002865 0.014479 1
0.824909 2.995416 0.013327 1
0.825591 2.981194 0.015366 1
0.832497 2.971455 0.015278 1
0.842522 2.963912 0.014125 1
0.849368 2.954114 0.014037 1
0.862515 2.948688 0.011819 1
0.866132 2.936633 0.012794 1
0.876065 2.928929 0.011641 1
0.863645 2.906024 0.017938 1
0.870289 2.896152 0.017849 1
0.892926 2.896970 0.012436 1
0.889899 2.880602 0.015541 1
0.902894 2.874879 0.013321 1
0.899421 2.859043 0.016431 1
0.915605 2.855342 0.013146 1
0.918829 2.843202 0.014120 1
0.922004 2.831063 0.015095 1
0.931642 2.823052 0.013939 1
0.931469 2.808838 0.015980 1
0.944314 2.802813 0.013758 1
0.940764 2.786570 0.016864 1
0.943705 2.774411 0.017839 1
0.953181 2.766268 0.016682 1
0.946447 2.747595 0.020851 1
0.972067 2.749848 0.014368 1
0.981478 2.741571 0.013210 1
0.981210 2.726854 0.015246 1
0.976949 2.711240 0.018359 1
0.979282 2.699549 0.019338 1
0.981865 2.687349 0.020313 1
0.988038 2.676551 0.020217 1
0.997233 2.668149 0.019059 1
0.992679 2.652655 0.022172 1
1.008534 2.647974 0.018879 1
1.004160 2.631994 0.021989 1
1.030119 2.632771 0.015493 1
1.039193 2.624165 0.014333 1
1.038068 2.610017 0.016375 1
1.026689 2.590434 0.021620 1
1.039038 2.583613 0.019392 1
1.044556 2.573131 0.019300 1
1.053453 2.564415 0.018139 1
1.055480 2.552110 0.019114 1
1.057459 2.539810 0.020089 1
1.069693 2.532762 0.017859 1
1.064709 2.516962 0.020971 1
1.069467 2.507449 0.020887 1
1.078171 2.498576 0.019725 1
1.083651 2.487426 0.019627 1
1.085110 2.475631 0.020607 1
1.100918 2.469489 0.017302 1
1.099084 2.455461 0.019346 1
1.104153 2.444771 0.019252 1
1.105448 2.432956 0.020232 1
1.110687 2.421708 0.020133 1
1.108641 2.407743 0.022178 1
1.117049 2.398624 0.021015 1
1.132450 2.392647 0.017712 1
1.119722 2.373941 0.022966 1
1.131550 2.366314 0.020732 1
1.139597 2.357607 0.019572 1
1.141029 2.344691 0.020543 1
1.149249 2.335385 0.019378 1
1.146351 2.322568 0.021433 1
1.154963 2.312132 0.020259 1
1.155979 2.299754 0.021234 1
1.160054 2.289955 0.021149 1
1.168333 2.279976 0.019979 1
1.172567 2.269592 0.019888 1
1.173635 2.256654 0.020859 1
1.181588 2.247136 0.019693 1
1.178764 2.233320 0.021740 1
1.186646 2.223759 0.020573 1
1.172942 2.205793 0.025834 1
1.191321 2.200923 0.021459 1
1.188504 2.186623 0.023502 1
1.203457 2.179691 0.020191 1
1.192709 2.164363 0.024392 1
1.207812 2.156792 0.021077 1
1.208218 2.144404 0.022053 1
1.219253 2.136503 0.019818 1
1.219579 2.124100 0.020794 1
1.241858 2.118841 0.015332 1
1.223919 2.100043 0.021670 1
1.216818 2.085151 0.024791 1
1.235185 2.079024 0.020405 1
1.238753 2.068419 0.020314 1
1.235343 2.054249 0.022358 1
1.235352 2.041880 0.023335 1
1.238797 2.031275 0.023244 1
1.249721 2.022459 0.021002 1
1.249430 2.010638 0.021983 1
1.256797 2.000019 0.020809 1
1.249235 1.985356 0.023933 1
1.252493 1.974705 0.023842 1
1.256052 1.962920 0.023741 1
1.259401 1.951684 0.023644 1
1.266407 1.941527 0.022474 1
1.243786 1.922716 0.029896 1
1.250698 1.912588 0.028726 1
1.279662 1.909295 0.021115 1
1.260562 1.891744 0.027465 1
1.259949 1.879467 0.028443 1
1.274160 1.871257 0.025123 1
1.266027 1.856959 0.028251 1
1.287628 1.850624 0.022781 1
1.264492 1.832462 0.030208 1
1.274848 1.823119 0.027963 1
1.281444 1.812767 0.026791 1
1.276654 1.800139 0.028850 1
1.294398 1.792522 0.024453 1
1.312129 1.784791 0.020054 1
1.307227 1.772139 0.022113 1
1.283793 1.753972 0.029541 1
1.312685 1.748732 0.021914 0
1.315286 1.737300 0.021817 0
1.310330 1.724171 0.023872 1
1.320370 1.714409 0.021623 1
1.296498 1.697227 0.029060 1
1.340363 1.694701 0.017124 0
1.316384 1.677634 0.024562 1
1.333712 1.669877 0.020163 0
1.339929 1.658561 0.018985 0
1.319321 1.643669 0.025358 0
1.317775 1.631475 0.026338 0
1.327534 1.621479 0.024087 0
1.341048 1.612137 0.020759 0
1.331913 1.597931 0.023889 0
1.330198 1.585747 0.024869 0
1.336023 1.574928 0.023695 1
1.338117 1.562840 0.023593 0
1.336175 1.551249 0.024579 0
1.338087 1.539737 0.024482 0
1.343668 1.529414 0.023312 0
1.337897 1.516660 0.025372 1
1.339688 1.505142 0.025275 0
1.341439 1.493617 0.025178 0
1.346960 1.482654 0.024003 0
1.322032 1.466651 0.031451 0
1.350265 1.459548 0.023810 0
1.328964 1.444821 0.030185 0
1.318977 1.432364 0.033330 0
1.354920 1.424848 0.023519 0
1.329646 1.409857 0.030976 0
1.323350 1.397992 0.033043 0
1.336267 1.387335 0.029704 0
1.360561 1.378508 0.023132 0
1.354216 1.366043 0.025194 0
1.351591 1.354625 0.026182 0
1.364306 1.344285 0.022847 0
1.361664 1.332280 0.023830 0
1.362756 1.321260 0.023738 0
1.352418 1.307971 0.026877 0
1.368821 1.297822 0.022460 0
1.369848 1.286197 0.022364 0
1.366949 1.274821 0.023352 0
1.364058 1.262887 0.024336 0
1.361168 1.250398 0.025316 0
1.338945 1.237650 0.031708 0
1.347446 1.226679 0.029451 0
1.340541 1.214606 0.031517 0
1.375866 1.205312 0.021693 0
1.372727 1.193429 0.022677 0
1.342632 1.180021 0.031231 0
1.370166 1.169942 0.023566 0
1.363055 1.157924 0.025633 0
1.363568 1.146900 0.025542 0
1.367892 1.136044 0.024369 0
1.360703 1.122952 0.026427 0
1.376514 1.111919 0.022004 0
1.373043 1.100141 0.022990 0
1.373365 1.089084 0.022899 0
1.362101 1.077722 0.026055 0
1.377771 1.065891 0.021625 0
1.351029 1.054296 0.029111 0
1.374308 1.043102 0.022521 0
1.378296 1.031507 0.021342 0
1.366843 1.019747 0.024495 0
1.378451 1.008194 0.021151 0
-5.312302 1.005850 0.026071 1
-5.308399 1.017516 0.027241 1
-5.316016 1.029289 0.025190 1
-5.315877 1.041585 0.025290 1
-5.311861 1.052637 0.026455 1
-5.296238 1.063991 0.030842 1
-5.319099 1.076225 0.024500 1
-5.314953 1.087833 0.025669 1
-5.303063 1.099162 0.028982 1
-5.310391 1.111105 0.026932 1
-5.313825 1.122947 0.025955 1
-5.305667 1.134317 0.028195 1
-5.312869 1.146350 0.026146 1
-5.312329 1.158048 0.026241 1
-5.311749 1.169744 0.026337 1
-5.311192 1.180269 0.026422 1
-5.318193 1.193011 0.024379 1
-5.313681 1.203897 0.025541 1
-5.316786 1.215857 0.024564 1
-5.308316 1.227024 0.026802 1
-5.311296 1.239576 0.025831 1
-5.318115 1.251868 0.023783 1
-5.305730 1.262061 0.027087 1
-5.304739 1.274318 0.027186 1
-5.315269 1.287006 0.024068 1
-5.306564 1.298006 0.026304 1
-5.297876 1.308366 0.028535 1
-5.304442 1.320769 0.026488 1
-5.314737 1.334201 0.023376 1
-5.298332 1.343113 0.027742 1
-5.300813 1.356344 0.026776 1
-5.303499 1.367265 0.025790 1
-5.302122 1.379513 0.025889 1
-5.289289 1.389794 0.029193 1
-5.295620 1.401772 0.027142 1
-5.290293 1.413504 0.028310 1
-5.300287 1.426621 0.025195 1
-5.283489 1.436222 0.029566 1
-5.289653 1.448288 0.027516 1
-5.280346 1.459405 0.029753 1
-5.286509 1.470933 0.027698 1
-5.296275 1.484232 0.024584 1
-5.290746 1.495292 0.025747 1
-5.292708 1.508084 0.024776 1
-5.290906 1.519710 0.024869 1
-5.289157 1.530749 0.024957 1
-5.290983 1.543574 0.023986 1
-5.285355 1.553969 0.025143 1
-5.283293 1.566148 0.025240 1
-5.269901 1.575726 0.028538 1
-5.275553 1.588063 0.026489 1
-5.284846 1.601721 0.023377 1
-5.282717 1.613319 0.023470 1
-5.280548 1.624909 0.023562 1
-5.282122 1.637229 0.022587 1
-5.279870 1.648817 0.022679 1
-5.277692 1.659818 0.022767 1
-5.282795 1.673523 0.020729 1
-5.276643 1.684323 0.021888 1
-5.277996 1.696695 0.020913 1
-5.271769 1.707452 0.022072 1
-5.273036 1.719833 0.021097 1
-5.270623 1.730811 0.021184 1
-5.271803 1.743213 0.020209 1
-5.255259 1.763663 0.023591 11
-5.271315 1.779628 0.018350 11
-5.268842 1.790023 0.018433 10
-5.262312 1.800645 0.019590 13
-5.255749 1.811231 0.020747 15
-5.245270 1.821408 0.022975 12
-5.242229 1.833439 0.023069 11
-5.247049 1.845685 0.021019 13
-5.236465 1.855753 0.023245 11
-5.229725 1.866182 0.024401 13
-5.222953 1.876575 0.025556 15
-5.231017 1.891027 0.022450 13
-5.220609 1.899792 0.024666 10
-5.225189 1.926281 0.021654 1
-5.229662 1.938679 0.019604 1
-5.222326 1.950133 0.020767 1
-5.223013 1.961473 0.019783 1
-5.230533 1.976763 0.016683 1
-5.212174 1.984230 0.021035 1
-5.212394 1.996712 0.020059 1
-5.212566 2.009207 0.019083 1
-5.205341 2.019385 0.020236 1
-5.198083 2.029524 0.021389 1
-5.198311 2.041442 0.020409 1
-5.187322 2.050328 0.022625 1
-5.198451 2.065883 0.018453 1
-5.205479 2.081428 0.015354 1
-5.190725 2.089021 0.018633 1
-5.183249 2.099032 0.019784 1
-5.183028 2.111540 0.018808 1
-5.182757 2.124059 0.017832 1
-5.175173 2.134005 0.018983 1
-5.167559 2.143911 0.020133 1
-5.163539 2.155096 0.020220 1
-5.163303 2.167039 0.019240 1
-5.148357 2.174181 0.022515 1
-5.155270 2.188807 0.019408 1
-5.151093 2.199949 0.019495 1
-5.150266 2.213013 0.018522 1
-5.142622 2.222189 0.019667 1
-5.138544 2.232732 0.019748 1
-5.137801 2.245232 0.018772 1
-5.137009 2.257742 0.017795 1
-5.139523 2.272258 0.015760 1
-5.127911 2.280435 0.017970 1
-5.116282 2.288546 0.020179 1
-5.122441 2.303990 0.017078 1
-5.096754 2.305517 0.023529 1
-5.113245 2.326028 0.017248 1
-5.101731 2.333440 0.019451 1
-5.100590 2.345923 0.018474 1
-5.102936 2.359955 0.016435 1
-5.101692 2.372467 0.015458 1
-5.086300 2.378723 0.018725 1
-5.085466 2.390111 0.017739 1
-5.087124 2.405277 0.015709 1
-5.075670 2.411888 0.017906 1
-5.077721 2.425977 0.015868 1
-5.058727 2.430345 0.020193 1
-5.067674 2.447699 0.016033 1
-5.045164 2.450284 0.021419 1
-5.057220 2.469891 0.016203 1
-5.052062 2.480689 0.016285 1
-5.047128 2.490930 0.016363 1
-5.045360 2.503392 0.015385 1
-5.043542 2.515858 0.014406 1
-5.041943 2.527793 0.013424 1
-5.029693 2.535069 0.015625 1
-5.024308 2.545771 0.015707 1
-5.025752 2.559970 0.013668 1
-5.023707 2.572427 0.012690 1
-5.014771 2.581326 0.013830 1
-5.008947 2.592507 0.013915 1
-4.999954 2.601329 0.015054 1
-4.998022 2.613214 0.014071 1
-4.971991 2.612828 0.020506 1
-4.993735 2.637529 0.012109 1
-4.987993 2.648104 0.012188 1
-4.978837 2.656795 0.013327 1
-4.969658 2.665442 0.014465 1
-4.967182 2.677821 0.013485 1
-4.971075 2.694528 0.010392 1
-4.965134 2.705024 0.010471 1
-4.952769 2.711130 0.012662 1
-6.027185 3.793478 0.001071 1
-6.037246 3.820380 -0.003403 1
-6.023657 3.833050 -0.002532 1
-6.013736 3.847212 -0.002428 1
-6.006967 3.863614 -0.003086 1
-5.996940 3.877718 -0.002982 1
-5.984182 3.888790 -0.002123 1
-5.980423 3.907428 -0.003543 1
-5.973413 3.923756 -0.004202 1
-5.956851 3.933087 -0.002577 1
-5.952890 3.951695 -0.003998 1
-5.942555 3.965610 -0.003897 1
-5.931652 3.980182 -0.003791 1
-5.921741 3.993332 -0.003695 1
-5.917503 4.011904 -0.005117 1
-5.910071 4.028090 -0.005777 1
-5.899470 4.041855 -0.005677 1
-5.888821 4.055583 -0.005578 1
-5.875037 4.066847 -0.004718 1
-5.874616 4.086436 -0.006911 1
-5.863271 4.100759 -0.006807 1
-5.852416 4.114360 -0.006709 1
-5.850676 4.135330 -0.008893 1
-5.837205 4.145731 -0.008039 1
-5.846899 4.177347 -0.013260 1
-5.820638 4.178387 -0.009361 1
-5.810071 4.191168 -0.009269 1
-5.807373 4.212818 -0.011448 1
-5.803259 4.229947 -0.012881 1
-5.784836 4.239590 -0.011256 1
-5.779466 4.258023 -0.012680 1
-5.763254 4.264877 -0.011075 1
-5.766662 4.290993 -0.014779 1
-5.760483 4.310085 -0.016199 1
-5.751266 4.326582 -0.016859 1
-5.740791 4.338472 -0.016774 1
-5.723247 4.346416 -0.015162 1
-5.719713 4.368056 -0.017342 1
-5.710839 4.383790 -0.018008 1
-5.696688 4.393561 -0.017161 1
-5.692899 4.415195 -0.019342 1
-5.675777 4.422220 -0.017736 1
-5.675305 4.445865 -0.020681 1
-5.660985 4.455477 -0.019835 1
-5.648288 4.469014 -0.019739 1
-5.638998 4.484568 -0.020407 1
-5.630254 4.499458 -0.021080 1
-5.625883 4.521056 -0.023262 1
-5.617000 4.535923 -0.023935 1
-5.596199 4.540430 -0.021570 1
-5.572610 4.542083 -0.018448 1
-5.574795 4.567852 -0.022156 1
-5.561687 4.581073 -0.022064 1
-5.554701 4.599184 -0.023493 1
-5.537216 4.605496 -0.021893 1
-5.527355 4.620758 -0.022565 1
-5.520173 4.638806 -0.023994 1
-5.507443 4.651206 -0.023908 1
-5.500117 4.669223 -0.025338 1
-5.487281 4.681553 -0.025253 1
-5.468996 4.688140 -0.023652 1
-5.464174 4.708938 -0.025841 1
-5.453884 4.724010 -0.026514 1
-5.446204 4.741933 -0.027946 1
-5.439098 4.759241 -0.029381 1
-5.418643 4.762068 -0.027030 1
-5.405484 4.774114 -0.026947 1
-5.394256 4.789626 -0.027618 1
-5.389536 4.809756 -0.029812 1
-5.376210 4.821700 -0.029730 1
-5.363513 4.833003 -0.029653 1
-5.352028 4.848397 -0.030325 1
-5.330146 4.851921 -0.027970 1
-5.321818 4.869593 -0.029404 1
-5.308284 4.881300 -0.029324 1
-5.290964 4.885825 -0.027739 1
-5.278553 4.901576 -0.028410 1
-5.271337 4.917984 -0.029853 1
-5.252593 4.923491 -0.028262 1
-5.238183 4.935528 -0.028181 1
-5.225109 4.946373 -0.028108 1
-5.213797 4.960779 -0.028788 1
-5.201730 4.975721 -0.029465 1
-5.191688 4.988936 -0.030153 1
-5.184412 5.009941 -0.032343 1
-5.163749 5.011391 -0.030003 1
-5.146582 5.020020 -0.029168 1
-5.133228 5.030561 -0.029098 1
-5.126379 5.050901 -0.031293 1
-5.109809 5.058818 -0.030464 1
-5.093222 5.066670 -0.029636 1
-5.075908 5.074998 -0.028804 1
-5.064743 5.088435 -0.029492 1
-5.049731 5.099782 -0.029417 1
-5.045513 5.122591 -0.032373 1
-5.021742 5.120709 -0.029280 1
-5.011989 5.137695 -0.030721 1
-4.995204 5.145146 -0.029896 1
-4.981436 5.155184 -0.029830 1
-4.968474 5.169414 -0.030514 1
-4.953896 5.179885 -0.030446 1
-4.935467 5.183379 -0.028871 1
-4.925364 5.200158 -0.030315 1
-4.912929 5.213698 -0.031003 1
-4.893717 5.217521 -0.029426 1
-4.878972 5.227732 -0.029361 1
-4.868624 5.244376 -0.030806 1
-4.853785 5.254498 -0.030741 1
-4.846985 5.273336 -0.032948 1
-4.832045 5.283383 -0.032884 1
-4.810552 5.283560 -0.030555 1
-4.793415 5.290200 -0.029737 1
-4.780566 5.303347 -0.030429 1
-4.769798 5.319752 -0.031877 1
-4.752569 5.326227 -0.031060 1
-4.735330 5.332633 -0.030244 1
-4.722287 5.345608 -0.030938 1
-4.713371 5.365192 -0.033142 1
-4.697301 5.407673 -0.038305 11
-4.673664 5.403811 -0.035227 8
-4.666451 5.426666 -0.038187 21
-4.634706 5.409197 -0.032093 23
-4.621315 5.421870 -0.032790 25
-4.606631 5.430666 -0.032736 25
-4.585145 5.429729 -0.030416 26
-4.571648 5.442249 -0.031114 32
-4.567974 5.471705 -0.035584 31
-4.556271 5.487582 -0.037037 26
-4.540585 5.496612 -0.036982 22
-4.524867 5.505588 -0.036928 18
-4.505261 5.507664 -0.035366 22
-4.489505 5.516517 -0.035312 23
-4.473719 5.525314 -0.035259 27
-4.461686 5.540942 -0.036715 12
-4.442846 5.542311 -0.035158 12
-4.453135 5.599319 -0.045660 5
-4.444487 5.621836 -0.048624 7
-4.422799 5.620071 -0.046312 4
-4.402986 5.621686 -0.044754 1
-4.383191 5.623219 -0.043196 6
-4.381500 5.659544 -0.049176 2
-4.361623 5.660976 -0.047620 1
-4.343549 5.665826 -0.046818 1
-4.322741 5.663183 -0.044511 1
-4.304683 5.667885 -0.043710 1
-4.286621 5.672519 -0.042910 1
-4.273762 5.687655 -0.044371 1
-4.262550 5.706289 -0.046585 1
-4.240969 5.703685 -0.044279 1
-4.226230 5.715156 -0.044987 1
-4.209751 5.723033 -0.044943 1
-4.194920 5.734407 -0.045652 3
-4.173389 5.731496 -0.043349 1
-4.166750 5.760581 -0.047826 1
-4.145226 5.753204 -0.044774 1
-4.127784 5.761177 -0.044730 1
-4.111978 5.768335 -0.044691 1
-4.099281 5.786949 -0.046907 1
-4.080966 5.790789 -0.046114 1
-4.065799 5.801758 -0.046827 1
-4.045170 5.797898 -0.044530 1
-4.034606 5.819581 -0.047503 2
-4.013847 5.819917 -0.045957 1
-4.000053 5.834294 -0.047424 1
-3.987031 5.848279 -0.048895 4
-3.969242 5.855671 -0.048856 1
-3.950997 5.854684 -0.047317 1
-3.933810 5.865929 -0.048030 3
-3.916807 5.872785 -0.047995 2
-3.899781 5.879581 -0.047960 1
-3.882730 5.886318 -0.047926 1
-3.867365 5.892330 -0.047895 2
-3.848560 5.899613 -0.047858 1
-3.835633 5.917185 -0.050083 1
-3.816013 5.912022 -0.047796 1
-3.797991 5.918787 -0.047763 1
-3.781665 5.924850 -0.047733 1
-3.764943 5.935180 -0.048453 1
-3.747700 5.941445 -0.048423 1
-3.729517 5.939635 -0.046891 1
-3.711839 5.950092 -0.047611 1
-3.697135 5.963590 -0.049087 1
-3.677677 5.957880 -0.046805 3
-3.663699 5.979305 -0.049784 2
-3.648043 5.984629 -0.049759 3
-3.627268 5.983325 -0.048226 3
-3.614783 6.004033 -0.051210 5
-3.584618 6.030411 -0.054168 10
-3.563151 6.020794 -0.051135 10
-3.545610 6.026355 -0.051111 10
-3.529217 6.035606 -0.051840 7
-3.508163 6.029782 -0.049560 12
-3.489451 6.031392 -0.048785 17
-3.468491 6.025405 -0.046506 21
-3.450934 6.030635 -0.046485 23
-3.434461 6.039576 -0.047216 21
-3.413381 6.029335 -0.044188 28
-3.395811 6.034372 -0.044168 27
-3.376099 6.031785 -0.042644 25
-3.357471 6.032907 -0.041873 22
-3.339889 6.037750 -0.041855 23
-3.322290 6.042531 -0.041837 30
-3.308586 6.058406 -0.044077 37
-3.288921 6.055479 -0.042556 40
-3.273128 6.063657 -0.043293 40
-3.252614 6.060817 -0.041772 44
-3.240608 6.084122 -0.045518 34
-3.220072 6.081150 -0.043999 23
-3.203253 6.089330 -0.044737 22
-3.185474 6.093634 -0.044723 23
-3.168585 6.101699 -0.045462 25
-3.149873 6.102057 -0.044698 28
-3.132051 6.106174 -0.044686 28
-3.114268 6.102163 -0.043171 36
-3.094663 6.106552 -0.043159 45
-3.076825 6.110477 -0.043149 52
-3.061445 6.125865 -0.045395 44
-3.042730 6.125829 -0.044634 44
-3.024029 6.125726 -0.043873 41
-3.009485 6.136738 -0.045369 36
-2.987437 6.129168 -0.043105 45
-2.970278 6.136574 -0.043849 44
-2.953823 6.147780 -0.045347 39
-2.936179 6.143153 -0.043837 36
-2.916599 6.142829 -0.043079 41
-2.900943 6.153699 -0.044578 38
-2.882251 6.153080 -0.043822 40
-2.863352 6.156421 -0.043817 43
-2.843352 6.147922 -0.041558 43
-2.829774 6.166165 -0.044563 38
-2.810190 6.165437 -0.043808 31
-2.793051 6.168223 -0.043806 30
-2.773488 6.167356 -0.043053 25
-2.756036 6.174043 -0.043804 18
-2.736799 6.169015 -0.042300 18
-2.719884 6.179466 -0.043804 18
-2.702350 6.185971 -0.044556 15
-2.682069 6.172962 -0.041550 15
-2.665435 6.179217 -0.042303 14
-2.648377 6.189433 -0.043809 13
-2.629249 6.184007 -0.042308 20
-2.611144 6.186307 -0.042311 20
-2.594455 6.200244 -0.044571 22
-2.575816 6.190610 -0.042319 20
-2.558125 6.204537 -0.044580 22
-2.540817 6.214398 -0.046089 19
-2.522674 6.208480 -0.044591 20
-2.505707 6.222130 -0.046853 18
-2.486682 6.216181 -0.045356 19
-2.468845 6.221894 -0.046116 19
-2.450976 6.227545 -0.046876 18
-2.432720 6.229223 -0.046884 16
-2.415711 6.234672 -0.047645 11
-2.398345 6.236150 -0.047654 10
-2.381000 6.249392 -0.049920 8
-2.361452 6.246978 -0.049179 8
-2.344045 6.248276 -0.049190 9
-2.324529 6.245725 -0.048450 9
-2.306091 6.231220 -0.045454 10
-2.287578 6.228471 -0.044714 14
-2.270246 6.245265 -0.047736 16
-2.251929 6.246312 -0.047749 20
-2.234935 6.255094 -0.049267 5
-2.213610 6.232562 -0.044771 3
-2.194985 6.225561 -0.043282 3
-2.179218 6.241971 -0.046305 2
-2.160763 6.238774 -0.045569 2
-2.141555 6.239470 -0.045587 3
-2.123683 6.224332 -0.042595 3
-2.105658 6.232722 -0.044117 3
-2.086378 6.229289 -0.043384 4
-2.068949 6.225747 -0.042650 5
-2.051110 6.249660 -0.047183 6
-2.032671 6.242085 -0.045698 5
-2.014326 6.238374 -0.044967 4
-1.996866 6.226735 -0.042730 3
-1.978672 6.242542 -0.045761 5
-1.960366 6.246500 -0.046535 5
-1.942088 6.234679 -0.044301 3
-1.923783 6.238509 -0.045076 4
-1.904577 6.238337 -0.045101 6
-1.887092 6.245976 -0.046629 11
-1.869116 6.226046 -0.042892 11
-1.850787 6.229620 -0.043669 10
-1.831614 6.229180 -0.043697 9
-1.813466 6.224769 -0.042970 9
-1.796259 6.220323 -0.042243 10
-1.776846 6.227536 -0.043777 9
-1.759657 6.222970 -0.043051 8
-1.741913 6.210459 -0.040822 10
-1.723543 6.213586 -0.041603 10
-1.705340 6.212725 -0.041632 10
-1.688050 6.211848 -0.041661 10
-1.670508 6.199095 -0.039433 12
-1.651680 6.194073 -0.038713 13
-1.634207 6.196939 -0.039495 13
-1.615545 6.203606 -0.041032 13
-1.597922 6.194529 -0.039559 18
-1.580359 6.185393 -0.038087 21
-1.559256 6.223203 -0.045647 8
-1.543843 6.186524 -0.038907 21
-1.525408 6.188951 -0.039694 25
-1.505588 6.206966 -0.043493 36
-1.489891 6.177957 -0.038258 46
-1.470341 6.191925 -0.041306 40
-1.455169 6.178627 -0.039080 44
-1.435908 6.188555 -0.041375 35
-1.415983 6.186500 -0.041416 37
-1.399567 6.168942 -0.038443 36
-1.382456 6.174961 -0.039983 40
-1.363941 6.176812 -0.040775 45
-1.346331 6.170794 -0.040061 55
-1.328755 6.164717 -0.039348 43
-1.311215 6.158580 -0.038635 53
-1.292200 6.164072 -0.040183 45
-1.272755 6.165480 -0.040979 44
-1.255624 6.163168 -0.041019 50
-1.237415 6.168581 -0.042566 50
-1.221041 6.154357 -0.040349 43
-1.203048 6.151742 -0.040393 46
-1.185647 6.145179 -0.039683 52
-1.167687 6.142441 -0.039728 58
-1.148514 6.147401 -0.041279 58
-1.132418 6.132897 -0.039065 48
-1.113225 6.137726 -0.040617 46
-1.094639 6.138608 -0.041417 43
-1.076702 6.135552 -0.041464 58
-1.059453 6.128564 -0.040758 55
-1.042934 6.117651 -0.039299 46
-1.025259 6.118443 -0.040099 40
-1.007392 6.115145 -0.040148 41
-0.988806 6.115644 -0.040951 48
-0.969311 6.115902 -0.041757 40
-0.954621 6.101022 -0.039543 46
-0.936816 6.097477 -0.039594 48
-0.917453 6.101568 -0.041153 48
-0.898847 6.101740 -0.041959 42
-0.882663 6.090314 -0.040504 44
-0.864896 6.086518 -0.040556 44
-0.847141 6.082660 -0.040610 41
-0.827697 6.086410 -0.042172 34
-0.808213 6.090086 -0.043734 25
-0.787810 6.097517 -0.046052 25
-0.773586 6.078087 -0.043091 27
-0.754957 6.077734 -0.043901 25
-0.735429 6.077097 -0.044714 18
-0.714866 6.088269 -0.047786 8
-0.698998 6.076262 -0.046335 11
-0.680322 6.075634 -0.047147 10
-0.664463 6.067553 -0.046448 8
-0.649730 6.051587 -0.044244 3
-0.633097 6.043179 -0.043549 2
-0.620550 6.019533 -0.039835 1
-0.608152 5.995861 -0.036122 1
-0.593827 5.979742 -0.033919 1
-0.578548 5.967368 -0.032470 1
-0.559084 5.970075 -0.034040 6
-0.548199 5.942484 -0.029573 1
-0.530949 5.937522 -0.029635 1
-0.512614 5.936269 -0.030452 3
-0.457846 5.993756 -0.044168 8
-0.448416 5.962171 -0.038947 4
-0.434520 5.888002 -0.026236 45
-0.419824 5.875151 -0.024791 58
-0.395644 5.892194 -0.029387 58
-0.379778 5.882961 -0.028698 58
-0.362369 5.881424 -0.029516 58
-0.344101 5.879543 -0.030339 58
-0.319599 5.896221 -0.034939 57
-0.295362 5.908775 -0.038788 58
-0.281631 5.895791 -0.037342 58
-0.257267 5.908162 -0.041193 58
-0.236245 5.913306 -0.043530 27
-0.205946 5.890049 -0.041404 1
-0.190587 5.884511 -0.041468 1
-0.173188 5.873988 -0.040791 1
-0.154818 5.871401 -0.041620 1
-0.141417 5.858025 -0.040177 1
-0.121690 5.858993 -0.041762 1
-0.105582 5.852866 -0.041832 1
-0.093454 5.831373 -0.038885 2
-0.072318 5.835804 -0.041228 1
-0.056882 5.825526 -0.040547 1
-0.039434 5.822835 -0.041375 1
-0.025532 5.808807 -0.039938 1
-0.007914 5.801681 -0.040018 1
0.010981 5.802446 -0.041603 1
0.024736 5.788274 -0.040167 1
0.041443 5.781313 -0.040245 1
0.061180 5.781531 -0.041836 1
0.075492 5.771185 -0.041154 1
0.091420 5.760080 -0.040480 1
0.109593 5.756489 -0.041316 1
0.123784 5.745998 -0.040635 1
0.142760 5.741916 -0.041476 1
0.152898 5.720199 -0.038529 3
0.172596 5.719952 -0.040124 1
0.189868 5.716425 -0.040959 1
0.207962 5.712458 -0.041798 1
0.224404 5.704857 -0.041880 1
0.235829 5.686525 -0.039691 1
0.251364 5.679214 -0.039770 1
0.267689 5.671463 -0.039854 3
0.277188 5.649492 -0.036907 6
0.297646 5.648325 -0.038511 6
0.307880 5.630223 -0.036318 1
0.310941 5.593697 -0.030346 8
0.326167 5.586137 -0.030426 15
0.338645 5.571105 -0.028996 29
0.358141 5.570057 -0.030597 19
0.370513 5.554937 -0.029168 27
0.390001 5.553754 -0.030770 38
0.400458 5.535063 -0.028583 46
0.421746 5.537230 -0.030944 58
0.432073 5.518466 -0.028757 45
0.441511 5.500105 -0.026566 45
0.461712 5.498188 -0.028176 40
0.471794 5.479343 -0.025989 43
0.493069 5.481164 -0.028354 32
0.516280 5.486331 -0.031477 30
0.528462 5.475091 -0.030800 26
0.546772 5.469364 -0.031654 21
0.562364 5.460583 -0.031745 11
0.577924 5.451747 -0.031836 11
0.599126 5.416912 -0.028226 1
0.614971 5.412241 -0.029068 1
0.631900 5.402317 -0.029170 1
0.645256 5.389859 -0.028504 1
0.664596 5.387479 -0.030116 1
0.667754 5.358096 -0.025654 1
0.684993 5.352251 -0.026508 1
0.704798 5.353971 -0.028871 1
0.721503 5.343703 -0.028976 1
0.728932 5.325242 -0.026783 1
0.739856 5.309165 -0.025359 1
0.761920 5.309204 -0.027739 1
0.770635 5.289727 -0.025556 1
0.787716 5.283473 -0.026413 1
0.804785 5.277153 -0.027270 1
0.812542 5.258077 -0.025082 1
0.830288 5.251168 -0.025945 1
0.844375 5.241888 -0.026039 1
0.857736 5.228306 -0.025382 1
0.873196 5.222693 -0.026231 1
0.884268 5.205766 -0.024815 1
0.898937 5.195808 -0.024914 1
0.909134 5.179319 -0.023493 1
0.928172 5.175739 -0.025115 1
0.942737 5.165628 -0.025215 1
0.949784 5.146325 -0.023029 1
0.967232 5.138837 -0.023896 1
0.981667 5.128590 -0.023998 1
0.998353 5.121485 -0.024861 1
1.005120 5.102093 -0.022675 1
1.024758 5.097547 -0.024305 1
1.039050 5.087100 -0.024408 1
1.050262 5.073967 -0.023745 1
1.066812 5.066584 -0.024610 1
1.082638 5.059666 -0.025471 1
1.088052 5.035937 -0.022534 1
1.101425 5.025803 -0.022634 1
1.117849 5.018209 -0.023501 1
1.129468 5.004325 -0.022844 1
1.145839 4.996616 -0.023712 1
1.152527 4.976461 -0.021532 1
1.166395 4.965569 -0.021638 1
1.180915 4.954079 -0.021750 1
1.191568 4.940568 -0.021090 1
1.207769 4.932600 -0.021959 1
1.214073 4.912358 -0.019780 1
1.230198 4.904294 -0.020650 1
1.241322 4.890096 -0.019995 1
1.254888 4.878893 -0.020104 1
1.269575 4.871789 -0.020965 1
1.270467 4.845440 -0.017259 1
1.286409 4.837138 -0.018131 1
1.299790 4.825778 -0.018241 1
1.316351 4.816783 -0.019120 1
1.323869 4.799946 -0.017698 1
1.329398 4.779561 -0.015518 1
1.348405 4.773386 -0.017161 1
1.355717 4.756496 -0.015740 1
1.371421 4.747834 -0.016614 1
1.387104 4.739108 -0.017490 1
1.397517 4.724478 -0.016838 1
1.403245 4.703412 -0.014664 1
1.421450 4.697448 -0.016304 1
1.426374 4.676943 -0.014125 1
1.448575 4.677816 -0.017283 1
1.448024 4.651522 -0.013576 1
1.464077 4.641867 -0.014459 1
1.468688 4.621324 -0.012280 1
1.484651 4.611574 -0.013164 1
1.498701 4.603567 -0.014031 1
1.505816 4.585814 -0.012616 1
1.514095 4.566844 -0.011213 1
1.530778 4.561524 -0.012846 1
1.537687 4.543717 -0.011432 1
1.550659 4.530869 -0.011553 1
1.551261 4.508090 -0.008602 1
1.560709 4.493039 -0.007953 1
1.578472 4.486243 -0.009599 1
1.581614 4.466236 -0.007414 1
1.594302 4.453228 -0.007536 1
1.603520 4.438066 -0.006887 1
1.615506 4.425602 -0.007004 1
1.624608 4.410387 -0.006355 1
1.635904 4.398478 -0.006467 1
1.647752 4.385901 -0.006585 1
1.650952 4.365241 -0.004405 1
1.665561 4.355283 -0.005289 1
1.680728 4.344628 -0.006179 1
1.686014 4.327232 -0.004759 1
1.694708 4.311841 -0.004112 1
1.702763 4.297068 -0.003458 1
1.703136 4.273137 -0.000517 1
1.726276 4.270766 -0.003703 1
1.737678 4.257875 -0.003822 1
1.746084 4.242355 -0.003175 1
1.748507 4.221657 -0.000995 1
1.768643 4.216395 -0.003416 1
1.776318 4.201451 -0.002763 1
1.790463 4.190934 -0.003651 1
1.795596 4.172743 -0.002238 1
1.800648 4.154555 -0.000824 1
1.814656 4.143922 -0.001713 1
1.816550 4.123204 0.000468 1
1.824406 4.107502 0.001114 1
1.835778 4.093607 0.000986 1
1.842975 4.078525 0.001638 1
1.856761 4.067692 0.000748 1
1.870518 4.056800 -0.000143 1
1.875026 4.038521 0.001271 1
1.888697 4.027544 0.000380 1
1.896159 4.011666 0.001025 1
1.896315 3.992299 0.003219 1
1.909850 3.981217 0.002327 1
1.920240 3.967687 0.002204 1
1.930583 3.954121 0.002080 1
1.931486 3.933414 0.004262 1
1.954264 3.929237 0.001062 1
1.955031 3.908514 0.003245 1
1.974633 3.901832 0.000813 1
1.978419 3.883428 0.002226 1
1.985295 3.867347 0.002870 1
2.004826 3.860460 0.000436 1
2.002044 3.837435 0.003389 1
2.015127 3.825864 0.002493 1
2.028177 3.814236 0.001598 1
2.034772 3.798037 0.002241 1
2.041303 3.781826 0.002885 1
2.054223 3.770073 0.001988 1
2.050936 3.747146 0.004942 1
2.063751 3.735337 0.004045 1
2.063532 3.714669 0.006229 1
2.076248 3.702793 0.005332 1
2.085195 3.689390 0.005211 1
2.094566 3.675250 0.005083 1
2.107167 3.663233 0.004185 1
2.116445 3.649016 0.004057 1
2.128969 3.636899 0.003158 1
2.138156 3.622607 0.003029 1
2.140674 3.604062 0.004443 1
2.149746 3.589729 0.004314 1
2.148795 3.569104 0.006500 1
2.157745 3.554742 0.006371 1
2.173322 3.544476 0.004699 1
2.168803 3.521822 0.007656 1
2.180941 3.509431 0.006755 1
2.186322 3.492929 0.007398 1
2.195007 3.478437 0.007269 1
2.203640 3.463915 0.007139 1
2.208841 3.447369 0.007781 1
2.220329 3.435510 0.006885 1
2.218629 3.414990 0.009073 1
2.220238 3.396469 0.010488 1
2.235401 3.385751 0.008812 1
2.240296 3.369154 0.009455 1
2.248548 3.354475 0.009324 1
2.246464 3.334035 0.011513 1
2.261462 3.323131 0.009836 1
2.272995 3.310264 0.008932 1
2.267249 3.287973 0.011894 1
2.285978 3.278045 0.009436 1
2.283134 3.258399 0.011632 1
2.301400 3.249084 0.009180 1
2.306149 3.231621 0.009815 1
2.303093 3.212017 0.012011 1
2.306926 3.196062 0.012660 1
2.321557 3.184731 0.010981 1
2.333043 3.170797 0.010068 1
2.330086 3.150500 0.012258 1
2.340712 3.138012 0.011358 1
2.344640 3.121242 0.012001 1
2.341457 3.101012 0.014192 1
2.348772 3.085981 0.014060 1
2.363104 3.074333 0.012378 1
2.363245 3.055843 0.013795 1
2.366856 3.039056 0.014437 1
2.370402 3.022269 0.015080 1
2.377442 3.007138 0.014947 1
2.395122 2.996908 0.012488 1
2.391364 2.976801 0.014681 1
2.398246 2.961596 0.014548 1
2.387170 2.938343 0.018293 1
2.397503 2.924746 0.017384 1
2.407127 2.912625 0.016489 1
2.406590 2.894228 0.017908 1
2.420717 2.881318 0.016215 1
2.419724 2.863691 0.017641 1
2.430146 2.849152 0.016724 1
2.425726 2.829260 0.018920 1
2.439340 2.816947 0.017234 1
2.441720 2.800852 0.017883 1
2.441030 2.781744 0.019296 1
2.443591 2.764900 0.019939 1
2.453377 2.750968 0.019029 1
2.452171 2.732666 0.020449 1
2.465509 2.720108 0.018761 1
2.460516 2.700398 0.020959 1
2.462474 2.684323 0.021609 1
2.472295 2.669489 0.020691 1
2.481777 2.655381 0.019779 1
2.483285 2.640050 0.020436 1
2.485874 2.621621 0.021066 1
2.484139 2.603411 0.022488 1
2.489162 2.589438 0.022367 1
2.498663 2.574430 0.021448 1
2.511270 2.562236 0.019763 1
2.505855 2.541970 0.021957 1
2.503797 2.523818 0.023380 1
2.516527 2.510748 0.021688 1
2.521781 2.495110 0.021553 1
2.526981 2.479453 0.021418 1
2.520686 2.460891 0.023627 1
2.522287 2.443245 0.024265 1
2.534778 2.429981 0.022572 1
2.539255 2.415849 0.022451 1
2.533190 2.395831 0.024647 1
2.541791 2.381294 0.023733 1
2.546354 2.366354 0.023605 1
2.551104 2.350612 0.023470 1
2.548512 2.331827 0.024888 1
2.560670 2.318290 0.023193 1
2.553948 2.299220 0.025398 1
2.558464 2.283452 0.025264 1
2.570253 2.270592 0.023575 1
2.571109 2.252922 0.024213 1
2.571680 2.236055 0.024859 1
2.579548 2.222044 0.023950 1
2.587583 2.207202 0.023034 1
2.587776 2.191110 0.023686 1
2.592119 2.174430 0.023544 1
2.588599 2.156580 0.024970 1
2.588614 2.140525 0.025623 1
2.600385 2.125738 0.023919 1
2.615725 2.112613 0.021439 1
2.608149 2.093867 0.023648 1
2.615764 2.078819 0.022730 1
2.600413 2.058362 0.026504 1
2.611549 2.044995 0.024812 1
2.607527 2.027290 0.026240 1
2.614921 2.012192 0.025323 1
2.622266 1.997055 0.024405 1
2.610389 1.977736 0.027399 1
2.617620 1.962588 0.026482 1
2.617120 1.945798 0.027129 1
2.631929 1.932177 0.024646 1
2.627473 1.914589 0.026076 1
2.630488 1.899368 0.025947 1
2.622056 1.881089 0.028161 1
2.632818 1.866556 0.026460 1
2.624108 1.849150 0.028681 1
2.627198 1.832339 0.028539 1
2.641665 1.818403 0.026054 0
2.640639 1.801651 0.026702 1
2.651147 1.786919 0.025000 1
2.650007 1.770160 0.025648 1
2.644935 1.752778 0.027081 1
2.651415 1.737324 0.026161 1
2.653969 1.721219 0.026026 1
2.652467 1.705310 0.026682 0
2.655029 1.688396 0.026540 1
2.653296 1.673316 0.027203 1
2.647863 1.656083 0.028637 0
2.642365 1.638896 0.030072 1
2.644576 1.622823 0.029938 1
2.635173 1.604380 0.032151 0
2.641153 1.588839 0.031232 1
2.635406 1.571785 0.032668 1
2.645265 1.555892 0.030957 1
2.639302 1.539683 0.032400 1
2.648958 1.524525 0.030695 1
2.654578 1.509674 0.029782 1
2.644640 1.492284 0.032005 1
2.634638 1.474969 0.034228 1
2.636276 1.458925 0.034095 1
2.653471 1.444412 0.030817 1
2.662886 1.428237 0.029103 1
2.644760 1.411115 0.032908 1
2.646176 1.395036 0.032774 1
2.647468 1.379755 0.032647 1
2.652747 1.363178 0.031720 1
2.646174 1.346466 0.033160 1
2.643395 1.330897 0.033820 1
2.648498 1.314294 0.032893 1
2.645662 1.297940 0.033547 1
2.650596 1.282106 0.032627 1
2.655429 1.267047 0.031713 0
2.640679 1.250046 0.034729 1
2.645449 1.234189 0.033809 1
2.638374 1.218523 0.035258 1
2.646988 1.202025 0.033543 1
2.655510 1.186272 0.031835 1
2.652221 1.170004 0.032490 1
2.641011 1.154285 0.034728 1
2.645449 1.138346 0.033807 1
2.657694 1.121798 0.031303 1
2.650239 1.106283 0.032754 1
2.638829 1.089931 0.034987 1
2.635203 1.073802 0.035644 1
2.647204 1.057932 0.033145 1
2.635623 1.041713 0.035380 0
2.643591 1.025729 0.033670 0
2.631897 1.009606 0.035906 1
-6.660068 1.010783 0.026087 1
-6.652142 1.027942 0.027787 1
-6.655939 1.043542 0.027135 1
-6.647904 1.059812 0.028827 1
-6.667272 1.076531 0.025066 1
-6.655200 1.092700 0.027537 1
-6.654840 1.109085 0.027671 1
-6.654423 1.125467 0.027805 1
-6.661791 1.142102 0.026381 1
-6.649523 1.157269 0.028844 1
-6.648906 1.174452 0.028984 1
-6.656101 1.191149 0.027561 1
-6.659316 1.207717 0.026917 1
-6.662473 1.224311 0.026272 1
-6.649941 1.239274 0.028733 1
-6.652987 1.255861 0.028088 1
-6.648140 1.272001 0.028999 1
-6.658850 1.289927 0.026806 1
-6.642196 1.304451 0.030043 1
-6.648924 1.321342 0.028620 1
-6.643853 1.337413 0.029531 1
-6.646550 1.354060 0.028886 1
-6.653099 1.371047 0.027464 1
-6.647858 1.387091 0.028374 1
-6.646470 1.403448 0.028507 1
-6.676284 1.422668 0.022425 2
-6.651335 1.436891 0.027218 1
-6.641963 1.452488 0.028903 1
-6.648154 1.469622 0.027482 1
-6.650551 1.484756 0.026825 1
-6.640933 1.501088 0.028516 1
-6.639237 1.516603 0.028641 1
-6.649091 1.534286 0.026445 1
-6.651085 1.551113 0.025801 1
-6.633447 1.566376 0.029043 1
-6.643112 1.584164 0.026847 1
-6.645033 1.600193 0.026196 1
-6.673908 1.621524 0.020131 2
-6.648376 1.634762 0.024915 1
-6.642239 1.650571 0.025822 1
-6.647815 1.667212 0.024396 1
-6.653214 1.684716 0.022977 1
-6.650664 1.701908 0.023115 1
-6.652307 1.717238 0.022458 1
-6.645634 1.734629 0.023377 1
-6.648252 1.767781 0.022083 21
-6.637797 1.782825 0.023763 13
-6.635168 1.798329 0.023887 17
-6.620608 1.813406 0.026346 19
-6.629319 1.831754 0.024154 14
-6.649538 1.852301 0.019640 10
-6.631248 1.864953 0.022860 13
-6.620329 1.880590 0.024544 14
-6.602123 1.892228 0.027755 8
-6.611153 1.927707 0.024919 1
-6.603869 1.943954 0.025828 1
-6.612062 1.962563 0.023637 1
-6.608837 1.977980 0.023760 1
-6.601377 1.994178 0.024668 1
-6.605713 2.011245 0.023244 1
-6.598137 2.027404 0.024152 1
-6.594515 2.043583 0.024280 1
-6.587197 2.058059 0.025175 1
-6.591110 2.075992 0.023757 1
-6.591136 2.093056 0.023113 1
-6.594913 2.111055 0.021696 1
-6.583376 2.125351 0.023368 1
-6.579412 2.141478 0.023496 1
-6.571788 2.155824 0.024389 1
-6.567513 2.172715 0.024522 1
-6.563383 2.188786 0.024649 1
-6.570581 2.207850 0.022461 1
-6.573912 2.225963 0.021044 4
-6.562021 2.239999 0.022714 1
-6.561660 2.256290 0.022063 1
-6.561020 2.273396 0.021418 1
-6.564093 2.291579 0.020002 1
-6.548229 2.304395 0.022441 1
-6.539870 2.319305 0.023337 1
-6.554526 2.339212 0.019596 1
-6.534767 2.350761 0.022805 1
-6.545049 2.371245 0.019847 1
-6.528722 2.384599 0.022290 1
-6.527358 2.402489 0.021651 1
-6.530415 2.419170 0.020223 1
-6.528916 2.437092 0.019583 1
-6.535078 2.456622 0.017397 1
-6.522491 2.470156 0.019062 1
-6.517323 2.486069 0.019186 1
-6.512362 2.501169 0.019304 1
-6.510542 2.519089 0.018664 1
-6.505204 2.534960 0.018788 1
-6.496640 2.547953 0.019669 1
-6.498070 2.567934 0.018265 1
-6.493114 2.582179 0.018376 1
-6.498373 2.602721 0.016198 1
-6.492460 2.619339 0.016327 1
-6.483083 2.633806 0.017218 1
-6.477345 2.649580 0.017341 1
-6.482591 2.669433 0.015157 1
-6.476729 2.685205 0.015279 1
-6.478449 2.702952 0.013858 1
-6.465138 2.715901 0.015516 1
-6.466738 2.733660 0.014095 1
-6.464002 2.751591 0.013454 1
-6.465154 2.770183 0.012039 1
-6.469878 2.790260 0.009856 1
-6.463593 2.805986 0.009978 2
-6.449983 2.818730 0.011634 1
-6.447230 2.835881 0.010987 1
-6.440787 2.851528 0.011108 1
-6.452389 2.874747 0.007390 1
-6.438910 2.886568 0.009039 1
-6.439510 2.905273 0.007625 1
-6.440369 2.923223 0.006204 1
-6.426423 2.935710 0.007858 1
-6.426477 2.955225 0.006450 1
-6.416374 2.968428 0.007330 1
-6.409814 2.983191 0.007443 1
-6.417166 3.005176 0.004494 1
-6.410132 3.020718 0.004613 1
-6.399123 3.035367 0.005505 1
-6.399103 3.054156 0.004090 1
-6.395453 3.071302 0.003441 1
-6.381092 3.083407 0.005092 1
-6.374152 3.098052 0.005204 1
-6.373497 3.117622 0.003794 1
-6.359383 3.128808 0.005438 1
-6.362492 3.149334 0.003257 1
-6.365511 3.169907 0.001076 1
-6.347365 3.180007 0.003490 1
-6.350241 3.200601 0.001309 1
-6.329296 3.207272 0.004476 1
-6.327768 3.227607 0.003072 1
-6.313765 3.237712 0.004707 1
-6.312885 3.256517 0.003291 1
-6.318878 3.278995 0.000345 1
-6.300480 3.288679 0.002755 1
-6.299384 3.307511 0.001339 1
-6.287434 3.321533 0.002224 1
-6.282746 3.338494 0.001573 1
-6.268074 3.349040 0.003211 1
-6.263278 3.365957 0.002559 1
-6.265277 3.386688 0.000378 1
-6.257332 3.400948 0.000485 1
-6.252336 3.417862 -0.000167 1
-6.247273 3.434771 -0.000819 1
-6.231933 3.445803 0.000822 1
-6.226759 3.462664 0.000170 1
-6.228301 3.483479 -0.002011 1
-6.222545 3.501095 -0.002658 1
-6.220534 3.519964 -0.004075 1
-6.202039 3.528026 -0.001678 1
-6.189819 3.540786 -0.000804 1
-6.188075 3.558872 -0.002226 1
-6.175762 3.571560 -0.001353 1
-6.170094 3.588317 -0.002007 1
-6.167695 3.607141 -0.003424 1
-6.165215 3.625978 -0.004842 1
-6.152236 3.639271 -0.003964 1
-6.146302 3.655993 -0.004619 1
-6.144075 3.674097 -0.006042 1
-7.424574 4.374901 -0.004819 1
-7.413346 4.393000 -0.004684 1
-7.404214 4.415066 -0.005130 1
-7.402276 4.440398 -0.006769 1
-7.386893 4.457240 -0.006035 1
-7.381437 4.480440 -0.007081 1
-7.379817 4.504852 -0.008727 1
-7.370854 4.525908 -0.009180 1
-7.365114 4.549120 -0.010227 1
-7.355982 4.570148 -0.010681 1
-7.346769 4.591156 -0.011134 1
-7.327632 4.605513 -0.009810 1
-7.330739 4.636267 -0.012629 1
-7.315379 4.651819 -0.011905 1
-7.302592 4.670486 -0.011767 1
-7.299490 4.695875 -0.013408 1
-7.286550 4.714486 -0.013271 1
-7.283247 4.739886 -0.014911 1
-7.273380 4.760729 -0.015367 1
-7.261533 4.777399 -0.015245 1
-7.254066 4.801422 -0.016287 1
-7.234354 4.815229 -0.014968 1
-7.230580 4.840613 -0.016609 1
-7.227369 4.865098 -0.018257 1
-7.206804 4.879661 -0.016933 1
-7.193223 4.897947 -0.016799 1
-7.183424 4.917653 -0.017265 2
-7.169024 4.936766 -0.017125 1
-7.147188 4.945910 -0.015232 2
-7.157083 4.985081 -0.019818 1
-7.140006 5.000772 -0.019096 1
-7.118044 5.009726 -0.017204 1
-7.113346 5.035029 -0.018847 1
-7.098516 5.053885 -0.018711 1
-7.086710 5.075151 -0.019165 1
-7.073876 5.091233 -0.019049 1
-7.056480 5.106568 -0.018330 1
-7.038320 5.122718 -0.017605 2
-7.030011 5.145431 -0.018658 1
-7.016230 5.162216 -0.018537 1
-7.003976 5.183244 -0.018995 1
-6.977935 5.189786 -0.016513 1
-6.972348 5.214921 -0.018159 1
-6.955321 5.228955 -0.017449 1
-6.942788 5.249801 -0.017909 1
-6.930914 5.269745 -0.018374 2
-6.919712 5.288792 -0.018847 1
-6.909913 5.312141 -0.019897 1
-6.892608 5.325915 -0.019190 1
-6.898208 5.361459 -0.023196 1
-6.868394 5.394961 -0.022958 8
-6.833881 5.427299 -0.022120 22
-6.810417 5.435413 -0.020237 26
-6.809435 5.465729 -0.023064 30
-6.802505 5.490705 -0.024713 26
-6.781017 5.502169 -0.023415 13
-6.771024 5.524393 -0.024475 14
-6.746586 5.532983 -0.022590 11
-6.768973 5.618407 -0.033545 8
-6.730939 5.646331 -0.032133 55
-6.715499 5.662122 -0.032022 50
-6.705633 5.683425 -0.033089 50
-6.680840 5.691582 -0.031208 61
-6.677572 5.722859 -0.034030 79
-6.661879 5.738472 -0.033921 44
-6.659916 5.801491 -0.040171 11
-6.642281 5.818679 -0.040051 9
-6.624582 5.835804 -0.039932 8
-6.610402 5.854912 -0.040408 8
-6.598869 5.876849 -0.041472 7
-6.588950 5.897151 -0.042547 7
-6.561994 5.906218 -0.040661 8
-6.546553 5.920646 -0.040562 5
-6.515920 5.922090 -0.037512 4
-6.489820 5.930001 -0.035635 3
-6.462784 5.933291 -0.033181 4
-6.450839 5.954843 -0.034249 4
-6.422069 5.959488 -0.031786 8
-6.432802 6.003000 -0.037565 8
-6.393442 5.995660 -0.032754 15
-6.395141 6.031124 -0.036766 27
-6.379268 6.050321 -0.037242 37
-6.362490 6.064943 -0.037143 47
-6.347360 6.083273 -0.037626 62
-6.332156 6.101559 -0.038110 57
-6.314315 6.116785 -0.038006 59
-6.285325 6.120604 -0.035551 34
-6.265775 6.131881 -0.034867 19
-6.254518 6.156752 -0.036522 24
-6.247465 6.183165 -0.038773 19
-6.241883 6.213394 -0.041607 18
-6.226151 6.231373 -0.042094 36
-6.195423 6.230841 -0.039061 72
-6.185479 6.254110 -0.040727 106
-6.171118 6.275746 -0.041797 107
-6.147762 6.284202 -0.040526 101
-6.132655 6.301167 -0.041020 78
-6.114119 6.315695 -0.040924 75
-6.102801 6.339544 -0.042587 77
-6.086544 6.357104 -0.043078 77
-6.070214 6.374617 -0.043569 75
-6.051423 6.388926 -0.043474 76
-6.027823 6.396847 -0.042208 101
-6.017951 6.419103 -0.043883 79
-5.994288 6.426875 -0.042618 102
-5.998783 6.472777 -0.048385 106
-5.986656 6.496419 -0.050051 110
-5.932573 6.462405 -0.041172 103
-5.918102 6.482654 -0.042253 76
-5.903539 6.502869 -0.043335 73
-5.877428 6.506917 -0.041489 22
-5.851128 6.593125 -0.049423 1
-5.845049 6.626216 -0.052849 2
-5.818678 6.629941 -0.051006 1
-5.792328 6.633551 -0.049163 1
-5.777058 6.653451 -0.050249 1
-5.770495 6.686470 -0.053675 1
-5.745045 6.689181 -0.051839 1
-5.725158 6.702354 -0.051756 1
-5.707391 6.718769 -0.052258 1
-5.687401 6.731810 -0.052175 1
-5.673794 6.754761 -0.053848 1
-5.647284 6.757683 -0.052012 1
-5.631398 6.777197 -0.053101 1
-5.615420 6.796670 -0.054191 1
-5.593062 6.806034 -0.053526 1
-5.579022 6.828765 -0.055202 1
-5.560722 6.844728 -0.055708 1
-5.539254 6.853255 -0.055049 1
-5.516745 6.862323 -0.054388 1
-5.502369 6.884873 -0.056065 1
-5.481801 6.897198 -0.055989 1
-5.465218 6.916263 -0.057083 1
-5.448545 6.935283 -0.058177 1
-5.423820 6.940580 -0.056934 1
-5.408993 6.962910 -0.058614 1
-5.388153 6.974908 -0.058541 1
-5.374182 6.996560 -0.060225 1
-5.353224 7.008436 -0.060153 1
-5.330294 7.016786 -0.059498 1
-5.313105 7.035429 -0.060596 1
-5.290104 7.043625 -0.059942 1
-5.280354 7.076051 -0.063377 1
-5.253470 7.077158 -0.061556 1
-5.232232 7.088613 -0.061488 1
-5.212813 7.103487 -0.062005 1
-5.195176 7.121799 -0.063106 1
-5.175617 7.136556 -0.063624 1
-5.150848 7.136087 -0.061813 1
-5.124711 7.140698 -0.060577 1
-5.107923 7.158205 -0.061684 1
-5.085326 7.169696 -0.061617 1
-5.061992 7.177025 -0.060971 1
-5.036883 7.180724 -0.059741 1
-5.014616 7.187339 -0.059099 1
-4.999943 7.212182 -0.061373 1
-4.973701 7.216153 -0.060143 1
-4.955402 7.233766 -0.061250 1
-4.933010 7.240087 -0.060611 1
-4.908427 7.247357 -0.059966 1
-4.890457 7.260170 -0.060498 1
-4.866392 7.271370 -0.060436 1
-4.841180 7.274278 -0.059213 2
-4.827440 7.302307 -0.062074 1
-4.807042 7.315882 -0.062603 1
-4.783957 7.317563 -0.061387 1
-4.766068 7.342834 -0.063662 1
-4.743906 7.352586 -0.063609 1
-4.730230 7.375817 -0.065895 1
-4.697468 7.364106 -0.062341 1
-4.682542 7.387710 -0.064625 1
-4.662179 7.404934 -0.065739 1
-4.641325 7.417975 -0.066272 1
-4.625680 7.437334 -0.067977 1
-4.597942 7.440191 -0.066758 1
-4.573956 7.445687 -0.066127 1
-4.550741 7.446518 -0.064919 1
-4.530343 7.467448 -0.066617 1
-4.507112 7.468121 -0.065410 1
-4.480514 7.470032 -0.064197 1
-4.456487 7.475093 -0.063570 1
-4.437816 7.490727 -0.064694 1
-4.416796 7.507166 -0.065815 1
-4.386898 7.493028 -0.062278 2
-4.365584 7.505167 -0.062819 1
-4.349646 7.532106 -0.065692 1
-4.325480 7.536681 -0.065070 1
-4.299981 7.537440 -0.063865 1
-4.279779 7.553026 -0.064991 1
-4.254274 7.553608 -0.063788 1
-4.230086 7.557832 -0.063168 1
-4.207042 7.561574 -0.062550 1
-4.186655 7.576871 -0.063680 1
-4.159916 7.573339 -0.061896 1
-4.138194 7.584731 -0.062444 1
-4.115191 7.592290 -0.062411 1
-4.094591 7.607301 -0.063542 1
-4.067854 7.599257 -0.061181 2
-4.053126 7.632991 -0.065227 1
-4.028760 7.632335 -0.064032 1
-4.002107 7.632303 -0.062835 1
-3.981248 7.642820 -0.063390 1
-3.954609 7.642598 -0.062194 1
-3.934775 7.660899 -0.063913 1
-3.907067 7.652553 -0.061556 1
-3.886022 7.666909 -0.062693 1
-3.865984 7.685005 -0.064414 1
-3.839422 7.680183 -0.062641 1
-3.821597 7.697490 -0.064366 1
-3.792731 7.693132 -0.062592 1
-3.768321 7.695663 -0.061986 1
-3.746967 7.709579 -0.063128 1
-3.720520 7.704287 -0.061359 1
-3.699082 7.718050 -0.062502 1
-3.679921 7.731145 -0.063648 1
-3.655021 7.741533 -0.064208 1
-3.631473 7.747404 -0.064189 1
-3.607905 7.753193 -0.064170 1
-3.586677 7.758333 -0.064154 1
-3.559159 7.752691 -0.062389 1
-3.539447 7.769515 -0.064120 1
-3.516687 7.778840 -0.064686 1
-3.490085 7.776774 -0.063506 2
-3.466415 7.782069 -0.063491 2
-3.423530 7.807634 -0.065794 3
-3.401760 7.816318 -0.066364 5
-3.376762 7.821551 -0.066352 5
-3.349777 7.810939 -0.064012 7
-3.327542 7.823505 -0.065166 8
-3.305237 7.835999 -0.066320 8
-3.279863 7.832877 -0.065147 8
-3.255263 7.833550 -0.064557 9
-3.232591 7.837803 -0.064550 11
-3.208000 7.838306 -0.063961 12
-3.184118 7.842616 -0.063954 9
-3.160220 7.846843 -0.063949 12
-3.137646 7.858788 -0.065108 13
-3.114890 7.862650 -0.065104 13
-3.087159 7.851213 -0.062772 14
-3.063232 7.855101 -0.062770 14
-3.041104 7.862627 -0.063350 16
-3.015935 7.858531 -0.062184 16
-2.992570 7.866084 -0.062766 17
-2.966870 7.857895 -0.061020 27
-2.944602 7.873116 -0.062767 20
-2.921146 7.880426 -0.063351 31
-2.898854 7.887493 -0.063935 22
-2.874963 7.882718 -0.062773 30
-2.848899 7.870166 -0.060448 33
-2.825186 7.885153 -0.062199 33
-2.802344 7.887980 -0.062204 28
-2.778018 7.898877 -0.063374 25
-2.754680 7.897615 -0.062798 22
-2.729277 7.888544 -0.061059 27
-2.704372 7.883314 -0.059902 33
-2.680336 7.885866 -0.059911 27
-2.657891 7.892149 -0.060501 30
-2.631799 7.898713 -0.061094 24
-2.606602 7.889191 -0.059358 26
-2.584594 7.887243 -0.058786 31
-2.561574 7.901204 -0.060545 29
-2.535942 7.899414 -0.059976 21
-2.513371 7.905227 -0.060571 29
-2.489259 7.907112 -0.060585 31
-2.463647 7.905054 -0.060018 28
-2.441290 7.914577 -0.061197 28
-2.417146 7.916211 -0.061213 26
-2.393243 7.921710 -0.061812 30
-2.368142 7.907373 -0.059501 35
-2.345670 7.916587 -0.060682 34
-2.321313 7.913935 -0.060119 34
-2.297172 7.915150 -0.060138 34
-2.272669 7.908373 -0.058994 33
-2.248218 7.901510 -0.057850 23
-2.223216 7.910425 -0.059038 22
-2.200431 7.915211 -0.059641 37
-2.176534 7.923914 -0.060829 32
-2.152578 7.932535 -0.062017 26
-2.126686 7.913409 -0.059131 36
-2.102548 7.913944 -0.059156 32
-2.079479 7.906461 -0.058016 37
-2.054321 7.918719 -0.059791 34
-2.031372 7.918990 -0.059817 48
-2.007188 7.915235 -0.059262 40
-1.983044 7.915353 -0.059291 37
-1.958902 7.903515 -0.057573 26
-1.936032 7.895555 -0.056436 20
-1.911875 7.907296 -0.058214 26
-1.886637 7.899155 -0.057082 29
-1.863865 7.890955 -0.055947 25
-1.839600 7.902444 -0.057727 29
-1.815667 7.894064 -0.056595 21
-1.791405 7.901426 -0.057794 27
-1.767752 7.884968 -0.055499 17
-1.743343 7.896117 -0.057282 35
-1.719129 7.899270 -0.057900 37
-1.695043 7.898382 -0.057937 33
-1.670794 7.901365 -0.058557 36
-1.647060 7.892403 -0.057430 33
-1.625020 7.899287 -0.058630 27
-1.600934 7.898071 -0.058669 30
-1.574224 7.900588 -0.059296 34
-1.550603 7.891294 -0.058172 26
-1.528951 7.889970 -0.058209 26
-1.505159 7.884471 -0.057668 29
-1.481125 7.882837 -0.057711 24
-1.457098 7.881119 -0.057754 17
-1.433076 7.879317 -0.057799 17
-1.408430 7.885321 -0.059009 17
-1.383853 7.875362 -0.057891 14
-1.360709 7.877352 -0.058518 14
-1.338613 7.867440 -0.057396 14
-1.313901 7.873105 -0.058610 11
-1.290675 7.862926 -0.057492 10
-1.265924 7.868418 -0.058707 12
-1.241948 7.865949 -0.058757 13
-1.216706 7.875200 -0.060556 12
-1.193146 7.868627 -0.060024 15
-1.170074 7.858041 -0.058909 8
-1.145669 7.859167 -0.059545 8
-1.122205 7.852350 -0.059015 6
-1.099273 7.841527 -0.057901 3
-1.074378 7.846326 -0.059122 2
-1.056354 7.808041 -0.053924 1
-1.031523 7.812684 -0.055146 2
-1.007743 7.809397 -0.055202 1
-0.981663 7.813691 -0.056429 1
-0.959069 7.810405 -0.056483 1
-0.934709 7.810779 -0.057125 1
-0.910936 7.807154 -0.057184 2
-0.887792 7.799537 -0.056659 1
-0.865317 7.787935 -0.055552 1
