# .PCD v.7 - Point Cloud Data file format
VERSION .7
FIELDS x y z intensity
SIZE 4 4 4 1
TYPE F F F U
COUNT 1 1 1 1
WIDTH 1543
HEIGHT 1
VIEWPOINT 0 0 0 1 0 0 0
POINTS 1543
DATA ascii
-4.187681 10.458375 0.814081 31
-4.157329 10.477782 0.813924 37
-4.130306 10.504513 0.813645 27
-4.070699 10.386783 0.815584 34
-4.011140 10.273026 0.817463 27
-3.990619 10.334846 0.816643 25
-3.957157 10.337964 0.816720 27
-3.959024 10.517450 0.814101 31
-3.933890 10.555363 0.813636 27
-3.886120 10.499813 0.814611 39
-3.853798 10.502224 0.814685 34
-3.816874 10.480975 0.815117 26
-3.777704 10.455976 0.815608 33
-3.749099 10.485845 0.815260 44
-3.721034 10.519562 0.814851 35
-3.694895 10.565005 0.814261 45
-3.659795 10.571299 0.814270 50
-3.624290 10.565351 0.814457 33
-3.591189 10.562932 0.814583 41
-3.551496 10.541229 0.815007 48
-3.525618 10.581979 0.814473 35
-3.488979 10.567637 0.814775 37
-3.462154 10.604267 0.814299 27
-3.427987 10.605497 0.814360 26
-3.378012 10.511914 0.815858 30
-3.347072 10.532637 0.815618 23
-3.290127 10.358991 0.818311 26
-3.288676 10.589397 0.814895 22
-3.256692 10.617985 0.814532 17
-3.223201 10.610334 0.814708 17
-3.134371 10.182248 0.821231 21
-3.099937 10.154339 0.821704 32
-3.088578 10.329000 0.819122 23
-3.067840 10.448273 0.817376 36
-3.034823 10.452082 0.817367 28
-3.002568 10.447642 0.817477 30
-2.966159 10.419407 0.817946 51
-2.941042 10.498451 0.816795 23
-2.919749 10.621212 0.814985 28
-2.886512 10.628485 0.814911 34
-2.853973 10.643606 0.814716 34
-2.819566 10.638700 0.814820 35
-2.776679 10.534046 0.816421 38
-2.743063 10.512785 0.816764 40
-2.716518 10.579123 0.815787 52
-2.682273 10.593796 0.815586 46
-2.651354 10.656219 0.814665 48
-2.618156 10.666553 0.814523 45
-2.583746 10.632760 0.815041 46
-2.551526 10.630783 0.815079 44
-2.518337 10.640774 0.814934 45
-2.486171 10.670619 0.814488 22
-2.295770 7.592723 0.860753 2
-2.234953 7.259266 0.865760 0
-2.165830 7.157870 0.867263 0
-2.143586 7.134564 0.867603 0
-2.121823 7.123172 0.867762 1
-2.100050 7.107705 0.867981 1
-2.078155 7.080165 0.868379 2
-2.056963 7.084539 0.868296 2
-2.036554 7.068830 0.868515 7
-2.015301 7.065060 0.868551 14
-1.994053 7.057217 0.868647 8
-1.930799 7.001246 0.869413 28
-1.909886 6.993109 0.869507 33
-1.888982 6.988898 0.869540 36
-1.867984 6.992612 0.869452 47
-1.847035 6.992254 0.869423 49
-1.826266 6.983826 0.869515 62
-1.805451 6.979323 0.869545 72
-1.784783 6.970752 0.869636 69
-1.763779 6.974101 0.869545 105
-1.743040 6.969382 0.869574 107
-1.723850 6.952643 0.869785 108
-1.703385 6.943791 0.869874 108
-1.682421 6.946854 0.869780 108
-1.661633 6.945848 0.869747 108
-1.640420 6.952758 0.869591 108
-1.620068 6.943619 0.869677 108
-1.597767 6.950317 0.869519 108
-1.578007 6.949083 0.869485 108
-1.558291 6.931751 0.869691 108
-1.535854 6.954249 0.869290 112
-1.514148 6.964697 0.869070 113
-1.494233 6.951142 0.869213 112
-1.474081 6.941507 0.869296 111
-1.455010 6.919849 0.869560 108
-1.434999 6.922125 0.869461 108
-1.414299 6.920257 0.869421 108
-1.393224 6.922297 0.869318 108
-1.371735 6.928242 0.869155 108
-1.350197 6.934109 0.868991 108
-1.328611 6.939898 0.868826 108
-1.306812 6.937544 0.868780 108
-1.286196 6.943293 0.868615 108
-1.264959 6.944877 0.868509 108
-1.242270 6.958298 0.868220 79
-1.221936 6.951787 0.868234 108
-1.199618 6.961077 0.868004 87
-1.179824 6.958522 0.867959 71
-1.157934 6.963690 0.867789 70
-1.136544 6.964816 0.867679 70
-1.113457 6.977745 0.867384 65
-1.094181 6.970946 0.867398 63
-1.071682 6.971689 0.867284 61
-1.050210 6.972505 0.867171 63
-1.028720 6.973245 0.867058 62
-1.005957 6.981806 0.866821 58
-0.985051 6.978439 0.866768 62
-0.962844 6.982890 0.866591 56
-0.940594 6.987258 0.866414 50
-0.918665 6.995667 0.866177 50
-0.897014 6.995934 0.866059 47
-0.875012 6.991997 0.866000 46
-0.852621 6.996039 0.865820 42
-0.832405 6.988206 0.865824 38
-0.808467 6.999946 0.865519 34
-0.787781 7.000019 0.865401 29
-0.765765 6.995682 0.865339 29
-0.744273 6.999529 0.865158 27
-0.722500 6.999166 0.865035 28
-0.698024 7.006332 0.864785 24
-0.675365 7.009713 0.864599 23
-0.653515 7.009100 0.864474 23
-0.630982 7.016452 0.864228 21
-0.612582 7.000068 0.864350 25
-0.590726 6.999227 0.864223 28
-0.569007 7.002447 0.864037 28
-0.547899 6.993414 0.864030 28
-0.524167 7.000118 0.863777 28
-0.502257 6.998956 0.863648 26
-0.481386 6.997972 0.863521 25
-0.457439 7.000273 0.863325 23
-0.436472 6.994991 0.863256 21
-0.413581 7.001526 0.863002 18
-0.390590 7.003831 0.862807 15
-0.366541 7.009915 0.862548 16
-0.345554 7.008461 0.862417 15
-0.322459 7.006361 0.862279 14
-0.300408 7.004464 0.862143 15
-0.275118 7.014041 0.861819 14
-0.254104 7.008123 0.861745 16
-0.229798 7.013663 0.861481 13
-0.207668 7.011427 0.861343 12
-0.185533 7.009109 0.861204 11
-0.158815 7.022040 0.860812 10
-0.136511 7.023691 0.860612 11
-0.113124 7.024938 0.860408 12
-0.092073 7.018454 0.860329 10
-0.069702 7.019859 0.860127 11
-0.043987 7.024326 0.859853 9
-0.022768 7.021747 0.859713 9
0.001981 7.026359 0.859441 7
0.025338 7.022926 0.859291 8
0.048908 7.023548 0.859082 8
0.073783 7.027870 0.858807 7
0.098948 7.036236 0.858473 7
0.121340 7.032794 0.858324 7
0.139785 7.017937 0.858366 7
0.166126 7.025660 0.858025 6
0.189861 7.025737 0.857811 6
0.212269 7.021958 0.857659 5
0.237412 7.025613 0.857379 5
0.257411 7.018293 0.857295 5
0.284012 7.025511 0.856949 5
0.310337 7.028476 0.856662 4
0.336025 7.035870 0.856319 4
0.361410 7.039021 0.856035 4
0.382507 7.030880 0.855942 6
0.405035 7.026390 0.855785 7
0.431976 7.032973 0.855434 7
0.456021 7.032013 0.855210 6
0.484583 7.042085 0.854793 6
0.506145 7.037648 0.854637 6
0.532862 7.039662 0.854342 5
0.555497 7.034616 0.854180 5
0.582775 7.040547 0.853823 4
0.610126 7.046360 0.853465 4
0.630192 7.037804 0.853370 4
0.658689 7.042953 0.853005 3
0.683544 7.045231 0.852715 3
0.704661 7.035967 0.852613 2
0.736557 7.048083 0.852115 2
0.754405 7.031337 0.852142 1
0.764513 7.000446 0.852434 0
0.815424 7.056363 0.851156 0
0.853344 7.082949 0.850397 0
0.877084 7.023347 0.850903 2
0.904981 7.027860 0.850533 2
0.931217 7.028645 0.850229 2
0.959233 7.032921 0.849857 2
0.989067 7.040669 0.849419 2
1.013695 7.037517 0.849177 2
1.036560 7.030682 0.849000 2
1.062993 7.030915 0.848690 2
1.088410 7.031569 0.848386 2
1.113105 7.028020 0.848140 2
1.138585 7.028471 0.847834 2
1.164370 7.024177 0.847581 2
1.192816 7.027414 0.847200 2
1.221322 7.030527 0.846819 2
1.248833 7.034074 0.846442 2
1.273683 7.029888 0.846191 2
1.305298 7.035590 0.845734 2
1.332115 7.034692 0.845415 2
1.362817 7.040691 0.844961 1
1.384797 7.033139 0.844779 1
1.415612 7.038888 0.844324 1
1.446507 7.044497 0.843867 1
1.475510 7.046484 0.843475 1
1.502582 7.044870 0.843150 1
1.535677 7.053535 0.842622 0
1.564856 7.055128 0.842227 0
1.598132 7.063492 0.841697 0
1.628414 7.068880 0.841239 0
1.695672 7.131293 0.839621 0
1.796161 7.154801 0.838016 52
4.057521 10.712862 0.766360 5
4.118933 10.735911 0.765265 18
4.167808 10.738335 0.764574 18
4.229245 10.685205 0.764342 26
4.208948 10.579453 0.765825 41
4.301605 10.652920 0.763709 37
4.389465 10.710265 0.761839 28
4.473924 10.764878 0.760044 24
4.521767 10.766823 0.759350 24
4.566956 10.760766 0.758780 22
4.617175 10.765614 0.758014 24
4.664716 10.762459 0.757371 22
4.673968 10.702946 0.757895 30
4.676668 10.638057 0.758569 36
4.794589 10.736457 0.755790 18
4.837129 10.721471 0.755335 18
4.805982 10.601652 0.757089 28
4.943594 10.724780 0.753744 20
5.008371 10.747398 0.752547 23
5.061067 10.748987 0.751751 31
5.131994 10.771756 0.750456 17
5.147878 10.725574 0.750709 19
5.146951 10.656838 0.751449 23
5.354400 10.866592 0.746123 19
5.276427 10.690334 0.749146 21
5.360690 10.732159 0.747432 10
5.404300 10.719300 0.746901 10
5.513380 10.792129 0.744480 6
5.920240 11.251292 0.733513 11
5.745868 10.880541 0.739990 18
5.691454 10.740315 0.742256 14
5.960300 11.007104 0.735369 24
5.933686 10.905689 0.736803 45
6.006537 10.929389 0.735419 29
6.068810 10.935751 0.734372 33
5.926861 10.690445 0.739047 29
5.818773 10.489573 0.742742 23
6.055445 10.709199 0.736810 27
6.073115 10.658223 0.737022 22
6.192370 10.735830 0.734349 15
6.179951 10.652258 0.735353 29
6.203271 10.611587 0.735364 45
6.288761 10.643845 0.733663 27
6.386700 10.686292 0.731658 47
6.518330 10.773410 0.728675 40
6.873248 11.111367 0.719661 20
6.865384 11.027864 0.720568 20
6.744874 10.824845 0.724447 21
6.823992 10.775739 0.723575 28
6.837617 10.725785 0.723800 26
6.919991 10.748260 0.722209 25
6.978310 10.743740 0.721263 7
7.153334 10.865313 0.717208 20
7.100620 10.739694 0.719219 22
7.664743 11.274502 0.704865 22
7.697833 11.237932 0.704617 16
7.447218 10.902461 0.711849 15
7.484517 10.872455 0.711464 7
7.901655 11.237093 0.701104 16
7.512043 10.695733 0.712494 20
7.691625 10.810937 0.708380 28
7.923833 10.980739 0.702883 22
8.072608 11.064093 0.699569 22
8.141687 11.062899 0.698358 24
7.983534 10.836223 0.703020 22
8.034945 10.818278 0.702252 27
8.501252 11.205239 0.690805 5
8.243982 10.884683 0.697981 8
8.255404 10.826811 0.698237 8
8.318011 10.749747 0.697714 33
8.439299 10.796124 0.695155 8
8.625258 10.901909 0.690957 20
9.084458 11.259787 0.679838 12
9.061464 11.166909 0.680966 15
8.819826 10.874308 0.687608 17
8.941236 10.919298 0.685037 8
9.966480 11.777213 0.659741 20
10.023782 11.749459 0.658885 13
9.143084 10.892443 0.681499 9
9.335057 10.922972 0.677700 6
9.420863 10.928204 0.676056 21
9.908710 11.281419 0.664399 29
9.886969 11.190347 0.665447 32
9.849538 11.086558 0.666874 21
9.950489 11.097548 0.664887 52
9.996163 11.068307 0.664219 29
10.046595 11.039346 0.663454 9
10.038530 10.961587 0.664129 22
10.128778 10.965462 0.662376 6
10.943084 11.561929 0.642824 7
10.492829 11.120586 0.654363 13
10.475216 11.034335 0.655259 6
10.532031 11.008382 0.654325 10
10.760889 11.119169 0.649185 10
10.821257 11.094546 0.648165 10
10.886566 11.004855 0.647442 20
11.158634 11.143538 0.641269 10
11.232039 11.126925 0.639926 21
11.299130 11.105071 0.638734 17
11.480999 11.169796 0.634762 10
11.494065 11.105992 0.634874 14
11.606201 11.116382 0.632589 14
11.467943 10.940389 0.636339 17
11.873055 11.165985 0.626994 18
11.963387 11.157733 0.625234 11
12.062077 11.151220 0.623292 11
12.222283 11.195767 0.619832 22
12.319642 11.190368 0.617901 11
12.420397 11.186726 0.615887 11
12.518028 11.180202 0.613946 11
12.725465 11.253556 0.609362 11
12.846625 11.261499 0.606860 12
12.964726 11.266454 0.604430 12
13.086343 11.272964 0.601915 12
13.218114 11.285484 0.599158 12
13.330250 11.283809 0.596867 12
13.455858 11.290362 0.594255 12
13.575032 11.291743 0.591794 12
13.223368 10.982422 0.600481 20
9.916513 8.746857 0.679052 5
9.882449 8.548906 0.680634 71
9.877038 8.490330 0.680997 74
9.862511 8.423421 0.681583 65
9.855733 8.358877 0.681992 70
9.854169 8.300752 0.682262 76
9.847670 8.242697 0.682631 76
9.849000 8.186868 0.682823 76
9.846663 8.129049 0.683096 76
9.844068 8.071334 0.683370 70
9.841212 8.013724 0.683645 70
9.850657 7.966416 0.683618 76
9.857677 7.915038 0.683653 86
9.855308 7.855603 0.683913 94
9.851474 7.798341 0.684192 94
9.864743 7.751115 0.684068 91
9.874349 7.701906 0.684025 97
9.879107 7.652819 0.684082 87
9.892962 7.603536 0.683940 87
9.898471 7.552439 0.683979 87
9.909643 7.507305 0.683874 92
9.918262 7.458183 0.683833 97
9.919647 7.405279 0.683956 87
9.906705 7.344893 0.684407 77
9.928806 7.303432 0.684039 82
9.947225 7.260031 0.683754 82
9.976120 7.222131 0.683222 80
10.032225 7.200907 0.682048 60
10.094035 7.177000 0.680753 52
10.161884 7.158464 0.679309 49
10.233321 7.141331 0.677778 47
10.318021 7.133072 0.675932 44
10.390606 7.112899 0.674375 42
10.480089 7.103262 0.672418 42
10.564995 7.093509 0.670560 39
10.658237 7.084538 0.668511 30
11.206299 7.236277 0.656058 2
11.208837 7.184071 0.656092 5
11.289113 7.106441 0.654427 20
11.447497 7.125710 0.650855 17
11.601016 7.135957 0.647402 18
11.742769 7.142640 0.644212 21
11.883657 7.150824 0.641037 18
12.030560 7.154871 0.637726 21
12.172935 7.158791 0.634514 21
12.325441 7.169045 0.631062 18
12.490276 7.180560 0.627325 19
12.618548 7.175378 0.624428 16
12.790121 7.190540 0.620527 16
12.949351 7.193277 0.616912 16
13.117723 7.204761 0.613078 20
13.265203 7.203468 0.609724 24
13.391691 7.189553 0.606849 10
13.857392 7.252747 0.596190 3
27.364038 12.364427 0.285596 27
19.947853 9.399928 0.456171 20
19.908674 9.210196 0.457082 222
19.873499 9.110112 0.457886 228
19.897942 9.032469 0.457312 195
19.860361 8.760209 0.458102 6
19.902424 8.689308 0.457097 6
19.914045 8.607687 0.456786 13
19.917801 8.523475 0.456648 13
19.917448 8.438040 0.456600 13
19.934433 8.362898 0.456148 13
19.933460 8.277587 0.456101 13
19.966347 8.203620 0.455268 13
20.016550 7.970194 0.453850 222
20.048399 7.895834 0.453015 222
20.085005 7.818674 0.452058 195
21.156343 7.798319 0.426853 7
36.127563 9.385827 0.074766 27
35.958904 8.933231 0.077308 26
36.000679 8.810673 0.075879 26
35.891876 8.643748 0.077900 26
35.905254 8.515847 0.077113 26
35.789970 8.356057 0.079293 26
35.842922 8.229506 0.077539 26
36.060513 8.133689 0.071928 26
36.040710 7.999591 0.071875 26
24.885355 2.435190 0.313442 8
24.914724 2.248677 0.311411 8
25.054050 1.311335 0.300946 9
19.013161 -1.763185 0.419526 15
19.003407 -1.836378 0.418937 15
18.989437 -1.908989 0.418452 15
-27.385803 1.025660 0.399709 8
-27.389538 1.114426 0.400348 8
-27.396963 1.203253 0.400900 8
-27.318913 1.379652 0.404020 16
-27.317415 1.468163 0.404744 16
-27.395567 1.558456 0.403719 8
-27.673285 1.654465 0.398332 8
-29.965292 1.811518 0.349007 9
-30.345974 1.921860 0.341443 9
-40.725018 2.404828 0.116327 26
-40.748104 2.534476 0.116768 26
-40.786449 2.671758 0.116917 27
-40.904518 2.806269 0.115280 27
-41.125629 2.953606 0.111455 27
-41.090607 3.088799 0.113172 27
-41.083065 3.225370 0.114283 27
-41.282619 3.374500 0.110912 28
-41.313992 3.514298 0.111166 28
-41.488503 3.664062 0.108327 28
-41.614578 3.811668 0.106528 28
-41.620464 3.951254 0.107308 28
-41.633831 4.091538 0.107917 28
-41.555027 4.224464 0.110493 28
-41.830418 4.387093 0.105464 29
-41.818340 4.526237 0.106590 29
-41.829670 4.667543 0.107205 29
-41.892918 4.806957 0.106658 29
-41.955681 4.946831 0.106114 29
-41.993366 5.091708 0.106139 29
-42.149090 5.256555 0.103680 29
-42.134747 5.389796 0.104755 29
-42.317062 5.559502 0.101718 30
-42.527302 5.726774 0.098042 30
-42.447018 5.860701 0.100532 30
-42.629112 6.019467 0.097404 30
-42.690674 6.171483 0.096865 30
-42.989594 6.355101 0.091292 31
-42.910229 6.497441 0.093759 31
-43.346359 6.703233 0.085278 31
-43.266796 6.839244 0.087692 31
-43.377804 6.995118 0.086036 31
-43.479240 7.157865 0.084610 32
-43.698658 7.339436 0.080691 32
-43.846180 7.511539 0.078282 32
-44.227196 7.714485 0.070921 33
-44.028618 7.841064 0.075811 33
-43.976860 7.983264 0.077565 33
-44.209736 8.166079 0.073301 33
-44.935757 8.451538 0.058756 34
-45.003983 8.618245 0.057974 34
-44.584930 8.689843 0.067355 34
-45.187092 8.954518 0.055373 35
-44.824970 9.042591 0.063562 34
-44.627731 9.159821 0.068284 34
-41.462780 8.696839 0.134971 29
-41.439583 8.835454 0.135987 29
-45.286194 9.749293 0.056244 35
-45.116734 9.879784 0.060364 35
-32.248352 7.333811 0.328980 12
-31.991360 7.389483 0.334706 12
-31.819208 7.467288 0.338670 12
-31.710518 7.552518 0.341283 11
-31.665195 7.645886 0.342552 11
-31.645699 7.750418 0.343293 11
-28.381348 7.099238 0.411385 9
-27.023266 6.969831 0.440117 24
-26.586374 6.956516 0.449431 24
-26.398426 7.001361 0.453571 15
-25.725456 6.923868 0.467746 7
-24.934551 6.982633 0.484757 19
-24.898043 7.058696 0.485708 20
-24.861282 7.134578 0.486658 20
-24.835850 7.213426 0.487367 20
-24.817856 7.294299 0.487915 20
-24.803429 7.376198 0.488383 20
-24.792555 7.459163 0.488771 19
-24.770990 7.534839 0.489366 19
-24.756857 7.612673 0.489801 19
-24.747789 7.700697 0.490140 20
-24.733089 7.778508 0.490574 21
-24.719555 7.865395 0.490991 91
-24.703081 7.947134 0.491455 63
-24.693953 8.031207 0.491762 98
-24.688330 8.116499 0.491989 91
-24.690012 8.204256 0.492060 91
-24.700247 8.290589 0.491943 100
-24.692368 8.380065 0.492202 20
-24.690546 8.462897 0.492321 19
-24.692219 8.547060 0.492362 20
-24.683334 8.636700 0.492621 20
-24.693027 8.732822 0.492491 22
-24.696125 8.822545 0.492486 17
-19.481926 7.159988 0.599778 8
-19.290752 7.160744 0.603738 8
-19.185253 7.194403 0.605932 4
-18.953062 7.177859 0.610724 4
-18.752300 7.167892 0.614864 3
-18.636932 7.191619 0.617244 3
-18.442987 7.185069 0.621234 3
-18.235418 7.168720 0.625499 3
-18.031876 7.152496 0.629677 3
-17.863764 7.154984 0.633121 3
-17.629900 7.127323 0.637912 3
-17.390051 7.092471 0.642824 3
-17.248756 7.101478 0.645703 3
-17.030796 7.075443 0.650155 3
-16.989887 7.123081 0.650961 3
-16.512098 7.043972 0.660709 6
-16.420832 7.065297 0.662540 6
-16.307503 7.076687 0.664822 3
-16.088718 7.039228 0.669272 3
-16.027145 7.071051 0.670481 3
-15.952504 7.152149 0.671893 6
-15.911564 7.195263 0.672662 9
-15.887270 7.239854 0.673091 9
-15.864279 7.290854 0.673481 9
-15.842209 7.339348 0.673852 6
-15.809076 7.382736 0.674447 3
-15.783061 7.429348 0.674890 3
-15.721824 7.456440 0.676062 9
-15.719654 7.573064 0.675899 40
-15.703804 7.624528 0.676116 18
-15.691357 7.677713 0.676257 12
-15.693063 7.737947 0.676102 9
-15.680183 7.791169 0.676244 6
-15.679027 7.847356 0.676145 6
-15.666934 7.898209 0.676268 6
-15.666485 7.961089 0.676132 6
-15.659869 8.018016 0.676126 6
-15.661363 8.076265 0.675954 3
-15.674309 8.146786 0.675525 3
-15.681105 8.211375 0.675225 3
-15.681821 8.269954 0.675056 3
-15.762125 8.374405 0.673219 3
-15.780729 8.449634 0.672649 3
-15.794569 8.516445 0.672190 3
-15.857211 8.610350 0.670711 3
-15.878193 8.688332 0.670073 3
-15.994454 8.816730 0.667453 3
-18.350588 10.281282 0.617858 12
-18.217369 10.280889 0.620391 12
-18.079042 10.272874 0.623041 12
-17.941172 10.271629 0.625654 12
-17.803526 10.269501 0.628260 12
-14.994894 7.826355 0.775098 1
-14.942673 7.856852 0.775842 1
-14.960979 7.924714 0.775584 1
-14.967319 7.980669 0.775492 1
-15.000155 8.062978 0.775021 1
-15.025767 8.133040 0.774649 1
-15.025280 8.192119 0.774645 1
-15.029302 8.250942 0.774574 1
-15.075880 8.339853 0.773894 1
-15.088457 8.407230 0.773694 1
-15.062492 8.453010 0.774038 1
-15.274508 8.694260 0.770970 26
-15.182484 8.764719 0.772204 1
-15.806585 10.345416 0.761987 1
-15.646932 10.373855 0.764050 21
-15.650299 10.446577 0.763883 8
-15.109087 10.208978 0.771395 1
-14.962489 10.174054 0.773373 1
-14.884734 10.186917 0.774361 1
-14.061453 9.728977 0.785935 3
-14.596905 10.182928 0.778096 4
-14.480864 10.165511 0.779626 4
-14.371535 10.152148 0.781058 6
-9.876669 7.045926 0.845379 1
-9.812184 7.037975 0.846212 2
-9.746786 7.031022 0.847053 2
-9.681533 7.023686 0.847890 2
-9.622711 7.020916 0.848633 2
-9.571301 7.027921 0.849256 2
-9.511664 7.019359 0.850021 2
-9.404123 7.019065 0.851353 12
-9.357188 7.026078 0.851912 3
-9.285121 7.050788 0.852724 7
-9.189127 7.016129 0.853998 2
-9.145649 7.018243 0.854521 2
-9.097070 7.020056 0.855105 2
-9.041421 7.017655 0.855785 2
-8.981914 7.007269 0.856535 2
-8.932568 7.009440 0.857121 2
-8.884351 7.010122 0.857696 2
-8.839224 7.013176 0.858224 2
-8.800160 7.021280 0.858662 2
-8.741240 7.009410 0.859400 2
-8.693352 7.009052 0.859967 2
-8.642577 7.005758 0.860576 2
-8.597835 7.007555 0.861094 2
-8.562023 7.017204 0.861479 2
-8.515498 7.014704 0.862030 2
-8.459206 7.004948 0.862719 2
-8.413715 7.006907 0.863238 2
-8.384981 7.020062 0.863520 8
-8.331921 7.012231 0.864159 1
-8.213837 7.025847 0.865453 5
-8.184129 7.039276 0.865736 2
-8.114383 7.013404 0.866625 2
-8.067685 7.009580 0.867165 3
-8.021089 7.005504 0.867703 3
-7.988741 7.015314 0.868023 4
-7.950044 7.014368 0.868457 4
-7.906499 7.012470 0.868947 4
-7.860241 7.007486 0.869478 4
-7.819672 7.007984 0.869921 3
-7.784731 7.014023 0.870277 3
-7.744279 7.014122 0.870717 3
-7.706658 7.016906 0.871113 3
-7.663589 7.013693 0.871592 4
-7.623351 7.013167 0.872027 4
-7.583187 7.012433 0.872461 4
-7.548537 7.017359 0.872808 4
-7.511211 7.019174 0.873196 4
-7.472294 7.016888 0.873619 3
-7.435091 7.018327 0.874004 3
-7.403303 7.025519 0.874303 3
-7.368863 7.029584 0.874644 4
-7.329145 7.027505 0.875067 3
-7.281565 7.016228 0.875614 3
-7.244678 7.016722 0.875992 3
-7.215732 7.026082 0.876243 3
-7.176322 7.023210 0.876660 2
-7.142206 7.026206 0.876992 3
-7.108133 7.029039 0.877322 3
-7.073049 7.032599 0.877658 3
-7.041173 7.033324 0.877974 3
-7.007233 7.035671 0.878301 3
-6.968234 7.031696 0.878709 3
-6.936950 7.036787 0.878992 3
-6.900629 7.035540 0.879356 3
-6.871938 7.043430 0.879595 3
-6.840743 7.048079 0.879875 2
-6.812074 7.055708 0.880112 2
-6.778437 7.056947 0.880430 3
-6.747326 7.061165 0.880706 3
-6.723642 7.074688 0.880857 3
-6.695013 7.081805 0.881090 3
-6.666391 7.088795 0.881322 3
-6.630482 7.086135 0.881675 3
-6.602977 7.092040 0.881899 3
-6.579241 7.105017 0.882047 3
-6.544805 7.105903 0.882361 4
-6.523431 7.121869 0.882466 3
-6.495943 7.127317 0.882686 3
-6.462665 7.126988 0.882992 7
-6.450637 7.155600 0.882933 14
-6.426747 7.167995 0.883075 3
-6.414487 7.196547 0.883015 6
-6.392797 7.212057 0.883116 2
-6.384911 7.247086 0.882975 1
-6.374536 7.278862 0.882874 1
-6.373139 7.323768 0.882612 1
-6.376033 7.375319 0.882271 2
-6.363894 7.403117 0.882204 2
-6.344859 7.420989 0.882258 1
-6.339191 7.463520 0.882041 1
-6.325489 7.492049 0.881980 1
-6.321655 7.533114 0.881753 1
-6.310885 7.569073 0.881616 1
-6.303259 7.607627 0.881434 1
-6.307496 7.662207 0.881050 0
-6.291700 7.691532 0.880992 0
-6.292235 7.738766 0.880682 0
-6.281328 7.778970 0.880509 0
-6.285627 7.833083 0.880121 0
-6.279643 7.879389 0.879865 0
-6.288479 7.944612 0.879364 0
-6.287298 7.997113 0.879025 1
-6.293781 8.068255 0.878500 1
-6.306849 8.139936 0.877917 1
-6.313662 8.210625 0.877388 2
-6.366461 8.356214 0.875994 1
-6.401965 8.474739 0.874915 1
-7.345630 10.281482 0.855355 40
-7.326758 10.320092 0.855230 26
-7.288567 10.332749 0.855426 22
-7.238201 10.319960 0.855888 24
-7.218985 10.358337 0.855761 18
-7.174891 10.360074 0.856070 18
-7.132491 10.360710 0.856373 18
-7.093992 10.368182 0.856596 20
-7.049505 10.360551 0.856968 19
-7.009181 10.364172 0.857228 20
-6.965126 10.360571 0.857563 20
-6.926538 10.362979 0.857815 21
-6.884716 10.366953 0.858076 21
-6.842721 10.366347 0.858369 20
-6.802626 10.369117 0.858622 22
-6.766216 10.378842 0.858797 22
-6.729626 10.384028 0.859004 23
-6.686179 10.383580 0.859296 23
-6.644291 10.377726 0.859616 24
-6.604404 10.379678 0.859862 22
-6.566321 10.385057 0.860069 22
-6.526509 10.386689 0.860313 20
-6.486646 10.383762 0.860590 20
-6.446937 10.385068 0.860831 19
-6.402066 10.370975 0.861219 21
-6.366018 10.387960 0.861315 19
-6.309545 10.348111 0.861966 20
-6.276818 10.358850 0.862084 23
-6.126219 10.119888 0.864826 23
-6.071259 10.083350 0.865437 40
-6.132695 10.305715 0.863357 29
-6.098537 10.312188 0.863508 42
-6.004793 10.191811 0.864989 38
-5.974249 10.209540 0.865027 39
-5.976973 10.295550 0.864340 36
-5.960070 10.355045 0.863969 24
-5.921276 10.345466 0.864262 23
-5.857511 10.294200 0.865020 30
-5.800657 10.239904 0.865762 33
-5.753050 10.220621 0.866174 47
-5.758493 10.326427 0.865303 43
-5.748300 10.395282 0.864809 36
-5.705237 10.378071 0.865173 28
-5.679617 10.414057 0.865018 31
-5.611771 10.337567 0.865984 36
-5.589221 10.376371 0.865786 34
-5.576887 10.432549 0.865394 31
-5.543675 10.449481 0.865422 30
-5.505267 10.442587 0.865668 27
-5.466429 10.444266 0.865843 28
-5.432033 10.452692 0.865940 26
-5.397907 10.456634 0.866071 24
-5.359437 10.453519 0.866277 23
-5.321030 10.450251 0.866483 22
-5.285338 10.454376 0.866613 20
-5.248007 10.458943 0.866744 21
-5.212341 10.462796 0.866872 18
-5.177054 10.462166 0.867033 18
-5.141809 10.461407 0.867193 17
-5.076840 10.381894 0.868137 25
-5.067727 10.464928 0.867481 18
-5.016550 10.414305 0.868120 25
-4.997065 10.466815 0.867759 21
-4.956726 10.454479 0.868027 25
-4.927257 10.476334 0.867961 22
-4.890586 10.475167 0.868116 25
-4.848124 10.454733 0.868455 31
-4.800069 10.414969 0.868978 28
-4.772860 10.443995 0.868834 31
-4.744355 10.469105 0.868725 30
-4.705684 10.459558 0.868949 40
-4.682520 10.503693 0.868654 30
-4.646038 10.501590 0.868802 27
-4.613410 10.506591 0.868873 27
-4.578657 10.503768 0.869017 27
-4.545435 10.512850 0.869051 27
-4.509079 10.510225 0.869194 27
-4.472772 10.507463 0.869337 40
-4.428814 10.481769 0.869700 30
-4.346633 10.292311 0.871606 33
-4.337022 10.397944 0.870716 25
-4.321972 10.463580 0.870189 19
-4.253592 10.328045 0.871576 24
-4.217224 10.320442 0.871749 30
-4.174448 10.285463 0.872177 28
-4.169391 10.409961 0.871098 23
-4.167991 10.554021 0.869835 15
-4.143552 10.608856 0.869417 16
-4.102991 10.585190 0.869732 21
-4.028220 10.396916 0.871587 27
-3.991198 10.392704 0.871716 41
-3.954188 10.372001 0.871990 29
-3.981958 10.668636 0.869291 19
-3.932951 10.593010 0.870077 19
-3.878849 10.497897 0.871046 17
-3.875068 10.661812 0.869593 13
-3.766437 10.450677 0.871708 32
-3.748135 10.535554 0.870986 22
-3.738412 10.679737 0.869713 15
-3.775047 11.067420 0.866166 15
-3.652956 10.581326 0.870756 18
-3.611593 10.531710 0.871276 14
-3.579617 10.545303 0.871209 17
-3.550474 10.586689 0.870884 4
-3.458784 10.431376 0.872430 6
-3.384444 10.612734 0.870895 8
-3.330261 10.475132 0.872213 5
-3.291567 10.440249 0.872578 5
-3.237236 10.536533 0.871766 10
-3.166323 10.227173 0.874656 34
-3.140125 10.278942 0.874211 15
-3.115697 10.374711 0.873361 15
-3.084360 10.390602 0.873244 14
-3.124404 11.022228 0.867444 11
-2.976081 10.591983 0.871482 15
-2.921396 10.388559 0.873377 6
-2.848561 10.319386 0.874047 42
-2.819647 10.362262 0.873665 28
-2.790204 10.421131 0.873135 31
-2.758928 10.423832 0.873119 23
-2.749620 10.717593 0.870421 30
-2.716902 10.736241 0.870255 39
-2.687909 10.806635 0.869610 14
-2.632763 11.011019 0.867729 27
-2.599307 11.037256 0.867484 13
-2.568878 11.087232 0.867019 35
-2.525240 10.941539 0.868354 13
-2.276713 7.349849 0.901417 0
-2.228376 7.259993 0.902227 1
-2.204763 7.216927 0.902613 3
-2.159222 7.154520 0.903162 0
-2.137129 7.135187 0.903326 1
-2.114768 7.099780 0.903636 2
-2.093617 7.108281 0.903540 2
-2.072482 7.120707 0.903407 3
-2.050549 7.085068 0.903716 6
-2.029275 7.085346 0.903693 9
-2.008967 7.073543 0.903780 18
-1.987679 7.061677 0.903867 29
-1.945363 7.033723 0.904074 9
-1.924505 6.993638 0.904418 18
-1.903288 7.021475 0.904132 35
-1.881237 7.017227 0.904140 38
-1.861318 7.012933 0.904150 40
-1.840376 7.008552 0.904158 48
-1.819651 6.996102 0.904240 66
-1.798689 6.995575 0.904210 104
-1.777972 6.986979 0.904254 104
-1.756771 6.994302 0.904149 107
-1.735816 6.993556 0.904117 68
-1.716560 6.976793 0.904235 50
-1.695314 6.983899 0.904128 106
-1.674395 6.982938 0.904094 109
-1.653684 6.977910 0.904098 50
-1.632132 6.988785 0.903951 109
-1.611428 6.983611 0.903953 109
-1.589219 6.986285 0.903878 109
-1.569079 6.989014 0.903806 109
-1.548143 6.987613 0.903769 109
-1.527500 6.982149 0.903769 107
-1.507796 6.964649 0.903881 103
-1.486314 6.971008 0.903767 103
-1.466156 6.973391 0.903692 104
-1.445276 6.971630 0.903652 103
-1.424044 6.973781 0.903574 103
-1.403533 6.967891 0.903570 103
-1.383331 6.969994 0.903493 102
-1.360623 6.975800 0.903373 101
-1.339735 6.973670 0.903330 75
-1.318427 6.975446 0.903249 101
-1.297981 6.969194 0.903243 74
-1.275754 6.978769 0.903085 54
-1.254388 6.980316 0.903001 74
-1.232521 6.985758 0.902880 68
-1.212149 6.987281 0.902797 67
-1.191222 6.984634 0.902750 74
-1.168211 6.989707 0.902624 70
-1.147276 6.986907 0.902575 70
-1.124697 6.995918 0.902412 67
-1.103740 6.992965 0.902363 68
-1.083840 6.990093 0.902315 63
-1.060672 6.994752 0.902185 61
-1.041209 6.995851 0.902100 57
-1.016918 7.000182 0.901967 57
-0.995313 7.000803 0.901875 57
-0.973692 7.001345 0.901784 56
-0.951394 7.005755 0.901653 49
-0.929807 7.018327 0.901451 51
-0.908410 7.010571 0.901431 44
-0.887403 7.006863 0.901374 41
-0.866028 7.011144 0.901244 36
-0.843240 7.011026 0.901145 34
-0.820746 7.014952 0.901010 31
-0.797454 7.022721 0.900836 29
-0.776687 7.022758 0.900741 28
-0.754587 7.018380 0.900678 27
-0.732755 7.018055 0.900579 25
-0.711395 7.025920 0.900408 24
-0.688459 7.025217 0.900305 21
-0.666564 7.024652 0.900203 21
-0.645710 7.024238 0.900105 20
-0.623605 7.019381 0.900038 21
-0.599932 7.026385 0.899857 24
-0.578872 7.021600 0.899792 28
-0.556922 7.020638 0.899687 27
-0.536802 7.011811 0.899660 26
-0.512992 7.018475 0.899476 24
-0.490066 7.021159 0.899331 24
-0.467104 7.023757 0.899184 22
-0.444185 7.030411 0.899002 21
-0.423112 7.025083 0.898932 19
-0.400056 7.027427 0.898784 18
-0.380046 7.022221 0.898716 15
-0.354867 7.027986 0.898524 15
-0.333815 7.026492 0.898416 14
-0.310648 7.028495 0.898264 13
-0.285326 7.033974 0.898069 17
-0.263160 7.031942 0.897955 16
-0.238798 7.037523 0.897762 12
-0.217647 7.035625 0.897651 12
-0.196557 7.029506 0.897575 12
-0.170951 7.038656 0.897339 12
-0.147555 7.040038 0.897182 12
-0.122966 7.045156 0.896985 11
-0.099494 7.046354 0.896826 9
-0.078368 7.039823 0.896747 9
-0.058319 7.033550 0.896671 8
-0.032381 7.042120 0.896430 8
-0.006531 7.046433 0.896225 8
0.017261 7.051330 0.896026 7
0.038404 7.044391 0.895944 6
0.063324 7.048760 0.895740 6
0.084458 7.041660 0.895656 6
0.109448 7.045842 0.895450 5
0.131878 7.042362 0.895324 6
0.154309 7.038798 0.895198 5
0.175686 7.035525 0.895075 6
0.203211 7.042723 0.894821 5
0.228401 7.046420 0.894611 4
0.256388 7.057529 0.894319 4
0.276166 7.046003 0.894270 4
0.297631 7.042302 0.894144 3
0.326855 7.052699 0.893844 4
0.351581 7.060437 0.893598 4
0.377745 7.058981 0.893415 5
0.400364 7.054511 0.893281 6
0.424443 7.053679 0.893105 6
0.450440 7.060609 0.892851 6
0.474591 7.059583 0.892673 6
0.497262 7.054754 0.892536 5
0.518872 7.050274 0.892403 4
0.545648 7.052238 0.892177 3
0.572954 7.058219 0.891913 4
0.595672 7.053026 0.891773 3
0.623083 7.058789 0.891508 3
0.665383 7.040608 0.891307 0
0.696114 7.053390 0.890955 1
0.717260 7.044081 0.890853 1
0.754185 7.075823 0.890300 1
0.769899 7.051246 0.890359 0
0.789981 7.042160 0.890260 1
0.822150 7.053853 0.889898 0
0.883036 7.074142 0.889222 2
0.901489 7.061063 0.889162 2
0.927814 7.061874 0.888927 2
0.960433 7.072883 0.888558 2
0.985133 7.069851 0.888364 2
1.009848 7.066721 0.888168 2
1.033516 7.064015 0.887977 2
1.054698 7.053529 0.887865 2
1.086601 7.064420 0.887497 2
1.109589 7.057318 0.887341 1
1.141655 7.067942 0.886970 2
1.164680 7.060635 0.886812 1
1.191377 7.060340 0.886568 1
1.219966 7.063477 0.886279 2
1.247554 7.067048 0.885995 1
1.279203 7.072903 0.885656 1
1.306921 7.076224 0.885370 1
1.331951 7.071818 0.885164 1
1.358906 7.070823 0.884913 1
1.387823 7.073218 0.884618 1
1.420678 7.082479 0.884235 1
1.447780 7.081113 0.883981 1
1.480808 7.090083 0.883596 1
1.515918 7.102374 0.883165 1
1.545187 7.104084 0.882864 0
1.582517 7.119515 0.882386 0
1.610872 7.121559 0.882089 0
1.627242 7.098083 0.882086 0
1.732079 7.226641 0.880150 0
1.737312 7.190963 0.880340 0
1.836267 7.304203 0.878565 0
1.826097 7.240263 0.879100 0
4.092497 10.753457 0.832197 20
4.115940 10.715310 0.832204 29
4.119115 10.637765 0.832681 33
4.227793 10.734665 0.830900 21
4.175532 10.578245 0.832473 38
4.250629 10.625083 0.831370 25
4.373547 10.740870 0.829307 20
4.400474 10.704207 0.829253 18
4.488195 10.771001 0.827878 21
4.546638 10.785081 0.827154 21
4.594133 10.782253 0.826654 21
4.643924 10.782528 0.826107 21
4.689301 10.775958 0.825649 20
4.734711 10.769191 0.825189 21
4.777885 10.758932 0.824772 20
4.853023 10.794477 0.823716 19
4.882023 10.759611 0.823604 18
4.944943 10.783834 0.822748 17
4.999321 10.784544 0.822129 23
5.053797 10.784987 0.821507 22
5.091546 10.772639 0.821151 15
5.113894 10.731783 0.821137 26
5.171466 10.739314 0.820431 21
5.229175 10.746561 0.819721 23
5.313245 10.788853 0.818500 17
5.395301 10.827472 0.817320 15
5.448150 10.822809 0.816728 15
5.471042 10.785442 0.816673 18
5.534325 10.797581 0.815858 17
5.536795 10.730157 0.816209 27
5.641811 10.795600 0.814593 16
5.726937 10.830713 0.813381 16
5.761996 10.808312 0.813084 16
5.773863 10.753081 0.813245 22
5.864480 10.793444 0.811930 18
5.937028 10.817328 0.810920 17
5.805204 10.584506 0.813779 15
6.002905 10.758859 0.810430 22
6.101222 10.812787 0.808937 18
6.074300 10.710597 0.809807 21
6.100500 10.673271 0.809678 31
6.198486 10.721704 0.808210 17
6.198858 10.653437 0.808558 48
6.362081 10.777253 0.805883 23
6.487243 10.854475 0.803920 17
6.526844 10.830987 0.803540 31
6.542778 10.780165 0.803592 22
6.626926 10.807627 0.802388 27
6.711369 10.834620 0.801180 22
6.756291 10.816260 0.800695 23
6.883793 10.890176 0.798702 13
6.850672 10.790956 0.799604 20
6.922404 10.801654 0.798627 34
7.072464 10.897686 0.796230 15
7.090757 10.848419 0.796222 22
7.138684 10.831451 0.795675 20
7.121192 10.744011 0.796306 26
7.308375 10.875652 0.793247 13
7.416957 10.921762 0.791608 11
7.484634 10.923755 0.790704 12
7.544140 10.916728 0.789945 11
7.484339 10.785594 0.791316 26
7.546330 10.781265 0.790507 15
7.681105 10.850979 0.788401 27
7.768777 10.871418 0.787135 23
7.904582 10.939651 0.785015 7
7.965771 10.935194 0.784206 12
7.952219 10.852528 0.784731 13
8.149289 10.909143 0.781813 9
8.186710 10.876587 0.781431 10
8.238400 10.857796 0.780795 12
8.301617 10.849849 0.779954 28
8.344646 10.822253 0.779466 15
8.480516 10.882507 0.777351 21
8.646061 10.969341 0.774719 12
8.732249 10.976813 0.773488 15
8.791690 10.965786 0.772697 28
8.894094 10.990529 0.771169 13
8.896469 10.922882 0.771379 19
8.948831 10.901063 0.770717 24
9.102142 10.970094 0.768304 12
9.247129 11.030166 0.766036 6
9.267159 10.977694 0.765931 19
9.310941 10.946386 0.765411 16
9.432817 10.983471 0.763542 16
9.615409 11.072365 0.760627 4
9.768506 11.133939 0.758222 8
9.808141 11.100204 0.757757 9
9.847903 10.991950 0.757519 13
9.968443 11.022758 0.755670 14
10.021804 10.996442 0.754970 16
10.168548 10.976109 0.752878 4
10.937212 11.533676 0.739968 5
10.421914 10.969027 0.749160 13
10.738661 11.078897 0.744159 14
10.767512 11.029554 0.743859 12
10.840259 11.014660 0.742810 7
11.115134 11.156505 0.738332 3
12.012979 11.780467 0.723295 16
11.199888 11.079439 0.737247 10
11.833345 11.488861 0.726707 12
11.939300 11.341457 0.725438 10
11.849913 11.200145 0.727111 9
12.024109 11.253638 0.724335 4
12.040447 11.190631 0.724217 8
12.010585 11.020331 0.725021 22
12.221387 11.096853 0.721621 4
13.023889 11.590117 0.708281 4
13.384350 11.772954 0.702359 6
13.466250 11.662462 0.701283 4
13.483619 11.594966 0.701127 6
13.764667 11.715425 0.696536 4
13.677990 11.572540 0.698122 18
13.748028 11.540190 0.697073 9
13.854638 11.531882 0.695409 13
13.928024 11.500890 0.694297 4
13.905952 11.410819 0.694772 4
9.938186 8.745466 0.761181 13
9.926221 8.675745 0.761461 3
9.922674 8.614768 0.761593 4
9.905353 8.545317 0.761952 3
9.891072 8.478216 0.762257 3
9.875174 8.413374 0.762582 4
9.864939 8.346705 0.762816 4
9.856506 8.284376 0.763013 4
9.848668 8.228406 0.763192 5
9.862696 8.174703 0.763013 11
9.837260 8.108597 0.763479 11
9.839242 8.050934 0.763493 12
9.853493 8.003579 0.763296 16
9.853773 7.948092 0.763329 19
9.850356 7.890670 0.763421 23
9.855868 7.841437 0.763360 24
9.873960 7.794097 0.763089 34
9.869838 7.736896 0.763183 37
9.875904 7.685715 0.763105 38
9.887574 7.640556 0.762930 41
9.894389 7.587364 0.762834 42
9.896330 7.534348 0.762816 46
9.906302 7.491303 0.762660 49
9.930044 7.447768 0.762274 57
9.945465 7.402432 0.762022 60
9.964242 7.358952 0.761713 52
9.974688 7.313757 0.761539 56
10.001320 7.271832 0.761092 56
10.037357 7.237431 0.760487 48
10.104198 7.221474 0.759367 35
10.169673 7.199084 0.758265 39
10.234065 7.178427 0.757179 35
10.315247 7.168525 0.755812 27
10.387910 7.148484 0.754582 27
10.473861 7.137251 0.753128 26
10.573176 7.134720 0.751450 24
10.648502 7.117157 0.750167 27
10.749081 7.111290 0.748460 22
10.859530 7.112202 0.746587 18
11.004800 7.123328 0.744127 16
11.137313 7.132951 0.741880 16
11.274732 7.141139 0.739545 13
11.424338 7.151124 0.737001 13
11.572041 7.164819 0.734489 13
11.706482 7.168623 0.732192 14
11.863013 7.181372 0.729523 14
11.994207 7.181748 0.727271 13
12.140218 7.187721 0.724768 14
12.293772 7.195942 0.722135 13
12.451225 7.204750 0.719431 13
12.608913 7.212533 0.716720 11
12.766829 7.219291 0.713999 10
12.924967 7.225021 0.711270 12
13.093316 7.236947 0.708369 10
13.252991 7.237952 0.705600 14
13.411781 7.240553 0.702844 17
13.548513 7.233159 0.700452 9
27.410645 12.463550 0.467838 6
27.689245 12.453264 0.462945 6
19.758936 9.217694 0.595560 3
19.860096 9.164696 0.593675 3
19.870661 9.090542 0.593333 3
19.894081 9.003905 0.592733 3
19.903111 8.920753 0.592389 3
19.920380 8.849326 0.591922 7
19.897614 8.746530 0.592084 7
19.913223 8.666213 0.591615 7
19.917204 8.581948 0.591338 10
19.913296 8.495153 0.591189 7
19.924198 8.413617 0.590786 10
19.936028 8.341012 0.590386 10
19.966608 8.261970 0.589630 14
19.972843 8.179159 0.589292 20
20.026285 8.027086 0.587910 16
20.054516 7.951504 0.587185 6
20.086306 7.877003 0.586396 3
24.212858 8.080556 0.512863 4
36.168694 10.474187 0.305383 11
36.220970 10.345796 0.303917 11
36.354458 10.236860 0.301045 11
46.108189 10.829412 0.125533 27
46.114769 10.656047 0.124591 27
45.885307 10.436275 0.127746 26
36.752544 8.499873 0.285961 11
40.601276 9.092443 0.218192 17
44.140053 9.599490 0.155686 23
21.381052 -1.443147 0.501866 3
19.748659 -1.576012 0.530835 3
18.993071 -1.783860 0.542689 114
-27.256601 1.050762 0.549844 12
-27.310602 1.316365 0.551111 74
-27.333315 1.405241 0.551449 28
-27.433779 1.584787 0.551230 4
-28.035265 1.689903 0.542285 4
-30.387291 1.852341 0.505372 5
-54.727093 2.775059 0.117524 33
-54.720566 2.959229 0.119027 33
-55.205029 3.349631 0.114095 33
-55.197372 3.516884 0.115457 33
-55.577843 3.910217 0.112168 34
-51.837566 3.889888 0.172636 28
-51.895561 4.059434 0.172911 29
-54.617867 4.420532 0.131377 32
-56.926014 5.332680 0.100351 36
-57.325089 5.558719 0.095433 36
-56.853737 5.722438 0.104158 36
-57.713871 7.152423 0.099557 37
-57.690937 7.356719 0.101204 37
-58.264210 7.621380 0.093604 38
-58.241936 7.808045 0.095108 38
-58.906803 8.899253 0.090910 39
-59.048130 9.325492 0.091088 40
-59.141335 9.543047 0.090823 40
-59.088959 9.728982 0.092703 40
-59.084232 9.942635 0.093961 40
-59.251717 10.163625 0.092488 40
-59.006233 10.328651 0.097311 40
-59.125488 10.563426 0.096660 40
-52.062637 9.560509 0.204279 30
-49.248352 9.240583 0.247573 25
-48.853088 9.340382 0.254401 24
-48.895996 9.508687 0.254578 25
-44.778477 8.923579 0.317282 18
-43.651497 8.857846 0.334913 16
-41.526470 8.599936 0.367481 12
-41.197464 8.678773 0.373101 12
-34.188858 7.422294 0.478496 7
-33.327457 7.364300 0.491908 7
-31.861507 7.284067 0.514801 18
-30.413904 7.187096 0.537299 5
-29.775127 7.149743 0.547242 5
-29.148668 7.110642 0.556977 10
-28.565716 7.077057 0.566042 9
-27.332529 6.976936 0.585077 4
-26.302694 6.999192 0.601384 41
-24.982649 6.934050 0.621856 100
-24.919210 7.003227 0.623114 100
-24.886494 7.080248 0.623916 100
-24.824146 7.234878 0.625457 102
-24.827555 7.313069 0.625684 50
-24.813055 7.395008 0.626198 100
-24.803694 7.487082 0.626663 100
-24.773199 7.564562 0.627401 100
-24.765478 7.648634 0.627802 100
-24.753613 7.731599 0.628259 100
-24.747658 7.807756 0.628597 90
-24.740459 7.901005 0.629004 65
-24.716208 7.980477 0.629626 54
-24.714592 8.066992 0.629915 54
-24.729160 8.154410 0.629952 50
-24.723080 8.239910 0.630297 60
-24.731905 8.330364 0.630421 71
-24.722658 8.410792 0.630790 67
-24.728323 8.496250 0.630940 67
-24.734814 8.591042 0.631097 71
-24.746048 8.683284 0.631169 67
-24.754486 8.770427 0.631266 71
-19.770748 7.211969 0.703498 4
-19.461235 7.175905 0.708129 4
-19.219481 7.151514 0.711753 2
-19.027508 7.153595 0.714677 2
-18.915726 7.180212 0.716434 2
-18.665134 7.154889 0.720179 2
-18.502195 7.157155 0.722651 2
-18.278465 7.138704 0.725996 2
-18.055067 7.118767 0.729330 1
-17.881605 7.113240 0.731935 1
-17.765869 7.135317 0.733720 1
-17.589045 7.126303 0.736362 1
-17.321095 7.086168 0.740313 1
-17.114109 7.065332 0.743380 1
-16.900042 7.040124 0.746541 1
-16.838118 7.075579 0.747525 1
-16.715149 7.142838 0.749462 1
-16.295483 7.026661 0.755536 1
-16.241203 7.062576 0.756392 1
-16.172148 7.091874 0.757456 1
-16.125080 7.130309 0.758202 1
-16.079309 7.224964 0.758993 19
-16.054909 7.270121 0.759403 6
-16.114584 7.361954 0.758624 4
-16.039871 7.381589 0.759741 1
-15.895776 7.436832 0.761903 1
-15.855073 7.476975 0.762531 1
-15.873295 7.541759 0.762317 1
-15.811645 7.634227 0.763280 1
-15.880729 7.721237 0.762333 1
-15.867938 7.775046 0.762549 1
-15.852553 7.833699 0.762802 1
-15.834573 7.879086 0.763082 1
-15.814024 7.929264 0.763399 1
-15.815838 7.996846 0.763397 1
-15.815145 8.051235 0.763424 1
-15.872233 8.141610 0.762629 1
-15.845935 8.192551 0.763015 1
-14.547842 10.170110 0.869312 11
-14.460924 10.173733 0.870027 11
-14.322690 10.138791 0.871108 11
-14.287476 10.172804 0.871437 9
-10.048159 7.105384 0.902003 123
-9.803269 7.050341 0.903907 1
-9.734720 7.040830 0.904443 1
-9.682074 7.043254 0.904865 1
-9.627422 7.041568 0.905296 1
-9.565549 7.035936 0.905780 1
-9.497564 7.024947 0.906305 1
-9.457772 7.036155 0.906628 1
-9.344174 7.030101 0.907510 1
-9.286001 7.025319 0.907959 2
-9.234485 7.068619 0.908391 7
-9.085075 7.028738 0.909511 2
-9.033531 7.027603 0.909904 2
-8.979049 7.023575 0.910317 2
-8.927705 7.021858 0.910706 2
-8.889574 7.029161 0.910998 2
-8.838390 7.026927 0.911383 2
-8.788360 7.023218 0.911757 2
-8.727362 7.013631 0.912210 2
-8.689478 7.020022 0.912495 2
-8.637642 7.017843 0.912880 2
-8.595844 7.022281 0.913191 2
-8.551146 7.023799 0.913521 2
-8.504630 7.021226 0.913862 2
-8.454220 7.016824 0.914230 2
-8.406843 7.014875 0.914576 1
-8.365385 7.018152 0.914878 2
-8.347209 7.043225 0.915015 4
-8.273957 7.015774 0.915538 2
-8.232698 7.018374 0.915835 2
-8.180002 7.009634 0.916211 2
-8.144630 7.017350 0.916464 2
-8.103572 7.019288 0.916756 2
-8.059731 7.018202 0.917066 2
-8.021642 7.022527 0.917334 2
-7.978999 7.019947 0.917633 2
-7.939257 7.019990 0.917911 2
-7.895722 7.018023 0.918214 2
-7.855070 7.018686 0.918496 2
-7.814487 7.019138 0.918776 2
-7.780578 7.024124 0.919009 2
-7.742879 7.027072 0.919266 2
-7.699718 7.024035 0.919561 2
-7.653902 7.017863 0.919873 2
-7.617039 7.025089 0.920120 2
-7.578969 7.022342 0.920377 2
-7.544300 7.027236 0.920608 2
-7.504252 7.026071 0.920875 2
-7.457839 7.019748 0.921186 3
-7.397948 7.036211 0.921574 10
-7.330125 7.043162 0.922014 2
-7.290457 7.040860 0.922272 2
-7.255080 7.045300 0.922498 2
-7.219234 7.044706 0.922729 2
-7.186561 7.051823 0.922934 2
-7.149763 7.051799 0.923168 2
-7.102666 7.039401 0.923474 2
-7.073780 7.048145 0.923651 2
-7.043384 7.052808 0.923838 2
-7.009395 7.055145 0.924048 2
-6.978001 7.060400 0.924239 2
-6.939018 7.056236 0.924484 2
-6.915288 7.070477 0.924618 2
-6.885032 7.074440 0.924800 2
-6.853742 7.079122 0.924986 2
-6.818922 7.081382 0.925195 2
-6.783793 7.078649 0.925409 2
-6.755094 7.086018 0.925574 2
-6.726401 7.093260 0.925738 2
-6.687912 7.087732 0.925972 2
-6.669040 7.107368 0.926063 2
-6.633087 7.104699 0.926277 2
-6.606880 7.114600 0.926419 2
-6.580661 7.124393 0.926561 1
-6.564013 7.146890 0.926632 1
-6.540111 7.159711 0.926754 1
-6.525455 7.180507 0.926814 1
-6.503820 7.196405 0.926918 1
-6.489184 7.221935 0.926970 0
-6.481447 7.257169 0.926970 0
-6.480505 7.302181 0.926919 1
-6.464006 7.372804 0.926919 1
-6.434816 7.378657 0.927071 0
-6.430756 7.420511 0.927037 0
-6.431003 7.468999 0.926970 0
-6.415142 7.494466 0.927019 0
-6.405905 7.529825 0.927019 0
-6.413287 7.587631 0.926897 0
-6.401363 7.619751 0.926913 0
-6.400342 7.668523 0.926846 0
-6.394628 7.710690 0.926812 0
-6.388674 7.752899 0.926779 0
-6.378119 7.788440 0.926778 0
-6.393385 7.864327 0.926581 0
-6.386614 7.906713 0.926548 0
-6.388177 7.962641 0.926450 0
-6.410730 8.052504 0.926190 0
-6.407260 8.101911 0.926125 1
-6.421224 8.182748 0.925921 1
-6.453146 8.285278 0.925590 1
-6.481884 8.389658 0.925271 1
-7.677546 10.494745 0.915828 37
-7.525442 10.315427 0.916872 15
-7.735367 10.744385 0.915106 8
-7.444001 10.326460 0.917235 8
-7.316638 10.257161 0.917955 14
-7.558829 10.754666 0.915906 17
-7.282199 10.424227 0.917793 2
-7.293851 10.601049 0.917395 4
-7.184777 10.478528 0.918120 2
-7.078665 10.445319 0.918649 4
-28.165455 50.194351 0.746662 32
-32.788567 59.365063 0.708005 40
-32.532673 59.373096 0.709063 41
-27.510557 50.199810 0.749399 31
-27.243437 50.103764 0.750707 30
-27.367706 51.203461 0.747819 34
-30.788187 58.460453 0.718164 42
-29.502802 56.379528 0.727882 44
-26.205647 50.178741 0.754710 29
-25.986198 50.143871 0.755646 29
-25.779461 50.133286 0.756471 29
-25.561104 50.140926 0.757291 28
-25.346432 50.132710 0.758126 28
-29.470949 59.297199 0.721370 42
-6.269874 10.296401 0.922213 2
-6.171692 10.253435 0.922672 17
-6.065300 10.095236 0.923433 17
-6.289493 10.691720 0.921196 28
-6.199106 10.569932 0.921809 15
-6.062842 10.354587 0.922810 16
-6.191070 10.735047 0.921431 19
-6.084340 10.580724 0.922177 6
-5.900274 10.250508 0.923620 12
-6.025061 10.627710 0.922257 22
-6.003581 10.675765 0.922206 17
-6.012536 10.793324 0.921877 14
-5.775258 10.311357 0.923874 18
-5.804444 10.472232 0.923366 17
-5.771491 10.481216 0.923446 28
-5.713048 10.435645 0.923746 38
-5.735899 10.585758 0.923283 25
-5.597684 10.334879 0.924362 20
-5.713158 10.731973 0.922964 16
-5.468262 10.388503 0.924597 27
-5.477098 10.823912 0.923383 4
-5.415111 10.752563 0.923747 2
-20.290115 53.985153 0.764319 33
-5.128907 10.807159 0.924311 22
-5.015618 10.570456 0.925257 13
-4.964128 10.523837 0.925510 12
-4.900382 10.430633 0.925925 17
-4.947750 10.817822 0.924689 38
-4.822689 10.538030 0.925780 18
-4.750115 10.409400 0.926312 19
-4.708756 10.384049 0.926473 10
-4.721463 10.684304 0.925552 17
-4.625913 10.474391 0.926368 11
-4.594449 10.483179 0.926402 12
-4.536419 10.407890 0.926737 9
-4.641075 10.926593 0.924974 4
-4.387926 10.244769 0.927500 8
-4.313640 10.346453 0.927312 37
-4.279333 10.355017 0.927340 7
-4.232410 10.304765 0.927569 7
-4.154214 10.257738 0.927833 16
-4.149266 10.390381 0.927425 16
-4.150402 10.546122 0.926934 9
-4.086111 10.556534 0.926988 21
-4.104805 10.810456 0.926160 15
-4.105851 10.973942 0.925640 7
-3.904355 10.362387 0.927827 18
-3.897252 10.486361 0.927438 21
-3.898670 10.665633 0.926862 16
-3.828596 10.487879 0.927507 17
-3.815152 10.596456 0.927170 41
-3.784397 10.626771 0.927102 26
-3.720806 10.471838 0.927663 24
-3.685052 10.454014 0.927752 19
-3.647322 10.424245 0.927881 15
-3.713444 11.005612 0.925932 8
-3.556398 10.488731 0.927740 51
-3.527778 10.521874 0.927651 32
-3.487509 10.483848 0.927802 13
-3.450632 10.465413 0.927885 7
-3.416334 10.462651 0.927914 5
-3.287809 10.509791 0.927817 9
-3.297671 10.831450 0.926743 6
-3.225520 10.550551 0.927703 6
-3.197763 10.598550 0.927551 2
-3.196544 11.118742 0.925810 8
-3.147528 11.007803 0.926190 22
-3.038063 10.364160 0.928367 20
-3.006223 10.375816 0.928330 9
-3.018101 10.809099 0.926870 5
-2.963106 10.597722 0.927583 5
-2.872064 10.341576 0.928444 34
-2.850648 10.464174 0.928027 56
-2.810725 10.391535 0.928267 17
-2.772706 10.334673 0.928452 28
-2.743078 10.373328 0.928314 19
-2.711196 10.841345 0.926713 7
-2.636372 10.734499 0.927049 14
-2.594620 10.645111 0.927336 14
-2.567583 10.727006 0.927043 15
-2.531006 10.685144 0.927167 12
-2.498633 10.682990 0.927156 8
-2.275935 7.518322 0.937851 0
-2.244356 7.323584 0.938496 0
-2.222688 7.308506 0.938532 0
-2.198197 7.245430 0.938730 1
-2.129924 7.147620 0.939008 0
-2.108825 7.120158 0.939083 1
-2.064547 7.097069 0.939119 2
-2.043012 7.081398 0.939151 3
-2.022772 7.077641 0.939142 7
-2.001632 7.093822 0.939062 12
-1.980207 7.057930 0.939161 19
-1.959026 7.065964 0.939108 38
-1.937920 7.037924 0.939178 43
-1.855873 7.021065 0.939126 30
-1.811669 7.020140 0.939064 107
-1.790622 7.019585 0.939034 109
-1.769703 7.014959 0.939017 109
-1.751749 6.986349 0.939086 73
-1.729140 7.029552 0.938901 114
-1.708061 7.028710 0.938868 115
-1.686985 7.027793 0.938835 115
-1.665522 7.034794 0.938773 114
-1.644634 7.029735 0.938752 115
-1.623777 7.024603 0.938731 115
-1.602374 7.011352 0.938736 115
-1.584413 6.978196 0.938815 69
-1.560606 7.020751 0.938623 114
-1.539837 7.015330 0.938599 112
-1.519685 7.001859 0.938604 109
-1.500847 6.972368 0.938665 103
