# .PCD v.7 - Point Cloud Data file format
VERSION .7
FIELDS x y z intensity
SIZE 4 4 4 1
TYPE F F F U
COUNT 1 1 1 1
WIDTH 1514
HEIGHT 1
VIEWPOINT 0 0 0 1 0 0 0
POINTS 1514
DATA ascii
-18.644020 -6.526216 -0.197004 1
-18.670744 -6.470567 -0.197278 1
-18.688742 -6.415257 -0.197047 1
-18.722698 -6.361831 -0.197838 1
-18.730761 -6.296904 -0.196805 1
-18.759615 -6.244960 -0.197349 1
-18.789211 -6.189953 -0.197881 1
-18.784258 -6.124351 -0.196085 1
-18.756113 -6.051957 -0.192739 1
-12.535637 -4.143860 0.228670 0
-12.568328 -4.031522 0.229138 1
-12.425080 -3.951395 0.239618 6
-12.346791 -3.890445 0.245706 1
-12.296745 -3.801219 0.250643 68
-12.256256 -3.751904 0.254146 19
-12.313273 -3.692044 0.251857 1
-12.353488 -3.663930 0.249945 2
-12.343308 -3.622905 0.251383 7
-12.403159 -3.597458 0.248191 23
-12.384514 -3.556317 0.250137 13
-12.381671 -3.517254 0.251060 18
-12.378681 -3.478241 0.251982 18
-12.383321 -3.441093 0.252390 17
-12.376573 -3.399453 0.253577 12
-12.361462 -3.357948 0.255270 9
-12.376960 -3.325308 0.254898 12
-12.373254 -3.286517 0.255819 10
-12.373306 -3.248618 0.256483 9
-12.357599 -3.207447 0.258175 10
-12.372997 -3.172903 0.257810 12
-12.337436 -3.127910 0.260786 6
-12.246889 -3.072217 0.267358 2
-12.253147 -2.999121 0.268167 81
-12.271768 -2.965549 0.267544 87
-12.258883 -2.926038 0.268975 28
-12.499875 -2.895076 0.254387 2
-12.569278 -2.869423 0.250433 8
-12.493056 -2.818359 0.255970 48
-12.467479 -2.778264 0.258165 91
-12.410539 -2.731357 0.262416 34
-12.404635 -2.693107 0.263334 53
-12.445911 -2.662359 0.261177 67
-12.499218 -2.631330 0.258259 47
-12.806460 -2.601344 0.239353 10
-12.966042 -2.585618 0.229523 35
-13.101650 -2.567432 0.221224 8
-13.372011 -2.564670 0.204236 4
-13.630883 -2.556438 0.188031 5
-13.818311 -2.539243 0.176430 5
-14.053026 -2.528804 0.161757 5
-14.303650 -2.518754 0.146067 5
-14.531072 -2.499868 0.131935 3
-14.893103 -2.497009 0.109111 2
-15.001092 -2.465718 0.102642 2
-15.232547 -2.442376 0.088274 9
-15.308911 -2.403609 0.083865 3
-18.229017 -2.649946 -0.103376 1
-18.230648 -2.592903 -0.102890 1
-18.220156 -2.534756 -0.101639 1
-18.217407 -2.477416 -0.100899 1
-18.214457 -2.420113 -0.100159 1
-18.203112 -2.365017 -0.098920 1
-18.203968 -2.305308 -0.098424 1
-18.192234 -2.250359 -0.097186 1
-18.196445 -2.193832 -0.096957 1
-18.208618 -2.135012 -0.097226 1
-18.176390 -2.078912 -0.094716 1
-18.128382 -2.016417 -0.091164 1
-18.103880 -1.958489 -0.089153 1
-18.126848 -1.906179 -0.090211 1
-18.097963 -1.848242 -0.087946 1
-18.053059 -1.786951 -0.084654 1
-18.015772 -1.729147 -0.081883 1
-17.966312 -1.671125 -0.078350 1
-17.948557 -1.614647 -0.076854 1
-17.926611 -1.558166 -0.075103 1
-17.920427 -1.502329 -0.074371 1
-17.910057 -1.446434 -0.073384 1
-17.891508 -1.390433 -0.071890 1
-17.896709 -1.335040 -0.071921 1
-17.869787 -1.279094 -0.069920 1
-17.858599 -1.226313 -0.068946 1
-17.851252 -1.170881 -0.068216 1
-17.835730 -1.115455 -0.066978 1
-17.831987 -1.060170 -0.066502 1
12.818190 0.274750 0.071160 1
12.548040 0.199990 0.087048 1
12.572100 0.150799 0.085675 1
12.699511 0.109407 0.078233 1
12.623702 0.052248 0.082694 1
12.635310 0.001751 0.082020 1
12.598931 -0.051985 0.084149 1
12.693711 -0.094631 0.078580 1
12.601022 -0.149070 0.083991 1
12.659778 -0.196909 0.080512 1
12.670525 -0.247668 0.079838 1
12.720979 -0.296531 0.076825 1
12.743347 -0.347012 0.075448 1
12.801449 -0.396127 0.071964 1
12.827465 -0.446873 0.070351 1
12.837345 -0.498355 0.069675 1
12.898849 -0.545655 0.065964 1
12.872460 -0.598458 0.067394 1
12.909756 -0.649483 0.065076 1
12.891040 -0.704557 0.066028 1
12.888045 -0.756610 0.066053 1
12.872891 -0.808808 0.066782 1
12.869533 -0.860770 0.066808 1
12.893944 -0.912503 0.065192 1
12.902193 -0.961864 0.064524 1
12.898299 -1.013885 0.064550 1
12.882245 -1.065842 0.065280 1
12.897955 -1.117897 0.064133 1
12.881538 -1.169740 0.064863 1
12.880948 -1.219089 0.064665 1
12.896075 -1.273903 0.063507 1
12.891148 -1.323218 0.063544 1
12.905954 -1.375578 0.062396 1
12.944526 -1.428700 0.059837 1
12.942996 -1.480865 0.059629 1
12.951361 -1.585630 0.058506 6
12.961360 -1.635701 0.057602 4
12.943151 -1.687211 0.058335 1
12.984591 -1.741482 0.055537 1
12.977982 -1.793579 0.055564 1
13.011061 -1.847837 0.053236 1
13.012053 -1.900465 0.052792 1
13.052715 -1.955588 0.049991 1
13.061298 -2.008912 0.049075 1
13.073676 -2.062583 0.047923 1
13.101985 -2.114874 0.045838 1
13.146039 -2.168572 0.042808 1
13.153866 -2.222384 0.041890 1
13.543525 -2.307918 0.018320 1
13.033688 -2.318529 0.048079 1
13.080751 -2.375647 0.044802 1
13.048085 -2.425682 0.046246 1
13.094741 -2.483210 0.042967 1
13.018015 -2.528709 0.047011 1
13.004702 -2.580297 0.047276 1
13.058702 -2.639068 0.043523 1
13.083014 -2.745618 0.040990 1
13.449643 -2.842224 0.018550 1
13.030935 -2.846061 0.042940 1
13.131434 -2.911895 0.036344 1
13.112844 -2.963175 0.036845 1
13.121792 -3.018010 0.035690 1
13.087015 -3.067026 0.037139 1
13.119313 -3.125185 0.034563 1
13.100001 -3.176256 0.035066 1
13.092370 -3.228953 0.034859 1
13.088504 -3.282215 0.034414 1
13.144057 -3.341922 0.030425 1
13.116123 -3.391677 0.031402 1
13.103797 -3.443796 0.031432 1
13.130694 -3.502322 0.029090 1
13.133739 -3.557105 0.028171 1
13.160199 -3.615983 0.025828 1
13.213964 -3.679890 0.021822 1
13.243883 -3.739995 0.019240 1
13.222498 -3.791046 0.019743 1
13.236275 -3.848539 0.018110 1
8.792975 -3.062664 0.286382 1
8.683833 -3.080665 0.292413 0
8.496338 -3.082532 0.303202 0
8.407207 -3.100888 0.308058 0
8.223802 -3.101360 0.318618 0
8.134358 -3.120022 0.323473 0
8.123051 -3.154562 0.323573 0
8.127242 -3.192398 0.322721 0
8.119589 -3.227736 0.322583 0
8.115710 -3.263912 0.322208 0
7.398897 -3.139358 0.365409 0
7.216293 -3.132019 0.375999 0
7.076635 -3.133391 0.383973 0
6.941337 -3.133173 0.391719 0
6.879914 -3.149775 0.394941 0
6.713358 -3.142023 0.404594 0
6.608614 -3.149970 0.410431 0
6.578260 -3.172675 0.411751 2
6.559078 -3.199650 0.412350 1
6.563008 -3.232511 0.411519 1
6.443215 -3.233030 0.418324 0
5.991904 -3.174480 0.445074 1
5.864929 -3.169729 0.452369 0
5.814665 -3.186806 0.454885 1
5.669042 -3.173843 0.463385 0
5.596184 -3.182019 0.467344 0
5.584366 -3.208740 0.467475 0
5.607720 -3.242837 0.465466 0
5.558184 -3.255596 0.467999 0
5.385857 -3.232693 0.478181 0
5.362799 -3.253825 0.479038 0
5.152277 -3.218616 0.491616 0
5.148753 -3.243508 0.491285 0
5.141334 -3.267202 0.491194 0
5.095000 -3.281238 0.493487 0
4.813456 -3.217738 0.510634 8
4.729438 -3.217903 0.515328 7
4.706942 -3.235198 0.516201 28
4.726064 -3.266281 0.514438 6
4.695479 -3.282079 0.515786 15
4.774436 -3.335135 0.510183 32
4.758760 -3.356160 0.510572 28
4.758097 -3.382374 0.510002 21
4.772391 -3.413934 0.508472 21
4.775690 -3.440409 0.507667 21
4.767194 -3.464046 0.507576 25
4.766116 -3.490393 0.507006 25
4.772429 -3.519526 0.505955 22
4.774880 -3.547339 0.505145 22
4.773482 -3.573790 0.504574 19
4.771983 -3.600262 0.504004 17
4.774107 -3.628190 0.503193 18
4.764956 -3.651820 0.503103 30
4.755722 -3.675419 0.503013 35
4.750116 -3.700459 0.502683 35
4.763421 -3.731744 0.501155 10
4.955453 -3.863851 0.487268 0
4.867978 -3.856110 0.492229 0
4.820682 -3.865889 0.494540 0
4.811201 -3.888492 0.494454 6
4.779095 -3.902875 0.495808 3
4.852853 -3.963951 0.490176 0
4.842529 -3.987855 0.490085 0
4.847274 -4.016933 0.489036 0
4.844069 -4.044044 0.488463 0
4.847518 -4.075618 0.487405 0
4.811320 -4.088024 0.489002 0
4.808373 -4.113898 0.488434 0
4.801155 -4.139310 0.488103 2
4.793842 -4.164710 0.487773 4
5.262885 -4.443594 0.454780 1
5.269515 -4.476233 0.453482 5
4.839811 -4.301259 0.481387 14
4.802577 -4.314125 0.482982 18
4.765919 -4.325583 0.484583 23
4.775820 -4.359772 0.483046 20
4.775428 -4.387555 0.482237 12
4.776681 -4.447389 0.480368 1
4.790171 -4.482539 0.478592 1
4.788688 -4.511700 0.477778 2
4.804806 -4.550085 0.475755 5
4.771209 -4.562711 0.477117 5
4.772296 -4.594961 0.476057 5
4.770342 -4.624208 0.475243 5
4.771785 -4.655374 0.474187 1
4.784267 -4.691112 0.472409 1
4.816968 -4.739633 0.469174 14
4.793441 -4.757633 0.469811 20
4.739102 -4.756906 0.472633 9
4.715556 -4.774563 0.473273 8
4.751097 -4.825430 0.469794 1
4.727352 -4.843055 0.470433 6
13.029416 -9.700381 -0.113645 1
13.033514 -9.772882 -0.116263 3
13.057949 -9.857642 -0.120337 1
13.064794 -9.932514 -0.123200 1
13.136452 -10.046395 -0.130671 1
13.248562 -10.185568 -0.141056 1
14.778811 -11.181272 -0.252133 2
14.726230 -11.305706 -0.253768 4
14.680026 -11.357720 -0.253255 6
14.579483 -11.375695 -0.248856 6
14.458744 -11.380334 -0.242997 6
14.304461 -11.362869 -0.234707 21
14.219593 -11.384633 -0.231261 10
14.085951 -11.378501 -0.224422 6
13.997626 -11.404782 -0.220993 6
13.894438 -11.416851 -0.216337 6
13.786510 -11.421177 -0.211181 6
13.676912 -11.427638 -0.206033 6
13.554189 -11.424582 -0.199910 6
13.454854 -11.436417 -0.195487 6
13.340596 -11.441391 -0.190099 8
13.243330 -11.449371 -0.185661 6
13.139606 -11.452291 -0.180735 6
13.011251 -11.441322 -0.174112 4
12.925691 -11.459334 -0.170651 6
12.822046 -11.467965 -0.165980 6
12.715678 -11.466217 -0.160801 6
12.620653 -11.475718 -0.156604 6
12.509544 -11.473014 -0.151186 3
12.418021 -11.483733 -0.147227 3
12.313708 -11.484516 -0.142292 5
12.209566 -11.484699 -0.137355 5
12.108806 -11.486662 -0.132659 7
12.010033 -11.485604 -0.127952 9
11.922357 -11.496037 -0.124227 5
11.822051 -11.496339 -0.119524 5
11.725088 -11.498492 -0.115063 5
11.640939 -11.509831 -0.111576 5
11.541097 -11.508488 -0.106868 5
11.444578 -11.509031 -0.102401 5
11.360779 -11.518896 -0.098908 5
11.261422 -11.515916 -0.094193 5
11.173450 -11.517537 -0.090200 5
11.088726 -11.521190 -0.086449 15
10.981826 -11.513876 -0.081248 7
10.898660 -11.521317 -0.077746 5
10.814347 -11.523540 -0.073989 5
10.731407 -11.530081 -0.070484 5
10.645508 -11.533620 -0.066732 8
10.578106 -11.552067 -0.064445 7
10.535148 -11.590762 -0.064113 7
10.549892 -11.678391 -0.068426 14
10.561143 -11.763657 -0.072495 31
10.398363 -11.695837 -0.062370 15
10.237338 -11.631809 -0.052494 14
10.579115 -12.005363 -0.083475 33
10.052003 -11.619429 -0.043743 36
10.161367 -11.791143 -0.055885 28
9.986623 -11.711284 -0.044775 17
9.907634 -11.715711 -0.041495 29
9.816916 -11.709002 -0.037235 22
9.754826 -11.723939 -0.035169 19
9.608500 -11.665068 -0.026252 30
9.537133 -11.677744 -0.023707 29
9.393539 -11.615348 -0.014777 32
9.344815 -11.644140 -0.013937 34
9.351217 -11.724765 -0.017752 29
9.148752 -11.607614 -0.003920 73
9.091516 -11.627151 -0.002341 42
9.042906 -11.654727 -0.001496 35
9.020034 -11.707108 -0.002857 34
8.962655 -11.725985 -0.001274 29
8.902431 -11.741792 0.000554 34
8.737270 -11.653364 0.011461 34
8.770749 -11.761262 0.005196 34
8.631761 -11.696948 0.013899 34
8.580378 -11.719801 0.014997 34
8.542028 -11.751982 0.015120 29
8.482187 -11.765852 0.016957 17
8.433490 -11.790907 0.017812 24
8.420726 -11.853159 0.015476 29
8.302861 -11.805747 0.022472 21
8.212932 -11.786612 0.027014 22
8.139687 -11.784416 0.030085 21
8.077492 -11.793505 0.032174 16
7.990903 -11.775965 0.036476 21
7.936216 -11.788498 0.038082 27
7.884254 -11.803731 0.039443 27
7.808916 -11.796833 0.042766 27
7.734543 -11.794203 0.045839 30
7.640083 -11.761058 0.051138 13
7.589237 -11.779741 0.052252 16
7.541024 -11.801190 0.053121 19
7.455883 -11.780449 0.057435 36
7.395373 -11.790966 0.059285 24
7.343905 -11.803961 0.060655 27
7.225474 -11.742693 0.068173 16
7.195756 -11.783938 0.067325 21
7.155532 -11.812928 0.067462 19
7.058634 -11.774591 0.073016 22
7.018466 -11.803085 0.073155 30
6.963570 -11.817636 0.074521 19
6.859789 -11.768762 0.080818 4
6.803853 -11.773371 0.082689 8
6.795841 -11.836580 0.079881 11
6.708483 -11.809719 0.084453 5
6.663265 -11.830707 0.085090 4
6.274306 -11.415806 0.119983 26
6.307266 -11.532333 0.112986 5
6.245865 -11.529858 0.115354 4
6.164956 -11.501885 0.119695 5
6.213202 -11.636268 0.111223 37
6.183950 -11.678967 0.110137 12
6.158783 -11.723347 0.108809 5
6.103956 -11.724879 0.110692 9
6.081441 -11.776855 0.108867 8
6.095851 -11.870793 0.103599 27
6.084053 -11.934278 0.100792 33
6.077086 -12.008873 0.097240 9
6.125328 -12.151688 0.088270 12
5.943516 -11.982777 0.103229 13
6.042351 -12.197017 0.088829 8
5.887252 -12.062585 0.101078 100
5.890576 -12.153308 0.096293 20
6.005563 -12.399560 0.079663 17
6.011212 -12.488231 0.074885 70
5.932447 -12.460352 0.078992 70
6.076002 -12.759063 0.058648 31
5.390723 -11.839639 0.129442 22
5.257037 -11.804854 0.135698 26
5.281419 -11.923083 0.128699 19
5.179341 -11.851930 0.135782 28
5.125814 -11.848998 0.137682 22
5.059582 -11.830352 0.140815 12
5.015279 -11.844879 0.141478 26
4.977173 -11.864726 0.141651 16
4.909187 -11.841907 0.145034 25
4.867086 -11.859214 0.145451 25
4.782988 -11.897915 0.146038 3
4.711355 -11.867207 0.149919 3
4.677426 -11.892806 0.149602 10
4.564635 -11.793315 0.158432 2
4.543678 -11.848057 0.156131 53
4.579737 -11.994100 0.147153 12
4.543299 -12.015860 0.147085 8
4.364823 -11.801415 0.164086 12
4.319069 -11.809789 0.165006 5
4.279232 -11.823782 0.165436 5
3.936476 -11.833993 0.174877 1
3.873839 -11.804536 0.178284 2
4.825392 -13.767997 0.042927 1
3.758659 -11.866463 0.178096 25
4.615651 -13.581028 0.059136 9
4.505221 -13.476648 0.067985 9
4.441411 -13.572609 0.064378 4
4.362990 -13.630424 0.063256 67
4.306419 -13.627565 0.064925 57
4.189645 -13.502856 0.075022 28
4.171107 -13.569889 0.071739 55
4.109759 -13.555468 0.074155 12
4.091536 -13.635301 0.070123 4
4.075518 -13.709445 0.066346 45
3.949025 -13.557447 0.078185 38
3.934093 -13.639557 0.073909 8
3.864702 -13.605914 0.077569 8
3.835783 -13.658932 0.075278 2
3.746773 -13.581205 0.081916 20
3.712769 -13.623008 0.080371 9
3.645833 -13.591887 0.083787 28
3.603525 -13.615167 0.083483 9
3.574602 -13.662905 0.081446 6
3.548620 -13.717905 0.078913 9
3.550239 -13.843449 0.071664 6
2.660740 -11.892302 0.204846 2
2.652394 -11.978328 0.200086 3
2.590894 -11.939299 0.203764 7
2.571154 -11.999486 0.200742 10
2.541920 -12.037522 0.199209 7
3.203454 -13.768371 0.084007 1
3.288620 -14.233443 0.055119 1
3.107163 -13.910358 0.077906 1
3.030732 -13.854653 0.082821 1
2.976429 -13.854396 0.084014 1
1.841717 -11.683154 0.234951 1
1.770542 -11.839670 0.227151 1
1.741139 -11.870987 0.225878 1
1.701333 -11.884626 0.225844 1
1.671649 -11.915758 0.224572 1
1.620967 -11.890633 0.227025 1
1.574851 -11.884871 0.228235 2
1.544969 -11.915649 0.226964 3
1.494686 -11.889952 0.229419 2
1.454294 -11.894475 0.229887 2
1.410328 -11.887423 0.231102 3
1.366453 -11.880196 0.232316 3
1.329242 -11.887484 0.232539 3
1.288965 -11.891397 0.233010 3
1.239951 -11.872776 0.234970 3
1.198289 -11.864316 0.236189 3
1.158174 -11.867748 0.236661 3
1.118074 -11.871034 0.237134 5
1.074723 -11.862649 0.238353 6
1.034695 -11.865627 0.238828 6
0.993622 -11.864611 0.239551 7
0.954690 -11.871143 0.239778 7
0.914715 -11.873681 0.240253 7
0.874757 -11.876072 0.240730 8
0.834818 -11.878316 0.241207 8
0.796795 -11.879926 0.241685 10
0.755844 -11.869795 0.242910 9
0.714067 -11.863858 0.243886 10
0.673322 -11.861639 0.244614 10
0.633567 -11.863147 0.245094 10
0.591049 -11.852861 0.246320 9
0.550464 -11.850183 0.247050 9
0.510832 -11.851242 0.247532 10
0.470335 -11.848266 0.248263 9
0.422020 -11.810080 0.251232 9
0.390357 -11.845757 0.249477 10
0.346614 -11.826728 0.251204 9
0.311369 -11.846567 0.250446 9
0.274374 -11.858478 0.250185 9
0.234098 -11.854622 0.250919 9
0.195463 -11.858442 0.251156 8
0.157941 -11.857834 0.251643 9
0.119322 -11.861383 0.251882 9
0.078447 -11.853033 0.252867 10
0.039872 -11.856300 0.253107 10
0.000575 -11.855504 0.253596 10
-0.037981 -11.858494 0.253836 10
-0.077230 -11.857416 0.254326 10
-0.116448 -11.856196 0.254817 10
-0.154295 -11.862706 0.254811 10
-0.194132 -11.857270 0.255551 10
-0.233266 -11.855629 0.256043 10
-0.272367 -11.853847 0.256536 10
-0.310158 -11.847683 0.257278 11
-0.346168 -11.865357 0.256528 12
-0.387573 -11.847373 0.258018 13
-0.425961 -11.848986 0.258264 12
-0.464340 -11.850463 0.258511 11
-0.503258 -11.847849 0.259007 11
-0.541605 -11.849052 0.259254 10
-0.580462 -11.846162 0.259751 9
-0.619280 -11.843131 0.260249 9
-0.657569 -11.843925 0.260498 9
-0.695847 -11.844583 0.260748 8
-0.733649 -11.849070 0.260750 8
-0.772366 -11.845491 0.261250 8
-0.811915 -11.833838 0.262248 3
-1.323315 -7.383717 0.541309 13
-1.349744 -7.334300 0.544545 32
-1.377720 -7.276942 0.548278 42
-1.403383 -7.239336 0.550768 47
-1.426938 -7.221505 0.552015 50
-1.492903 -7.215231 0.552772 5
-1.516096 -7.197064 0.554020 7
-1.596218 -6.974757 0.568210 78
-1.618036 -6.960195 0.569210 106
-1.640232 -6.937583 0.570708 108
-1.659862 -6.938744 0.570714 109
-1.680144 -6.927881 0.571466 108
-1.701379 -6.917001 0.572218 109
-1.723187 -6.914068 0.572474 110
-1.745487 -6.899090 0.573476 110
-1.766174 -6.895954 0.573732 110
-1.785811 -6.892708 0.573988 110
-1.805160 -6.897377 0.573747 70
-1.846623 -6.882632 0.574758 9
-1.866822 -6.895106 0.574021 9
-1.883509 -7.095112 0.561599 3
-1.903344 -7.183301 0.556139 3
-1.924717 -7.195578 0.555403 1
-1.946002 -7.227741 0.553424 1
-1.966464 -7.251840 0.551943 1
-1.989859 -6.932540 0.571842 1
-2.011511 -6.920562 0.572599 8
-2.031982 -6.896533 0.574101 9
-2.051369 -6.884419 0.574858 6
-2.070821 -6.884217 0.574869 7
-2.092193 -6.875935 0.575378 10
-2.112792 -6.883561 0.574893 16
-2.133173 -6.879141 0.575154 16
-2.153630 -6.878642 0.575167 8
-2.172944 -6.874110 0.575428 5
-2.193119 -6.865491 0.575938 4
-2.213964 -6.876751 0.575206 5
-2.233707 -6.883988 0.574722 5
-2.254856 -6.875115 0.575234 5
-2.276320 -6.874143 0.575249 5
-2.297162 -6.881118 0.574767 7
-2.316602 -6.880101 0.574781 7
-2.335809 -6.875033 0.575044 5
-2.357271 -6.873764 0.575061 4
-2.378222 -6.880450 0.574580 5
-2.397929 -6.883147 0.574347 4
-2.418397 -6.881723 0.574363 8
-2.439159 -6.884209 0.574131 4
-2.476291 -7.081561 0.561731 1
-2.510844 -7.242997 0.551566 1
-2.531143 -7.237292 0.551832 2
-2.549310 -7.195635 0.554334 2
-2.566825 -7.149952 0.557085 3
-2.581651 -7.068355 0.562072 3
-2.588664 -6.935296 0.570284 7
-2.602766 -6.869665 0.574275 11
-2.623187 -6.867526 0.574295 12
-2.642288 -6.853411 0.575059 9
-2.662534 -6.859183 0.574581 67
-2.684309 -6.868731 0.573857 108
-2.702337 -6.846490 0.575118 110
-2.725134 -6.863813 0.573898 110
-2.744017 -6.849366 0.574664 110
-2.764366 -6.846735 0.574685 110
-2.784705 -6.844031 0.574706 110
-2.805582 -6.845212 0.574480 110
-2.825459 -6.846462 0.574253 110
-2.845354 -6.847644 0.574026 110
-2.865696 -6.844659 0.574048 110
-2.887645 -6.845394 0.573824 110
-2.909209 -6.850150 0.573352 110
-2.930189 -6.850884 0.573127 110
-2.950809 -6.855649 0.572654 110
-2.970160 -6.852464 0.572676 110
-2.990866 -6.844934 0.572950 101
-2.498127 -3.826645 0.762948 4
-2.497484 -3.769979 0.766431 4
-2.496217 -3.709335 0.770162 2
-2.498223 -3.668352 0.772653 2
-2.500700 -3.631309 0.774896 1
-2.503690 -3.598200 0.776891 1
-2.508014 -3.572933 0.778390 1
-2.509435 -3.531928 0.780881 1
-2.514974 -3.514495 0.781884 1
-2.521605 -3.504960 0.782391 2
-2.523180 -3.471981 0.784385 1
-2.527928 -3.450541 0.785636 1
-2.539420 -3.460284 0.784905 2
-2.537016 -3.411738 0.787889 2
-2.542284 -3.398267 0.788644 2
-2.547392 -3.380708 0.789647 1
-2.554716 -3.374897 0.789907 1
-2.556954 -3.349747 0.791405 1
-2.560914 -3.332368 0.792407 1
-2.565566 -3.314792 0.793410 1
-2.570669 -3.301185 0.794165 1
-2.575287 -3.287671 0.794919 0
-2.581605 -3.277815 0.795427 1
-2.582419 -3.248734 0.797172 1
-2.590197 -3.246687 0.797185 0
-2.592786 -3.225336 0.798434 1
-2.597333 -3.211698 0.799189 0
-2.602474 -3.202009 0.799696 0
-2.604709 -3.180670 0.800946 0
-2.611536 -3.174599 0.801206 0
-2.616848 -3.164778 0.801713 0
-2.622843 -3.158887 0.801973 0
-2.625789 -3.141384 0.802975 0
-2.628620 -3.123886 0.803977 0
-2.634806 -3.117857 0.804237 0
-2.639787 -3.107995 0.804744 0
-2.645891 -3.101936 0.805004 0
-2.645978 -3.076815 0.806500 1
-2.653156 -3.074548 0.806513 0
-2.655434 -3.057054 0.807515 0
-2.663779 -3.058550 0.807281 0
-2.665895 -3.041054 0.808282 1
-2.668809 -3.027472 0.809036 1
-2.678365 -3.032691 0.808555 1
-2.679294 -3.011299 0.809804 1
-2.685895 -3.009036 0.809817 1
-2.690207 -2.999090 0.810324 1
-2.693129 -2.985374 0.811078 1
-2.699987 -2.982943 0.811091 1
-2.706836 -2.980488 0.811105 1
-2.712310 -2.974258 0.811365 1
-2.719129 -2.971760 0.811379 1
-2.721759 -2.958014 0.812133 1
-2.731334 -2.962956 0.811653 1
-2.732436 -2.945465 0.812654 1
-2.743452 -2.954077 0.811928 2
-2.748418 -2.947879 0.812188 2
-2.753687 -2.941539 0.812449 2
-2.757450 -2.931473 0.812956 2
-2.764453 -2.928684 0.812971 2
-2.770780 -2.926139 0.812984 2
-2.778940 -2.927133 0.812752 2
-2.782549 -2.917021 0.813260 2
-2.790372 -2.918102 0.813027 2
-2.798542 -2.919012 0.812795 2
-2.800486 -2.905189 0.813549 3
-2.813688 -2.916919 0.812579 8
-2.807613 -2.884758 0.814565 9
-2.823715 -2.903876 0.813102 33
-2.817390 -2.871770 0.815088 28
-2.818976 -2.857966 0.815841 11
-2.829979 -2.866164 0.815117 4
-2.844669 -2.881434 0.813900 7
-2.852826 -2.882104 0.813669 23
-2.852300 -2.864769 0.814669 11
-2.860423 -2.865402 0.814438 2
-2.870583 -2.869460 0.813962 2
-2.884212 -2.880681 0.812994 7
-2.890703 -2.877584 0.813010 17
-2.886432 -2.853055 0.814501 6
-2.899507 -2.864459 0.813532 1
-2.906263 -2.861150 0.813549 1
-2.914140 -2.861711 0.813318 0
-2.925928 -2.869219 0.812596 1
-2.932379 -2.865976 0.812613 1
-2.938818 -2.862710 0.812629 1
-2.943422 -2.855871 0.812892 1
-2.951663 -2.856112 0.812663 1
-2.956219 -2.849241 0.812925 1
-2.964782 -2.849255 0.812697 1
-2.971163 -2.845877 0.812714 1
-2.975327 -2.839128 0.812976 1
-2.983254 -2.839396 0.812746 1
-2.991829 -2.839286 0.812519 1
-2.998175 -2.835813 0.812536 0
-2.998703 -2.821842 0.813290 0
-3.010831 -2.828800 0.812571 0
-3.008988 -2.811524 0.813569 0
-3.021474 -2.804437 0.813604 3
-3.027699 -2.800861 0.813622 2
-3.039933 -2.807616 0.812903 3
-3.048188 -2.807419 0.812676 2
-3.050359 -2.796875 0.813185 2
-3.058601 -2.796628 0.812957 2
-3.068909 -2.799768 0.812485 2
-3.077184 -2.799442 0.812258 2
-3.079232 -2.788854 0.812767 2
-3.087493 -2.788478 0.812540 3
-3.097558 -2.791650 0.812068 2
-3.103738 -2.787808 0.812086 2
-3.114156 -2.790703 0.811615 3
-3.114224 -2.776494 0.812370 3
-3.124651 -2.779322 0.811899 3
-3.137274 -2.785455 0.811183 3
-3.140950 -2.778325 0.811446 3
-3.149268 -2.777673 0.811220 3
-3.155398 -2.773651 0.811240 3
-3.161514 -2.769608 0.811259 3
-3.169836 -2.768861 0.811034 3
-3.180398 -2.771389 0.810564 3
-3.188749 -2.770561 0.810339 3
-3.192600 -2.763106 0.810604 3
-3.198678 -2.758933 0.810624 3
-3.209298 -2.761297 0.810155 2
-3.215370 -2.757065 0.810175 2
-3.221428 -2.752813 0.810195 2
-3.232095 -2.755049 0.809727 2
-3.240468 -2.753985 0.809503 2
-3.248850 -2.752884 0.809279 2
-3.252547 -2.745284 0.809544 2
-3.265634 -2.750569 0.808832 2
-3.269301 -2.742927 0.809097 2
-3.280068 -2.744898 0.808630 2
-3.290864 -2.746815 0.808163 2
-3.299287 -2.745488 0.807940 2
-3.307717 -2.744124 0.807717 2
-3.308881 -2.733203 0.808227 2
-3.319725 -2.734953 0.807760 2
-3.328151 -2.733491 0.807538 2
-3.346411 -2.744580 0.806340 2
-3.347189 -2.733829 0.806849 2
-3.355345 -2.732483 0.806626 2
-3.366293 -2.733985 0.806161 2
-3.374769 -2.732319 0.805939 2
-3.385761 -2.733719 0.805474 2
-3.391736 -2.728872 0.805497 2
-3.400227 -2.727091 0.805276 2
-3.416350 -2.734505 0.804324 2
-3.419774 -2.726482 0.804591 2
-3.425724 -2.721516 0.804614 2
-3.436807 -2.722632 0.804150 2
-3.447914 -2.723691 0.803687 2
-3.456450 -2.721660 0.803467 2
-3.467597 -2.722614 0.803004 2
-3.476150 -2.720496 0.802784 2
-3.484707 -2.718340 0.802565 2
-3.495904 -2.719140 0.802102 2
-3.504477 -2.716896 0.801883 2
-3.515711 -2.717591 0.801421 2
-3.524299 -2.715259 0.801202 2
-3.532889 -2.712888 0.800984 2
-3.541481 -2.710477 0.800765 2
-3.547375 -2.705086 0.800790 2
-3.555960 -2.702606 0.800572 2
-3.567268 -2.703009 0.800111 2
-3.575866 -2.700441 0.799893 2
-3.589654 -2.703916 0.799189 2
-3.592773 -2.695463 0.799457 2
-3.612419 -2.704314 0.798269 2
-3.618290 -2.698676 0.798295 2
-3.635266 -2.704476 0.797350 2
-3.635556 -2.693048 0.797861 2
-3.652592 -2.698710 0.796917 3
-3.666877 -2.701437 0.796216 2
-3.681200 -2.704086 0.795515 3
-3.689901 -2.701023 0.795300 3
-3.698601 -2.697921 0.795084 2
-3.710150 -2.697573 0.794626 3
-3.724871 -2.699651 0.793928 3
-3.739336 -2.701946 0.793229 3
-3.747785 -2.698936 0.793013 2
-3.753637 -2.692825 0.793040 3
-3.768164 -2.694931 0.792342 2
-3.782726 -2.696956 0.791644 2
-3.797324 -2.698900 0.790946 2
-3.806103 -2.695331 0.790732 2
-3.811942 -2.689017 0.790761 2
-3.823651 -2.688072 0.790305 2
-3.847198 -2.697803 0.788883 3
-3.861940 -2.699368 0.788187 17
-3.846685 -2.674534 0.789907 2
-3.873332 -2.686656 0.788244 2
-3.879140 -2.680107 0.788273 2
-3.896932 -2.684070 0.787337 2
-3.905742 -2.680061 0.787125 2
-3.923606 -2.683847 0.786189 2
-3.929404 -2.677122 0.786219 2
-3.938217 -2.672969 0.786007 2
-3.962259 -2.681674 0.784590 2
-3.974162 -2.679954 0.784138 2
-3.989141 -2.680730 0.783445 2
-4.001076 -2.678874 0.782993 2
-4.022270 -2.684566 0.781819 2
-4.034253 -2.682550 0.781368 2
-4.046247 -2.680471 0.780918 2
-4.061360 -2.680834 0.780226 2
-4.073383 -2.678617 0.779776 2
-4.091669 -2.681303 0.778845 2
-4.097457 -2.673992 0.778877 2
-4.115796 -2.676506 0.777947 2
-4.127872 -2.674012 0.777498 2
-4.136796 -2.669014 0.777290 2
-4.152049 -2.668830 0.776601 2
-4.167327 -2.668560 0.775912 2
-4.182630 -2.668203 0.775224 2
-4.201151 -2.670155 0.774296 2
-4.213306 -2.667229 0.773849 2
-4.225181 -2.664628 0.773400 2
-4.250226 -2.671022 0.771993 2
-4.265659 -2.670210 0.771306 2
-4.274644 -2.664631 0.771101 2
-4.286861 -2.661338 0.770655 2
-4.315341 -2.669563 0.769009 2
-4.337677 -2.672591 0.767846 2
-4.346702 -2.666715 0.767642 2
-4.358990 -2.663078 0.767198 2
-4.371283 -2.659375 0.766754 2
-4.386583 -2.658282 0.766069 2
-4.408789 -2.661182 0.764906 2
-4.424428 -2.659475 0.764223 2
-4.440084 -2.657677 0.763541 2
-4.445788 -2.649150 0.763578 1
-4.481440 -2.660420 0.761458 1
-4.500507 -2.660510 0.760538 2
-4.522951 -2.662665 0.759378 2
-4.542087 -2.662516 0.758459 2
-4.557891 -2.660099 0.757779 2
-4.580447 -2.661878 0.756621 2
-4.592917 -2.657124 0.756181 1
-4.612153 -2.656543 0.755263 1
-4.634807 -2.657956 0.754107 2
-4.640511 -2.648749 0.754147 1
-4.670022 -2.654113 0.752513 1
-4.692778 -2.655145 0.751358 1
-4.718992 -2.658099 0.749964 1
-4.734978 -2.654744 0.749288 1
-4.757557 -2.655852 0.748133 2
-4.783900 -2.658368 0.746741 2
-4.807132 -2.658216 0.745591 2
-4.830113 -2.658411 0.744440 2
-4.853131 -2.658464 0.743289 2
-4.865775 -2.652448 0.742855 1
-4.885364 -2.650292 0.741943 1
-4.915421 -2.653875 0.740317 1
-4.942050 -2.655328 0.738929 1
-4.989704 -2.668181 0.736112 6
-4.998659 -2.660175 0.735916 20
-5.020307 -2.645403 0.735289 1
-5.057954 -2.651236 0.733193 1
-5.088339 -2.653622 0.731571 1
-5.104918 -2.647854 0.730905 1
-5.131841 -2.648057 0.729523 1
-5.158803 -2.648091 0.728142 1
-5.189359 -2.649773 0.726523 1
-5.219965 -2.651263 0.724905 1
-5.246767 -2.651332 0.723524 1
-5.277178 -2.653023 0.721905 1
-5.304341 -2.652184 0.720527 1
-5.327952 -2.649419 0.719388 1
-5.362361 -2.651740 0.717536 1
-5.386315 -2.648056 0.716401 1
-5.417213 -2.648249 0.714788 1
-5.455375 -2.651656 0.712701 1
-5.489700 -2.653733 0.710850 1
-5.520740 -2.653305 0.709241 1
-5.540935 -2.647677 0.708344 1
-5.575669 -2.648547 0.706498 1
-5.617731 -2.652480 0.704178 1
-5.648927 -2.651250 0.702572 1
-5.698699 -2.657260 0.699783 2
-5.744334 -2.662632 0.697227 4
-5.764697 -2.655918 0.696335 4
-5.770388 -2.642767 0.696390 1
-5.831131 -2.653083 0.692892 1
-5.866241 -2.652124 0.691054 1
-5.912442 -2.655560 0.688506 1
-5.947646 -2.654111 0.686670 2
-5.964697 -2.644173 0.686021 1
-5.999948 -2.642330 0.684187 1
-6.042644 -2.643237 0.681880 1
-6.070553 -2.637965 0.680520 1
-6.127916 -2.644935 0.677267 1
-6.185370 -2.651541 0.674014 1
-6.354960 -2.700162 0.663675 1
-6.342440 -2.677072 0.664924 1
-6.296186 -2.641407 0.668299 1
-6.339231 -2.640369 0.666000 1
-6.397303 -2.644587 0.662758 1
-6.462957 -2.651160 0.659045 1
-6.570016 -2.672227 0.652737 2
-6.602079 -2.665677 0.651152 0
-11.930861 -4.532169 0.317613 6
-11.909147 -4.485620 0.319882 1
-21.008385 -7.593602 -0.247830 2
-20.943201 -7.500806 -0.242143 2
-20.881392 -7.409794 -0.236694 2
-20.869516 -7.332449 -0.234296 2
-20.880079 -7.262785 -0.233313 2
-20.844839 -7.178241 -0.229504 2
-20.813038 -7.095247 -0.225932 2
-20.811321 -7.022260 -0.224244 2
-18.475727 -6.210566 -0.078255 1
-18.555662 -6.169121 -0.081768 1
-18.553576 -6.108328 -0.080362 1
-18.604759 -6.063854 -0.082250 1
-18.660524 -6.017336 -0.084360 1
-18.693197 -5.963688 -0.085058 1
-12.539795 -4.101381 0.293615 1
-12.562005 -4.067894 0.293063 5
-12.444140 -3.957019 0.301819 0
-12.349359 -3.850607 0.309173 40
-12.378934 -3.740268 0.309631 0
-12.345381 -3.694842 0.312354 0
-12.362402 -3.660687 0.312035 0
-12.340582 -3.616720 0.314061 1
-12.368974 -3.585406 0.313038 2
-12.377432 -3.551008 0.313181 5
-12.347385 -3.505444 0.315674 2
-12.387094 -3.476664 0.313949 7
-12.298806 -3.415958 0.319961 1
-12.342147 -3.388016 0.318003 2
-12.295821 -3.339615 0.321429 2
-12.350245 -3.315838 0.318762 3
-12.296175 -3.264282 0.322661 1
-12.292242 -3.225819 0.323511 1
-12.303795 -3.190703 0.323426 2
-12.279664 -3.150043 0.325437 1
-12.380955 -3.133265 0.319976 6
-12.321711 -3.083709 0.324097 1
-12.387635 -3.059206 0.320742 29
-12.268570 -2.959626 0.328986 1
-12.301522 -2.891462 0.328114 59
-12.296207 -2.853393 0.328962 41
-12.444531 -2.769041 0.321704 0
-12.444675 -2.694190 0.322702 4
-12.422849 -2.653394 0.324482 9
-12.456126 -2.621235 0.323001 40
-12.509052 -2.591816 0.320356 21
-12.831829 -2.564789 0.302261 1
-12.924178 -2.539071 0.297297 3
-13.234383 -2.540256 0.279547 11
-13.326989 -2.510533 0.274599 5
-13.561865 -2.500402 0.261274 3
-13.733402 -2.480756 0.251676 3
-13.983975 -2.471612 0.237425 2
-14.302287 -2.466614 0.219240 3
-14.509366 -2.448925 0.207558 2
-14.748460 -2.431174 0.194034 3
-14.928021 -2.405388 0.183999 2
-15.179052 -2.385775 0.169791 1
-15.378447 -2.359255 0.158606 1
-20.224321 -2.780124 -0.123802 2
-20.210489 -2.714651 -0.122383 2
-20.232218 -2.652501 -0.123053 2
-20.249756 -2.589878 -0.123490 2
-20.203402 -2.521899 -0.120218 2
-20.208799 -2.455172 -0.119947 2
-20.173655 -2.391778 -0.117386 2
-20.210211 -2.330628 -0.118981 2
-20.234610 -2.268420 -0.119882 2
-20.230900 -2.204247 -0.119161 2
-20.234938 -2.140604 -0.118903 2
-20.190914 -2.074176 -0.115869 2
-20.186523 -2.010240 -0.115150 2
-20.146013 -1.944518 -0.112349 2
-20.137178 -1.880606 -0.111399 2
-20.116150 -1.816240 -0.109756 2
-20.114843 -1.752839 -0.109270 2
-20.077400 -1.688130 -0.106704 2
-20.059681 -1.624358 -0.105295 2
-19.989849 -1.559164 -0.100884 2
-19.943733 -1.495098 -0.097860 1
-19.929255 -1.435224 -0.096697 1
-19.906652 -1.372168 -0.095060 1
-19.911781 -1.309727 -0.095040 1
-19.880753 -1.246799 -0.092943 1
-19.877457 -1.184348 -0.092461 1
-19.869968 -1.118781 -0.091737 1
-19.834278 -1.056332 -0.089412 1
15.067342 0.470865 0.039165 1
15.080141 0.414927 0.038515 1
15.084793 0.358279 0.038285 1
15.077539 0.297710 0.038674 1
15.130046 0.238620 0.035897 1
15.194093 0.182998 0.032500 1
15.166289 0.120852 0.033940 1
15.217994 0.063934 0.031172 1
15.213684 0.003350 0.031350 1
15.229104 -0.056075 0.030476 1
15.276229 -0.113921 0.027916 1
15.291244 -0.173647 0.027040 1
15.357924 -0.231110 0.023425 1
15.384505 -0.290702 0.021916 1
15.446688 -0.346043 0.018521 1
15.460897 -0.406528 0.017643 1
15.446949 -0.467988 0.018241 1
15.452750 -0.528781 0.017784 1
15.454270 -0.586660 0.017551 1
15.407742 -0.648613 0.019839 1
15.444863 -0.708740 0.017694 1
15.393909 -0.770382 0.020195 1
15.382678 -0.831231 0.020584 1
15.335287 -0.892263 0.022876 1
15.307653 -0.952885 0.024113 1
15.307770 -1.013301 0.023870 1
15.307684 -1.070697 0.023640 1
15.319372 -1.131190 0.022763 1
15.322860 -1.191686 0.022309 1
15.370070 -1.252797 0.019527 1
15.385115 -1.313699 0.018437 1
15.454566 -1.433734 0.014151 7
15.457079 -1.491722 0.013707 5
15.403410 -1.551073 0.016218 1
15.521199 -1.615894 0.009616 1
15.546941 -1.678100 0.007888 1
15.572461 -1.740492 0.006158 1
15.577806 -1.802184 0.005489 1
15.634803 -1.866410 0.002061 1
15.659651 -1.929401 0.000330 1
15.684275 -1.992576 -0.001402 1
15.740571 -2.057800 -0.004833 1
15.700948 -2.117496 -0.003168 1
15.768944 -2.180877 -0.007226 1
15.732890 -2.240702 -0.005773 1
15.748427 -2.304036 -0.007082 1
15.763739 -2.367494 -0.008391 1
15.774841 -2.430758 -0.009489 1
15.793679 -2.494776 -0.011012 1
15.748614 -2.553442 -0.009130 1
15.743140 -2.615387 -0.009376 1
15.785174 -2.681773 -0.012176 1
15.731544 -2.739221 -0.009867 1
15.725421 -2.801106 -0.010112 1
15.727028 -2.863796 -0.010783 1
15.740662 -2.924704 -0.012082 1
15.733891 -2.986620 -0.012327 1
15.726905 -3.048512 -0.012571 1
15.727636 -3.111315 -0.013243 1
15.736076 -3.175112 -0.014340 1
15.704651 -3.234037 -0.013304 1
15.732457 -3.300410 -0.015470 1
15.736255 -3.363865 -0.016354 1
15.747742 -3.428449 -0.017666 1
15.758994 -3.493141 -0.018979 1
15.781873 -3.559636 -0.020932 1
15.800551 -3.625742 -0.022673 1
15.818985 -3.692009 -0.024414 1
15.825806 -3.753507 -0.025502 1
15.851656 -3.821288 -0.027672 1
15.952182 -3.901310 -0.033907 1
15.922293 -3.960724 -0.033083 1
15.978873 -4.034497 -0.036968 1
16.007597 -4.103980 -0.039355 1
16.020315 -4.170949 -0.040887 1
16.024921 -4.236640 -0.041990 1
9.035257 -3.068897 0.337736 1
8.777213 -3.057983 0.351313 1
8.648441 -3.072159 0.357813 2
8.437395 -3.069301 0.368821 0
8.293086 -3.078310 0.376188 1
8.141015 -3.084742 0.383987 2
7.969471 -3.086086 0.392864 2
7.844942 -3.096148 0.399170 7
7.732183 -3.107880 0.404834 5
7.521902 -3.097564 0.415871 1
7.467792 -3.120409 0.418320 3
7.331815 -3.124449 0.425283 3
7.130106 -3.110803 0.435911 0
7.037158 -3.122747 0.440517 1
6.951645 -3.137468 0.444690 2
6.765909 -3.124254 0.454470 1
6.696414 -3.139707 0.457794 1
6.588146 -3.145106 0.463272 1
6.464453 -3.145884 0.469614 0
6.367953 -3.152729 0.474452 0
6.218001 -3.174192 0.481772 0
6.125504 -3.180288 0.486401 1
5.959416 -3.167398 0.495123 1
5.851696 -3.167769 0.500621 1
5.782939 -3.176729 0.503970 0
5.644614 -3.167162 0.511199 0
5.621701 -3.189460 0.511959 0
5.625973 -3.218042 0.511214 0
5.610579 -3.242409 0.511543 0
5.587449 -3.264430 0.512304 0
5.273472 -3.199195 0.529478 0
5.235239 -3.215294 0.531108 0
5.135819 -3.239653 0.535668 2
5.082305 -3.250153 0.538166 8
4.880773 -3.211801 0.549102 2
4.797045 -3.211295 0.553335 8
4.713406 -3.210232 0.557570 11
4.728083 -3.242340 0.556177 15
4.708915 -3.262014 0.556736 8
4.712790 -3.288085 0.556001 10
4.750181 -3.327005 0.553313 24
4.730756 -3.346639 0.553873 25
4.730540 -3.371582 0.553354 25
4.722700 -3.393888 0.553269 25
4.725232 -3.422544 0.552524 25
4.735582 -3.452790 0.551351 24
4.730796 -3.477657 0.551044 18
4.737159 -3.506669 0.550087 24
4.732174 -3.531568 0.549780 24
4.738310 -3.560689 0.548823 25
4.740592 -3.588462 0.548082 24
4.742762 -3.616281 0.547341 25
4.744820 -3.644147 0.546600 24
4.743048 -3.670598 0.546076 24
4.741640 -3.695892 0.545557 24
4.739667 -3.722382 0.545033 23
4.740817 -3.751566 0.544287 23
4.742806 -3.778442 0.543550 23
4.736823 -3.803488 0.543243 23
4.734432 -3.830063 0.542719 23
4.731938 -3.856656 0.542195 22
4.733016 -3.884830 0.541453 22
4.733978 -3.913045 0.540712 22
4.731161 -3.939713 0.540187 22
4.732414 -3.966823 0.539450 22
4.733041 -3.995149 0.538708 20
4.726256 -4.020261 0.538401 5
4.759440 -4.063399 0.535698 21
4.741498 -4.083672 0.536045 22
4.741648 -4.112181 0.535303 22
4.745306 -4.142406 0.534342 22
4.745216 -4.171005 0.533599 22
4.748621 -4.201344 0.532638 22
4.741076 -4.226598 0.532331 22
4.744240 -4.257022 0.531370 23
4.744248 -4.284591 0.530631 11
4.743573 -4.313371 0.529888 11
4.742778 -4.342187 0.529145 11
4.738873 -4.368083 0.528624 11
4.741422 -4.398745 0.527663 11
4.743838 -4.429465 0.526701 11
4.753239 -4.463872 0.525301 11
4.755378 -4.494732 0.524339 11
4.757383 -4.525650 0.523377 11
4.723866 -4.538106 0.524600 3
4.762595 -4.618736 0.520488 9
4.757025 -4.646098 0.519962 10
4.755497 -4.674186 0.519222 11
4.753213 -4.703483 0.518478 10
4.761306 -4.738583 0.517077 12
4.734307 -4.754415 0.517865 5
4.700962 -4.765035 0.519096 2
4.733078 -4.813892 0.516161 3
4.695479 -4.823563 0.517607 0
15.934092 -11.286809 -0.193758 9
15.797811 -11.291454 -0.187634 11
15.701346 -11.322465 -0.184149 7
15.555025 -11.319518 -0.177362 6
15.445120 -11.332962 -0.172753 6
15.323224 -11.342683 -0.167494 6
15.215169 -11.359905 -0.163111 6
15.050737 -11.346381 -0.155224 12
14.960028 -11.372543 -0.151932 6
14.831924 -11.375177 -0.146224 8
14.719398 -11.382545 -0.141379 8
14.596846 -11.382935 -0.135874 10
14.487757 -11.399014 -0.131485 6
14.377215 -11.409437 -0.126863 6
14.270168 -11.421366 -0.122459 6
14.227032 -11.473771 -0.122228 6
14.173678 -11.519479 -0.121337 19
14.081931 -11.535897 -0.117796 36
14.041776 -11.589774 -0.117782 38
14.021405 -11.656753 -0.119087 19
13.967566 -11.701510 -0.118191 19
13.830812 -11.690216 -0.111794 24
13.458272 -11.513846 -0.089538 32
13.368788 -11.531667 -0.086213 36
13.341854 -11.592051 -0.087069 50
13.275316 -11.625041 -0.085283 28
13.193788 -11.651192 -0.082623 22
13.061904 -11.637431 -0.076428 26
13.036369 -11.694258 -0.077271 12
12.891799 -11.670012 -0.070189 18
12.859628 -11.721671 -0.070589 15
12.685019 -11.670064 -0.061289 15
12.629748 -11.712034 -0.060382 9
12.544080 -11.727520 -0.057259 16
12.543772 -11.801856 -0.059860 16
12.519187 -11.941544 -0.063757 24
12.028929 -11.649656 -0.032602 31
11.969501 -11.681602 -0.031233 46
11.862526 -11.676749 -0.026552 33
11.765229 -11.678617 -0.022531 22
11.671239 -11.682390 -0.018729 10
11.547841 -11.658603 -0.012707 61
12.519284 -12.503613 -0.084017 22
12.475973 -12.551738 -0.083979 14
11.335969 -11.719913 -0.006143 26
11.223971 -11.706154 -0.001005 19
11.099842 -11.681660 0.005020 33
11.016202 -11.689345 0.008173 35
10.941908 -11.704205 0.010664 40
10.867668 -11.718676 0.013157 22
10.784301 -11.725067 0.016315 26
10.694939 -11.725858 0.019918 24
10.592375 -11.711031 0.024637 6
10.533718 -11.736754 0.026030 22
10.465956 -11.754381 0.028088 16
10.355982 -11.735032 0.033247 9
10.237270 -11.707166 0.039074 26
10.193881 -11.744543 0.039365 9
10.111512 -11.747323 0.042537 16
9.898131 -11.632685 0.055460 43
9.768895 -11.591418 0.062183 21
9.714139 -11.616361 0.063368 33
9.685925 -11.665257 0.062559 31
9.686943 -11.741082 0.059532 31
9.573161 -11.711350 0.065154 22
9.426497 -11.646317 0.073447 64
9.307700 -11.609700 0.079518 48
9.160243 -11.544982 0.087810 60
9.172656 -11.630630 0.083901 46
9.161515 -11.694410 0.081767 49
9.078148 -11.688980 0.085182 43
8.994955 -11.683099 0.088598 43
8.969085 -11.732576 0.087576 39
8.924945 -11.760494 0.088115 28
8.846677 -11.754524 0.091320 19
8.736538 -11.723715 0.096735 46
8.493346 -11.554568 0.112824 20
8.464924 -11.599652 0.112029 30
8.412977 -11.617206 0.113242 46
8.328495 -11.604897 0.116895 38
8.222929 -11.573834 0.122099 26
8.199859 -11.623848 0.120864 22
8.198633 -11.696933 0.117849 55
8.062344 -11.628155 0.125733 56
8.043533 -11.678905 0.124283 35
8.025355 -11.734314 0.122605 42
7.982446 -11.763393 0.122929 39
7.912373 -11.762952 0.125480 35
7.899895 -11.828663 0.123129 42
7.802976 -11.798156 0.127908 52
7.697557 -11.753556 0.133585 38
7.638684 -11.763560 0.135251 71
7.574545 -11.767321 0.137363 61
7.505207 -11.764782 0.139921 45
7.441274 -11.767892 0.142036 55
7.311042 -11.690809 0.149950 16
7.339841 -11.803356 0.144040 31
7.246716 -11.767665 0.148838 39
7.170221 -11.754329 0.152071 24
7.110141 -11.763499 0.153741 33
7.084746 -11.805870 0.152747 17
7.093149 -11.892662 0.148626 27
6.912249 -11.752277 0.161007 3
6.465666 -11.287218 0.196813 15
6.394346 -11.273443 0.199836 8
6.366051 -11.311981 0.199068 10
6.789083 -11.909856 0.158136 4
6.349133 -11.510080 0.190745 11
6.332264 -11.564229 0.188862 23
6.588756 -11.967164 0.162198 11
6.447403 -11.864749 0.171476 6
6.355735 -11.824667 0.176290 60
6.534420 -12.135701 0.156316 12
6.546399 -12.232126 0.151527 27
6.107143 -11.733236 0.188511 20
6.085959 -11.779219 0.187081 15
6.229849 -12.050655 0.170006 36
6.013006 -11.838617 0.186672 17
6.176278 -12.140019 0.167582 17
6.252775 -12.326559 0.156535 22
5.966777 -12.011101 0.180142 17
5.963340 -12.087471 0.176697 15
5.952503 -12.154202 0.173922 53
5.647945 -11.807224 0.199549 17
6.056137 -12.467467 0.156072 12
5.540411 -11.814519 0.202507 6
5.507226 -11.847340 0.201974 3
5.455791 -11.853741 0.203232 8
5.399536 -11.848729 0.205165 3
5.341506 -11.844747 0.207096 3
5.252722 -11.798687 0.211933 37
5.203953 -11.807333 0.212970 12
5.148594 -11.805783 0.214680 19
5.112778 -11.829431 0.214604 21
5.068442 -11.844162 0.215196 16
4.993683 -11.811795 0.218924 43
4.925717 -11.789117 0.221982 29
4.888073 -11.813228 0.221905 19
4.854620 -11.843955 0.221380 14
4.799786 -11.840765 0.223096 13
4.747172 -11.840714 0.224589 13
4.692540 -11.837031 0.226308 13
4.640105 -11.836503 0.227803 12
4.595878 -11.844822 0.228630 11
4.553910 -11.860946 0.229006 14
4.497530 -11.852934 0.230952 18
4.441287 -11.844661 0.232898 18
4.391271 -11.846446 0.234173 13
4.347250 -11.853798 0.235004 14
4.295452 -11.856271 0.236278 15
4.245614 -11.857420 0.237555 14
4.195844 -11.858353 0.238834 16
4.146066 -11.854525 0.240340 20
4.098408 -11.858510 0.241396 19
4.048851 -11.858809 0.242677 22
4.003233 -11.865882 0.243510 22
3.948032 -11.855264 0.245465 27
3.896797 -11.851408 0.246973 22
3.845662 -11.847327 0.248482 24
3.804059 -11.856092 0.249096 24
3.758676 -11.866712 0.249705 22
3.707746 -11.862011 0.251216 23
3.664358 -11.866719 0.252058 22
3.613598 -11.861601 0.253570 18
3.562943 -11.856261 0.255084 19
3.516016 -11.857819 0.256149 18
3.467348 -11.855615 0.257439 21
3.420549 -11.856775 0.258506 21
3.379250 -11.863959 0.259126 21
3.337963 -11.870988 0.259748 19
3.293043 -11.875197 0.260592 16
3.241208 -11.864842 0.262335 14
3.191067 -11.862368 0.263628 13
3.148043 -11.869599 0.264249 12
3.099934 -11.865820 0.265546 13
3.053601 -11.865457 0.266618 10
3.004201 -11.853152 0.268368 6
2.964685 -11.866923 0.268543 5
2.927029 -11.879692 0.268721 5
2.879000 -11.879464 0.269793 3
2.834286 -11.886328 0.270417 3
3.581270 -13.678256 0.161091 3
2.747703 -11.885217 0.272351 2
2.701496 -11.887884 0.273202 2
2.655658 -11.885877 0.274281 10
2.613012 -11.891033 0.274910 6
2.570386 -11.896025 0.275541 8
2.558468 -11.974595 0.271673 10
2.544939 -12.045036 0.268257 19
1.116887 -12.004173 0.295756 0
1.078517 -12.014987 0.295732 28
0.590682 -12.021080 0.302034 19
0.550453 -12.022277 0.302469 21
0.511136 -12.027220 0.302679 9
-1.352101 -7.300612 0.583473 40
-1.376711 -7.287049 0.584378 48
-1.405400 -7.229661 0.587764 52
-1.428918 -7.211815 0.588894 53
-1.498260 -7.149704 0.592739 0
-1.524966 -7.083734 0.596577 0
-1.547770 -7.049434 0.598610 0
-1.594989 -6.992750 0.602003 103
-1.617126 -6.974201 0.603135 112
-1.638402 -6.967529 0.603592 111
-1.658818 -6.956735 0.604274 112
-1.680193 -6.945927 0.604957 111
-1.702522 -6.935094 0.605640 111
-1.723362 -6.932107 0.605872 111
-1.744351 -6.925058 0.606330 112
-1.763460 -6.937845 0.605661 113
-1.784414 -6.930653 0.606119 112
-1.805315 -6.923388 0.606578 112
-1.825928 -6.924032 0.606586 112
-1.848410 -6.852743 0.610653 21
-1.868686 -6.857230 0.610436 10
-1.888687 -6.877617 0.609318 12
-1.908953 -6.889950 0.608651 14
-1.927060 -7.002034 0.602349 8
-1.946522 -7.165987 0.593118 3
-1.968872 -7.202084 0.591100 2
-1.990407 -7.234105 0.589308 1
-2.012127 -7.246082 0.588643 2
-2.032988 -7.285944 0.586401 20
-2.054550 -7.249850 0.588441 6
-2.092771 -6.913894 0.607395 3
-2.112964 -6.893570 0.608534 13
-2.132445 -6.893164 0.608546 9
-2.153975 -6.892640 0.608559 7
-2.174597 -6.896059 0.608347 8
-2.194979 -6.891423 0.608585 7
-2.215331 -6.886716 0.608824 8
-2.234789 -6.885970 0.608837 7
-2.256640 -6.893051 0.608402 8
-2.277332 -6.896109 0.608191 9
-2.298251 -6.903082 0.607755 13
-2.317763 -6.902061 0.607769 13
-2.338068 -6.896930 0.608010 7
-2.356882 -6.867811 0.609602 1
-2.422375 -7.243774 0.588239 3
-2.442681 -7.222345 0.589383 2
-2.464333 -7.220763 0.589401 2
-2.485044 -7.207160 0.590094 2
-2.504360 -7.177568 0.591688 2
-2.522797 -7.139958 0.593733 4
-2.539915 -7.090361 0.596453 5
-2.545663 -6.921419 0.605927 8
-2.561044 -6.875847 0.608421 27
-2.579512 -6.853983 0.609565 20
-2.599468 -6.847953 0.609809 17
-2.619813 -6.845826 0.609828 12
-2.641895 -6.859506 0.608947 103
-2.665881 -6.888976 0.607167 113
-2.684880 -6.882770 0.607411 113
-2.704868 -6.876379 0.607657 112
-2.725841 -6.869793 0.607903 112
-2.747778 -6.879109 0.607249 113
-2.768230 -6.876464 0.607271 112
-2.787651 -6.873885 0.607291 112
-2.808630 -6.875056 0.607088 112
-2.830090 -6.872054 0.607111 112
-2.850069 -6.873222 0.606908 112
-2.870500 -6.870220 0.606931 112
-2.892544 -6.870938 0.606730 112
-2.914198 -6.875679 0.606304 112
-2.932986 -6.868673 0.606551 112
-2.952381 -6.865547 0.606574 112
-2.974461 -6.865957 0.606374 112
-2.995885 -6.862347 0.606400 112
-3.017310 -6.870817 0.605749 112
-3.036336 -6.859366 0.606224 112
-3.057429 -6.859644 0.606024 111
-3.076361 -6.848063 0.606499 75
-2.540599 -3.787231 0.781377 2
-2.538566 -3.726574 0.784759 2
-2.540875 -3.689451 0.786794 1
-2.544545 -3.660167 0.788379 1
-2.547652 -3.626887 0.790188 1
-2.548403 -3.585905 0.792447 1
-2.551825 -3.560656 0.793806 1
-2.558108 -3.547015 0.794492 2
-2.561678 -3.521672 0.795852 2
-2.563301 -3.488548 0.797660 1
-2.570112 -3.478786 0.798122 2
-2.574116 -3.457344 0.799257 2
-2.581692 -3.451442 0.799494 2
-2.586928 -3.437856 0.800179 1
-2.591543 -3.420283 0.801089 1
-2.594105 -3.394957 0.802449 1
-2.600428 -3.385128 0.802910 1
-2.605107 -3.367442 0.803821 1
-2.608248 -3.345997 0.804955 0
-2.614936 -3.340107 0.805192 1
-2.617850 -3.318662 0.806326 1
-2.621671 -3.301079 0.807236 1
-2.627504 -3.291197 0.807697 0
-2.632199 -3.277456 0.808383 0
-2.637896 -3.267551 0.808845 0
-2.640220 -3.246120 0.809979 0
-2.645754 -3.236204 0.810440 0
-2.650842 -3.226389 0.810901 0
-2.656255 -3.216451 0.811362 0
-2.665076 -3.217970 0.811151 0
-2.661046 -3.177450 0.813405 0
-2.668575 -3.175130 0.813419 0
-2.674899 -3.168973 0.813656 0
-2.678768 -3.155186 0.814341 0
-2.682549 -3.141399 0.815027 0
-2.686242 -3.127611 0.815712 0
-2.689847 -3.113823 0.816397 0
-2.695891 -3.107614 0.816635 0
-2.697709 -3.090157 0.817543 0
-2.702715 -3.080026 0.818005 0
-2.703390 -3.058684 0.819138 0
-2.707518 -3.048799 0.819598 1
-2.710613 -3.035018 0.820283 1
-2.714961 -3.025002 0.820745 1
-2.724666 -3.030008 0.820311 1
-2.726209 -3.012458 0.821220 1
-2.730400 -3.002416 0.821681 1
-2.738711 -3.003597 0.821471 2
-2.745632 -3.001007 0.821485 2
-2.748284 -2.987194 0.822170 2
-2.752282 -2.977114 0.822631 2
-2.759111 -2.974477 0.822645 2
-2.767048 -2.975667 0.822435 2
-2.772400 -2.969265 0.822673 2
-2.779201 -2.966557 0.822688 2
-2.784157 -2.960260 0.822925 2
-2.790926 -2.957511 0.822939 2
-2.796501 -2.950907 0.823178 2
-2.802038 -2.944289 0.823417 2
-2.808752 -2.941478 0.823432 2
-2.811997 -2.931434 0.823892 2
-2.818666 -2.928588 0.823907 2
-2.825325 -2.925719 0.823922 2
-2.830374 -2.919167 0.824161 2
-2.838281 -2.920058 0.823952 2
-2.840364 -2.906028 0.824637 2
-2.850221 -2.910368 0.824206 2
-2.858136 -2.911176 0.823998 2
-2.866397 -2.911800 0.823790 2
-2.871651 -2.904987 0.824030 2
-2.873160 -2.891076 0.824715 2
-2.877986 -2.884404 0.824953 3
-2.887592 -2.888697 0.824522 4
-2.894111 -2.885588 0.824538 2
-2.898881 -2.878860 0.824777 3
-2.905366 -2.875711 0.824793 3
-2.910076 -2.868957 0.825032 4
-2.920078 -2.872923 0.824603 5
-2.926542 -2.869700 0.824619 6
-2.934796 -2.870020 0.824413 7
-2.935809 -2.856071 0.825097 15
-2.941894 -2.852957 0.825113 10
-2.939415 -2.831766 0.826243 5
-2.956840 -2.849710 0.824924 4
-2.970353 -2.860659 0.824050 8
-2.973025 -2.850208 0.824512 8
-2.981296 -2.850321 0.824307 4
-2.989899 -2.850225 0.824102 3
-2.998196 -2.850265 0.823897 2
-3.008109 -2.853945 0.823469 7
-3.010634 -2.843428 0.823931 8
-3.012781 -2.833094 0.824392 2
-3.023342 -2.836329 0.823966 1
-3.027705 -2.829273 0.824206 5
-3.037986 -2.832607 0.823779 4
-3.044308 -2.828973 0.823797 4
-3.054635 -2.832220 0.823371 5
-3.060641 -2.828713 0.823388 5
-3.068981 -2.828438 0.823184 5
-3.077333 -2.828127 0.822981 5
-3.081584 -2.820932 0.823221 5
-3.087865 -2.817146 0.823240 5
-3.094446 -2.813147 0.823259 6
-3.104886 -2.816119 0.822834 5
