# .PCD v.7 - Point Cloud Data file format
VERSION .7
FIELDS x y z intensity
SIZE 4 4 4 1
TYPE F F F U
COUNT 1 1 1 1
WIDTH 1491
HEIGHT 1
VIEWPOINT 0 0 0 1 0 0 0
POINTS 1491
DATA ascii
-6.705824 -1.878862 0.018522 1
-6.701996 -1.861351 0.021701 1
-6.755145 -1.908186 0.006123 1
-6.711659 -1.852687 0.021359 1
-6.721278 -1.843973 0.021019 1
-6.727345 -1.838428 0.020804 1
-6.733395 -1.832863 0.020590 1
-6.739743 -1.826984 0.020365 1
-6.746070 -1.821082 0.020141 1
-6.752377 -1.815158 0.019918 1
-6.758663 -1.809212 0.019695 1
-6.764928 -1.803244 0.019473 1
-6.771173 -1.797255 0.019252 1
-6.777396 -1.791244 0.019032 1
-6.783598 -1.785211 0.018812 1
-6.789780 -1.779156 0.018593 1
-6.795940 -1.773080 0.018375 1
-6.802079 -1.766982 0.018157 1
-6.807891 -1.761169 0.017951 1
-6.814292 -1.754722 0.017724 1
-6.820671 -1.748252 0.017498 1
-6.826421 -1.742378 0.017294 1
-6.795876 -1.700943 0.028267 2
-6.808763 -1.701658 0.025908 2
-6.816057 -1.696874 0.025269 6
-6.830681 -1.698510 0.022468 6
-6.846756 -1.701407 0.019236 10
-6.835825 -1.684519 0.023427 10
-6.842267 -1.674759 0.023579 9
-6.852637 -1.672183 0.022070 9
-6.859857 -1.667216 0.021433 9
-6.871376 -1.666183 0.019503 9
-6.865604 -1.649289 0.022750 9
-6.878259 -1.649827 0.020399 9
-6.876428 -1.637227 0.022366 10
-6.896932 -1.643547 0.017835 10
-6.895317 -1.630615 0.019794 12
-6.896564 -1.620298 0.020890 12
-6.900700 -1.612564 0.021124 11
-6.901857 -1.602260 0.022223 11
-6.917469 -1.605050 0.019007 11
-6.924503 -1.599800 0.018377 11
-6.912195 -1.578068 0.023377 9
-6.922400 -1.575021 0.021874 9
-6.933830 -1.573503 0.019946 10
-6.940773 -1.568175 0.019319 10
-6.947430 -1.563149 0.018702 5
-6.955853 -1.559002 0.017642 5
-6.980913 -1.568388 0.011808 1
-6.986607 -1.561308 0.011605 1
-6.992006 -1.554546 0.011413 1
-6.994965 -1.550819 0.011308 1
-7.002466 -1.541305 0.011041 1
-7.007795 -1.534488 0.010852 1
-7.013100 -1.527651 0.010663 1
-7.018382 -1.520797 0.010475 1
-7.023377 -1.514268 0.010297 1
-7.028612 -1.507377 0.010110 1
-7.033822 -1.500468 0.009925 1
-7.039009 -1.493541 0.009740 1
-7.044171 -1.486596 0.009556 1
-7.049565 -1.479285 0.009364 1
-7.054677 -1.472303 0.009182 1
-7.059766 -1.465303 0.009000 1
-7.064577 -1.458637 0.008829 1
-7.069617 -1.451603 0.008649 1
-7.074633 -1.444552 0.008470 1
-7.079375 -1.437836 0.008301 1
-7.084095 -1.431105 0.008133 1
-7.089039 -1.424003 0.007957 1
-7.093958 -1.416884 0.007781 1
-7.103723 -1.402594 0.007433 1
-7.108567 -1.395423 0.007260 1
-7.113387 -1.388236 0.007088 1
-7.115787 -1.384636 0.007002 1
-7.090909 -1.351503 0.015490 1
-7.127931 -1.366211 0.006568 1
-7.132413 -1.359320 0.006408 1
-7.137107 -1.352049 0.006240 1
-7.141775 -1.344762 0.006074 1
-7.146418 -1.337459 0.005908 1
-7.151034 -1.330140 0.005743 1
-7.155626 -1.322805 0.005578 1
-7.160192 -1.315453 0.005415 1
-7.164732 -1.308086 0.005253 1
-7.169247 -1.300703 0.005091 1
-7.173736 -1.293305 0.004930 1
-7.178198 -1.285890 0.004771 1
-7.182635 -1.278460 0.004612 1
-7.187047 -1.271015 0.004454 1
-7.191432 -1.263554 0.004297 1
-7.195791 -1.256078 0.004141 1
-7.200123 -1.248587 0.003986 1
-7.204216 -1.241456 0.003839 1
-7.208711 -1.233559 0.003678 1
-7.212965 -1.226023 0.003525 1
-7.217193 -1.218472 0.003374 1
-7.221185 -1.211285 0.003231 1
-7.202818 -1.196120 0.008446 1
-7.229719 -1.195731 0.002924 1
-7.233840 -1.188122 0.002776 1
-7.237936 -1.180498 0.002629 1
-7.242005 -1.172861 0.002483 1
-7.246047 -1.165208 0.002338 1
-7.250063 -1.157542 0.002194 1
-7.254052 -1.149862 0.002051 1
-7.258014 -1.142168 0.001908 1
-7.261753 -1.134846 0.001774 1
-7.265663 -1.127125 0.001633 1
-7.269545 -1.119391 0.001494 1
-7.273593 -1.111255 0.001348 1
-7.277420 -1.103493 0.001210 1
-7.281220 -1.095717 0.001074 1
-7.288739 -1.080127 0.000803 52
-7.292458 -1.072312 0.000669 1
-7.296149 -1.064485 0.000536 1
-7.299813 -1.056644 0.000404 1
-7.303449 -1.048791 0.000273 1
-7.310462 -1.033441 0.000020 52
-7.315784 -1.021600 -0.000172 52
-7.321045 -1.009732 -0.000362 1
-7.324691 -1.001409 -0.000494 1
-7.328135 -0.993469 -0.000618 1
-7.331551 -0.985517 -0.000742 1
-7.334939 -0.977553 -0.000864 1
-7.338299 -0.969578 -0.000986 1
-7.341466 -0.961990 -0.001100 1
-7.344936 -0.953592 -0.001226 1
-7.354523 -0.929929 -0.001573 1
-7.364021 -0.905765 -0.001917 52
-7.370212 -0.889600 -0.002142 52
-7.376290 -0.873393 -0.002363 52
-7.382256 -0.857144 -0.002580 52
-7.385196 -0.849004 -0.002687 1
-7.392422 -0.828610 -0.002950 52
-7.396672 -0.816343 -0.003104 1
-7.402238 -0.799953 -0.003307 1
-7.404979 -0.791743 -0.003407 1
-7.413028 -0.767058 -0.003701 1
-7.415784 -0.758399 -0.003802 1
-7.418509 -0.749729 -0.003902 1
-7.420946 -0.741876 -0.003991 1
-7.423357 -0.734016 -0.004079 1
-7.425868 -0.725733 -0.004171 1
-7.428349 -0.717441 -0.004262 1
-7.430801 -0.709141 -0.004352 1
-7.449265 -0.642860 -0.005032 52
-7.451458 -0.634487 -0.005113 1
-7.459933 -0.600921 -0.005426 1
-7.487446 -0.474500 -0.006453 52
-7.489051 -0.465995 -0.006514 1
-7.495172 -0.431920 -0.006745 1
-7.495903 -0.427655 -0.006773 1
-7.498054 -0.414851 -0.006855 1
-7.499451 -0.406310 -0.006908 1
-7.507203 -0.354961 -0.007206 52
-7.510563 -0.330087 -0.007336 1
-7.519432 -0.252263 -0.007687 52
-7.520261 -0.243647 -0.007720 1
-7.521060 -0.235029 -0.007752 1
-7.523277 -0.209158 -0.007843 1
-7.523955 -0.200529 -0.007872 1
-7.524572 -0.192330 -0.007897 1
-7.526369 -0.165992 -0.007974 52
-7.527840 -0.140501 -0.008039 1
-7.528279 -0.131857 -0.008059 1
-7.529085 -0.114132 -0.008096 52
-7.529432 -0.105484 -0.008113 1
-7.529749 -0.096834 -0.008128 1
-7.530036 -0.088183 -0.008143 1
-7.530293 -0.079532 -0.008156 1
-7.530519 -0.070879 -0.008169 1
-7.530715 -0.062226 -0.008180 1
-7.530881 -0.053572 -0.008190 1
-7.531017 -0.044918 -0.008200 1
-7.531123 -0.036263 -0.008208 1
-7.531199 -0.027608 -0.008215 1
-7.531255 -0.014625 -0.008224 52
-7.531201 0.006580 -0.008233 52
-7.531132 0.014803 -0.008235 1
-7.531023 0.023890 -0.008236 1
-7.530881 0.032977 -0.008236 1
-7.530715 0.041631 -0.008234 1
-7.530519 0.050284 -0.008232 1
-7.530293 0.058937 -0.008229 1
-7.530036 0.067588 -0.008224 1
-7.529764 0.075806 -0.008219 1
-7.529465 0.084024 -0.008213 1
-7.529121 0.092672 -0.008206 1
-7.528747 0.101319 -0.008197 1
-7.528342 0.109965 -0.008187 1
-7.527908 0.118610 -0.008177 1
-7.527419 0.127685 -0.008164 1
-7.526369 0.145397 -0.008137 52
-7.525811 0.154035 -0.008122 1
-7.525252 0.162238 -0.008107 1
-7.524667 0.170440 -0.008091 1
-7.523346 0.187700 -0.008054 1
-7.521904 0.204951 -0.008012 1
-7.521138 0.213572 -0.007990 1
-7.520342 0.222191 -0.007967 1
-7.519474 0.231238 -0.007941 1
-7.518617 0.239850 -0.007916 1
-7.517729 0.248460 -0.007889 1
-7.516811 0.257067 -0.007862 1
-7.465466 0.260416 0.003858 1
-7.514836 0.274700 -0.007802 1
-7.513827 0.283296 -0.007771 1
-7.512787 0.291889 -0.007739 1
-7.509547 0.317216 -0.007640 52
-7.508449 0.325364 -0.007605 1
-7.507203 0.334367 -0.007567 1
-7.505985 0.342936 -0.007529 1
-7.504738 0.351501 -0.007490 1
-7.503525 0.359633 -0.007452 1
-7.502220 0.368190 -0.007410 1
-7.500885 0.376741 -0.007368 1
-7.499451 0.385716 -0.007323 1
-7.498054 0.394258 -0.007279 1
-7.495245 0.410900 -0.007189 1
-7.493686 0.419853 -0.007139 1
-7.490625 0.436891 -0.007041 52
-7.489051 0.445402 -0.006991 1
-7.487446 0.453907 -0.006939 1
-7.485894 0.461982 -0.006889 1
-7.477197 0.504816 -0.006608 52
-7.475476 0.512856 -0.006552 1
-7.471767 0.529765 -0.006432 1
-7.467940 0.546647 -0.006307 1
-7.465982 0.555077 -0.006243 1
-7.463995 0.563501 -0.006178 1
-7.461979 0.571918 -0.006112 1
-7.459933 0.580328 -0.006045 1
-7.457859 0.588731 -0.005977 1
-7.455860 0.596707 -0.005911 1
-7.449265 0.622268 -0.005694 52
-7.440205 0.655681 -0.005395 52
-7.418251 0.729964 -0.004668 1
-7.407825 0.762523 -0.004321 1
-7.376441 0.852398 -0.003272 52
-7.354683 0.908938 -0.002541 1
-7.345101 0.932603 -0.002219 52
-7.331891 0.964133 -0.001774 52
-7.258409 1.120813 0.000710 52
-7.230339 1.174007 0.001662 1
-7.183299 1.256762 0.003261 52
-7.540898 1.779146 -0.013091 1
-7.383222 1.980364 -0.007690 1
-7.297504 2.076648 -0.004747 1
-7.275908 2.099664 -0.004005 17
-7.253333 2.123224 -0.003229 1
-7.192940 2.183866 -0.001152 1
-7.170633 2.205429 -0.000384 17
-7.146938 2.227862 0.000431 1
-7.197679 2.315000 -0.017039 1
-7.123400 2.249680 0.001242 1
-7.076047 2.292216 0.002873 17
-7.068406 2.298916 0.003137 1
-6.994921 2.361120 0.005670 17
-6.927568 2.414778 0.007994 17
-6.924531 2.481459 -0.000074 17
-7.002386 2.605124 -0.026024 1
-6.854287 2.590480 -0.005192 1
-6.827427 2.608907 -0.004264 17
-6.825346 2.728409 -0.019906 17
-6.806195 2.740731 -0.019244 17
-6.796587 2.746841 -0.018912 1
-6.767637 2.764971 -0.017910 17
-6.748232 2.776888 -0.017239 17
-6.702139 2.721936 -0.004330 1
-6.719949 2.793927 -0.016260 1
-6.604637 2.796581 -0.003469 17
-6.621126 2.850468 -0.012839 1
-6.611136 2.855932 -0.012493 1
-6.567762 2.798789 0.000322 1
-6.591101 2.866754 -0.011799 1
-6.530548 2.898377 -0.009701 17
-6.503335 2.867998 -0.002473 1
-6.449320 2.938310 -0.006885 17
-6.439025 2.943173 -0.006528 1
-6.356069 2.980776 -0.003651 1
-6.314730 2.998484 -0.002217 1
-5.988595 3.115559 0.009111 17
-5.521472 3.418380 -0.006041 17
-5.425613 3.430192 -0.002700 17
-5.354124 3.437239 -0.000207 17
-5.337340 -3.261080 0.035192 1
-5.348679 -3.260064 0.034795 1
-5.360014 -3.259008 0.034399 1
-5.371346 -3.257912 0.034003 1
-5.382673 -3.256777 0.033607 1
-5.396742 -3.283108 0.028746 1
-5.405315 -3.254388 0.032815 1
-5.416631 -3.253134 0.032419 1
-5.427941 -3.251841 0.032023 1
-5.439247 -3.250509 0.031628 1
-5.450549 -3.249136 0.031232 1
-5.461845 -3.247725 0.030837 1
-5.473136 -3.246274 0.030442 1
-5.483859 -3.244858 0.030067 1
-5.495140 -3.243330 0.029672 1
-5.506415 -3.241763 0.029278 1
-5.517686 -3.240156 0.028883 1
-5.528951 -3.238510 0.028489 1
-5.534581 -3.237672 0.028292 1
-5.551462 -3.235100 0.027701 1
-5.562709 -3.233335 0.027307 1
-5.573950 -3.231532 0.026914 1
-5.580818 -3.202404 0.031042 1
-5.596412 -3.227808 0.026128 1
-5.607633 -3.225887 0.025735 1
-5.618847 -3.223927 0.025342 1
-5.630054 -3.221927 0.024950 1
-5.641255 -3.219889 0.024557 1
-5.652448 -3.217811 0.024165 1
-5.663075 -3.215801 0.023793 1
-5.674254 -3.213647 0.023402 1
-5.685425 -3.211454 0.023011 1
-5.697146 -3.209110 0.022600 1
-5.708302 -3.206837 0.022209 1
-5.718892 -3.204642 0.021838 1
-5.729475 -3.202412 0.021468 1
-5.741163 -3.199906 0.021058 1
-5.752285 -3.197479 0.020668 1
-5.763400 -3.195014 0.020279 1
-5.773951 -3.192636 0.019909 1
-5.785603 -3.189967 0.019501 1
-5.796690 -3.187385 0.019112 1
-5.793913 -3.147499 0.025450 1
-5.818285 -3.182240 0.018356 1
-5.829899 -3.179408 0.017949 1
-5.831616 -3.138335 0.024128 1
-5.844418 -3.143254 0.022432 1
-5.863023 -3.171084 0.016788 1
-5.874044 -3.168232 0.016401 1
-5.869268 -3.104221 0.026552 1
-5.895507 -3.162560 0.015649 1
-5.905950 -3.159744 0.015283 1
-5.916932 -3.156742 0.014898 1
-5.927903 -3.153702 0.014513 1
-5.928344 -3.112602 0.020737 1
-5.949813 -3.147507 0.013744 1
-5.961298 -3.144193 0.013342 1
-5.972226 -3.140998 0.012958 1
-5.983141 -3.137765 0.012575 1
-5.993501 -3.134658 0.012212 1
-6.004940 -3.131185 0.011811 1
-6.015821 -3.127837 0.011429 1
-6.026147 -3.124622 0.011067 1
-6.015402 -3.053570 0.022675 1
-6.047310 -3.117915 0.010324 1
-6.046182 -3.076836 0.016603 1
-6.063558 -3.112658 0.009754 1
-6.079779 -3.107316 0.009185 1
-6.090576 -3.103707 0.008806 1
-6.101361 -3.100061 0.008427 1
-6.112672 -3.096192 0.008030 1
-6.123431 -3.092469 0.007653 1
-6.116139 -3.036526 0.016644 1
-6.144373 -3.085100 0.006918 1
-6.131970 -3.014149 0.018584 1
-6.147752 -3.025213 0.015534 1
-6.177026 -3.073289 0.005771 1
-6.187171 -3.069539 0.005415 1
-6.197836 -3.065556 0.005040 1
-6.207956 -3.061737 0.004685 1
-6.219125 -3.057477 0.004293 1
-6.229748 -3.053382 0.003920 1
-6.250951 -3.045081 0.003175 1
-6.261531 -3.040875 0.002803 1
-6.271568 -3.036845 0.002451 1
-6.303701 -3.023682 0.001322 17
-6.313681 -3.019512 0.000971 1
-6.376906 -2.992182 -0.001251 1
-6.387300 -2.987536 -0.001617 1
-6.378375 -2.913687 0.009926 17
-6.428197 -2.968832 -0.003055 17
-6.438510 -2.964007 -0.003417 1
-6.488795 -2.939847 -0.005186 17
-6.540179 -2.914050 -0.006994 1
-6.505497 -2.821098 0.009822 1
-6.527924 -2.840528 0.004666 1
-6.567272 -2.819638 0.003281 1
-6.602166 -2.768918 0.006419 17
-6.659564 -2.735841 0.004397 17
-6.669062 -2.730211 0.004062 1
-6.738499 -2.803399 -0.013977 1
-6.748525 -2.681326 0.001262 17
-6.802093 -2.613345 0.003738 1
-6.909496 -2.537760 -0.000052 1
-6.876401 -2.474102 0.012341 1
-6.884985 -2.467719 0.012038 1
-6.927568 -2.435354 0.010534 17
-6.936017 -2.428792 0.010235 1
-6.944442 -2.422201 0.009937 1
-6.969580 -2.402251 0.009049 1
-7.011008 -2.368419 0.007585 17
-7.135832 -2.161202 0.014387 17
-7.232424 -2.022776 0.015325 17
-7.318862 -2.074002 -0.003320 17
-7.253366 -1.999836 0.014581 1
-7.287392 -1.961510 0.013373 17
-7.417353 -1.801668 0.008751 17
-7.401650 -1.776778 0.013669 1
-7.351239 -1.726021 0.026673 1
-7.379263 -1.734456 0.021316 1
-7.395040 -1.732939 0.018886 1
-7.388367 -1.715433 0.021614 2
-7.403827 -1.714225 0.019196 2
-7.401504 -1.700648 0.020835 7
-7.405791 -1.691290 0.020993 7
-7.406842 -1.679638 0.021890 10
-7.420378 -1.677509 0.019851 10
-7.419462 -1.665120 0.021128 9
-7.418777 -1.652342 0.022398 9
-7.427721 -1.646314 0.021456 9
-7.438270 -1.641359 0.020146 9
-7.448813 -1.636350 0.018836 10
-7.456098 -1.629079 0.018265 10
-7.450318 -1.612993 0.020650 10
-7.448213 -1.605521 0.021658 10
-7.455441 -1.591031 0.021711 9
-7.473803 -1.591698 0.018566 9
-7.480676 -1.584735 0.018009 6
-7.471310 -1.566627 0.021145 6
-7.493254 -1.568808 0.017249 4
-7.505303 -1.564509 0.015574 4
-7.543917 -1.576971 0.007970 1
-7.546039 -1.566172 0.008517 1
-7.551452 -1.557458 0.008323 1
-7.501891 -1.502957 0.021296 1
-7.532595 -1.451337 0.020196 1
-7.547541 -1.425289 0.019661 17
-7.557352 -1.407837 0.019309 17
-7.561970 -1.399523 0.019143 1
-7.590729 -1.346224 0.018111 1
-7.613419 -1.302172 0.017296 17
-7.635779 -1.256832 0.016491 1
-7.648684 -1.229713 0.016026 17
-7.652922 -1.220644 0.015874 1
-7.697441 -1.119930 0.014266 17
-7.744853 -0.999278 0.012547 1
-7.774572 -0.914222 0.011465 17
-7.864192 -0.576728 0.008159 1
-7.917740 0.118822 0.005925 1
-7.906022 0.279066 0.006250 1
-5.885881 -4.070350 0.024398 1
-6.374151 -3.728671 0.031557 1
-6.387763 -3.723801 0.031079 1
-6.400709 -3.719117 0.030625 1
-6.585242 -3.646685 0.024143 21
-6.749078 -3.498364 0.026636 1
-6.790664 -3.553015 0.016920 1
-6.877259 -3.509162 0.013873 1
-6.880315 -3.286921 0.037551 1
-7.048640 -3.187137 0.031621 21
-7.135967 -3.130534 0.028542 21
-8.223758 -1.765958 0.005450 1
-8.164578 -1.725911 0.016275 1
-8.130460 -1.685320 0.023542 5
-8.125861 -1.668909 0.025158 5
-8.129889 -1.657237 0.025255 9
-8.153053 -1.655796 0.022006 9
-8.158774 -1.644965 0.021801 8
-8.167958 -1.635951 0.020988 8
-8.170104 -1.623244 0.021394 8
-8.163416 -1.606009 0.023326 8
-8.173965 -1.598388 0.022222 8
-8.198877 -1.597321 0.018668 8
-8.190268 -1.579226 0.020911 9
-8.194224 -1.566835 0.021010 9
-8.187230 -1.549734 0.022952 8
-8.254713 -1.569204 0.012070 8
-8.299253 -1.577001 0.005153 1
-7.335563 5.484754 -0.042978 36
-7.320892 5.503750 -0.043522 2
-7.285238 5.471056 -0.038423 2
-7.256494 5.454806 -0.035143 5
-7.239613 5.468023 -0.035084 5
-7.209594 5.447842 -0.031409 7
-7.203686 5.460871 -0.032081 7
-7.177880 5.479500 -0.031888 10
-7.164371 5.501774 -0.032823 10
-7.155901 5.534829 -0.034986 17
-7.129602 5.523494 -0.032318 17
-7.116473 5.547524 -0.033442 15
-7.098144 5.560669 -0.033332 15
-7.080720 5.573400 -0.033253 17
-7.063900 5.587951 -0.033371 17
-7.041051 5.585560 -0.031700 20
-7.028065 5.611268 -0.033004 20
-7.011369 5.623440 -0.032951 7
-7.007108 5.675462 -0.037015 7
-6.995519 5.706778 -0.038894 2
-6.652489 6.059698 -0.048030 2
-6.624367 6.038263 -0.044595 2
-6.604312 6.043451 -0.043897 2
-6.577396 6.025663 -0.040855 2
-6.562037 6.054155 -0.042427 2
-6.546499 6.082614 -0.043992 2
-6.520613 6.068437 -0.041337 4
-6.496666 6.061906 -0.039450 4
-6.480575 6.084126 -0.040470 7
-6.459305 6.089083 -0.039730 7
-6.438212 6.089838 -0.038645 7
-6.413715 6.085164 -0.036915 7
-6.392643 6.095959 -0.036708 14
-6.375065 6.118134 -0.037675 14
-6.355309 6.130517 -0.037690 19
-6.342978 6.124988 -0.036558 19
-6.310856 6.131674 -0.035440 21
-6.291747 6.147756 -0.035828 21
-6.273302 6.167688 -0.036589 26
-6.255066 6.183444 -0.037007 26
-6.233797 6.183494 -0.035916 26
-6.211102 6.187791 -0.035126 26
-6.189097 6.195924 -0.034710 16
-6.172291 6.227314 -0.036582 16
-6.152293 6.234926 -0.036236 11
-6.138496 6.285852 -0.039967 11
-6.113704 6.265857 -0.036998 11
-6.093902 6.289369 -0.038063 11
-6.073169 6.300841 -0.038042 11
-6.053593 6.320117 -0.038764 11
-6.034403 6.335224 -0.039148 9
-6.011737 6.342730 -0.038710 9
-5.991564 6.359846 -0.039235 6
-5.972397 6.384785 -0.040497 6
-5.952524 6.405723 -0.041384 13
-5.932580 6.418551 -0.041567 13
-5.911786 6.425394 -0.041193 18
-5.887453 6.422584 -0.039818 18
-5.867204 6.443258 -0.040692 27
-5.856743 6.460631 -0.041731 27
-5.825843 6.480460 -0.042058 31
-5.802078 6.473236 -0.040352 31
-5.780105 6.481762 -0.040112 40
-5.759130 6.500118 -0.040785 40
-5.737022 6.508499 -0.040540 47
-5.715061 6.518788 -0.040477 47
-5.692283 6.509063 -0.038630 38
-5.670266 6.519200 -0.038564 38
-5.647308 6.519344 -0.037588 27
-5.625368 6.531314 -0.037700 27
-6.281564 -5.425290 0.034424 2
-6.301391 -5.420748 0.033730 2
-6.320258 -5.416355 0.033069 2
-6.330628 -5.413911 0.032705 2
-6.357003 -5.407600 0.031781 2
-6.376765 -5.402781 0.031088 2
-6.395568 -5.398126 0.030429 2
-6.488402 -5.374113 0.027175 36
-6.580807 -5.348499 0.023934 2
-8.363980 -3.699310 0.012952 2
-8.463013 -3.605166 0.009619 2
-8.549772 -3.520776 0.006545 36
-8.609868 -3.459831 0.004414 2
-8.660284 -3.409938 0.002453 2
-9.291271 -1.668481 0.015088 1
-9.308135 -1.657997 0.013447 1
-9.304591 -1.639570 0.014433 5
-9.315816 -1.626841 0.013512 5
-9.325146 -1.613353 0.012830 5
-9.334433 -1.599820 0.012150 5
-9.336226 -1.583493 0.012427 5
-9.341688 -1.568533 0.012229 5
-9.335892 -1.549511 0.013468 5
-9.361806 -1.541896 0.010640 5
-10.902749 5.540183 -0.069513 33
-10.874712 5.552296 -0.067912 1
-10.782568 5.504361 -0.059432 1
-10.740418 5.502093 -0.056283 1
-10.702167 5.501402 -0.053481 1
-10.683869 5.520109 -0.052852 1
-10.671378 5.527126 -0.052210 1
-10.670539 5.584658 -0.054305 1
-10.797473 6.128201 -0.084159 2
-10.708256 6.075085 -0.075779 2
-10.665388 6.071315 -0.072604 2
-10.644138 6.090874 -0.071872 2
-10.632199 6.120698 -0.072204 4
-10.605438 6.134215 -0.070858 4
-10.563766 6.128823 -0.067724 3
-10.534368 6.139083 -0.066074 3
-10.504965 6.149212 -0.064425 1
-10.492643 6.178710 -0.064743 1
-10.451154 6.172651 -0.061615 1
-9.811672 7.870300 -0.092541 4
-9.797919 7.878599 -0.092065 4
-9.764420 7.910287 -0.091435 4
-9.738782 7.930135 -0.090760 4
-9.706027 7.937836 -0.089096 9
-9.671277 7.941952 -0.087152 9
-9.650459 7.970146 -0.087173 9
-9.610745 7.965351 -0.084527 9
-9.595649 8.003805 -0.085381 13
-9.578388 8.038770 -0.085949 13
-9.549313 8.052783 -0.084836 18
-9.545227 8.112124 -0.087343 18
-9.515907 8.126015 -0.086221 9
-9.496052 8.157341 -0.086487 9
-9.459976 8.158751 -0.084390 4
-9.427697 8.167051 -0.082848 4
-9.402873 8.189338 -0.082412 4
-9.376094 8.208015 -0.081696 4
-9.380119 8.282509 -0.085437 5
-9.373470 8.344441 -0.087960 5
-8.569956 9.569138 -0.102436 33
-8.536516 9.581370 -0.101275 7
-8.528563 9.664901 -0.105021 7
-8.502773 9.699569 -0.105395 7
-8.482053 9.749246 -0.106793 7
-8.443165 9.741715 -0.104383 7
-8.409124 9.753504 -0.103201 7
-8.400614 9.840804 -0.107139 8
-8.587663 10.514989 -0.150681 8
-8.554679 10.538653 -0.150170 10
-8.522813 10.566011 -0.149909 10
-8.488347 10.585677 -0.149135 10
-8.444087 10.574803 -0.146327 10
-8.410737 10.598019 -0.145803 10
-8.378452 10.624941 -0.145528 10
-8.324916 10.583080 -0.140703 9
-8.293736 10.613557 -0.140678 9
-8.257228 10.626736 -0.139515 20
-8.236390 10.624669 -0.138367 20
-8.166147 10.591403 -0.133174 19
-8.120850 10.573454 -0.130011 19
-8.087187 10.595636 -0.129476 9
-8.052327 10.613868 -0.128687 9
-8.025369 10.660842 -0.129760 9
-7.978128 10.634584 -0.126107 9
-7.948550 10.665444 -0.126242 19
-7.904300 10.656712 -0.123645 19
-7.862517 10.649239 -0.121239 19
-7.827809 10.668662 -0.120561 19
-7.789446 10.666215 -0.118592 19
-7.743436 10.640868 -0.115086 19
-7.702908 10.636647 -0.112936 19
-7.655355 10.603179 -0.108954 19
-7.617383 10.608333 -0.107421 18
-7.574357 10.591979 -0.104548 18
-7.531062 10.565299 -0.101137 18
-7.490587 10.558333 -0.098882 18
-7.459502 10.583900 -0.098753 9
-7.424568 10.610208 -0.098489 9
-7.378425 10.585685 -0.095084 18
-7.329320 10.537143 -0.090307 18
-7.310199 10.629042 -0.094191 18
-7.296941 10.658379 -0.095105 18
-7.242674 10.677831 -0.093639 18
-7.205374 10.685425 -0.092340 18
-7.166129 10.683092 -0.090445 18
-7.129923 10.686134 -0.088973 18
-7.096317 10.702786 -0.088332 18
-7.058881 10.720035 -0.087557 18
-7.019563 10.727330 -0.086188 9
-6.974396 10.690901 -0.082287 9
-6.944414 10.728697 -0.082936 9
-6.910303 10.754929 -0.082806 9
-6.868018 10.721661 -0.079217 9
-6.828694 10.728256 -0.077847 9
-6.788064 10.714689 -0.075374 9
-6.753110 10.736475 -0.075003 9
-6.718694 10.749962 -0.074227 9
-6.676317 10.736263 -0.071692 9
-6.637664 10.733975 -0.069922 9
-6.600173 10.739455 -0.068616 9
-6.561564 10.736894 -0.066848 9
-6.525939 10.741850 -0.065606 9
-6.489252 10.738770 -0.063904 9
-6.452410 10.763782 -0.063678 9
-6.414321 10.764651 -0.062139 9
-6.389263 10.731580 -0.059362 9
-6.333509 10.726327 -0.056783 9
-6.296952 10.738680 -0.055932 9
-6.258568 10.735030 -0.054171 9
-6.218950 10.719332 -0.051732 9
-6.183157 10.739239 -0.051330 9
-6.148036 10.766973 -0.051375 9
-6.109622 10.742732 -0.048555 9
-6.073956 10.766250 -0.048369 9
-6.031719 10.718050 -0.044146 9
-5.993945 10.717434 -0.042617 9
-6.012252 -10.973003 -0.044258 33
-6.050490 -10.969576 -0.045595 9
-6.088716 -10.966015 -0.046932 9
-6.126928 -10.962320 -0.048268 9
-6.159563 -10.902856 -0.046506 9
-6.199201 -10.914804 -0.048722 9
-6.239786 -10.934551 -0.051386 9
-6.276132 -10.914452 -0.051828 9
-6.314616 -10.914071 -0.053381 9
-6.119164 -6.709205 0.171188 33
-6.147580 -6.737002 0.168534 2
-7.054995 -10.932315 -0.085929 9
-7.167287 -10.911077 -0.089862 33
-7.224504 -11.001578 -0.097049 10
-6.521016 -6.784186 0.149443 33
-6.535289 -6.736117 0.151224 2
-7.574698 -10.955048 -0.110769 33
-7.611959 -10.942272 -0.111867 10
-7.634753 -10.945105 -0.113081 10
-7.686265 -10.924567 -0.114471 10
-7.733785 -10.945859 -0.117795 10
-7.770959 -10.932542 -0.118891 10
-7.811961 -10.934587 -0.120950 10
-7.854981 -10.944219 -0.123495 10
-7.900100 -10.961412 -0.126528 10
-7.932210 -10.928217 -0.126410 10
-7.975554 -10.945602 -0.129380 10
-8.023197 -10.978241 -0.133331 10
-8.065646 -10.983194 -0.135649 10
-8.101777 -10.964896 -0.136501 10
-8.148601 -10.984921 -0.139802 10
-8.186867 -10.974030 -0.141144 10
-8.227005 -10.962449 -0.142551 10
-7.922059 -8.968581 -0.028211 33
-7.968896 -8.953426 -0.029854 33
-8.015654 -8.938026 -0.031495 5
-8.046780 -8.927625 -0.032587 5
-8.077869 -8.917113 -0.033679 5
-8.110475 -8.905960 -0.034823 5
-11.445533 1.843003 -0.012588 2
-11.416091 1.858549 -0.010311 2
-11.394257 1.876189 -0.008720 2
-11.387637 1.898309 -0.008501 2
-11.380940 1.920406 -0.008278 2
-11.374166 1.942480 -0.008053 2
-17.787903 9.624814 -0.168084 21
-17.709740 9.635274 -0.164382 4
-17.666510 9.672091 -0.162682 4
-17.692688 9.762542 -0.164970 4
-18.476597 10.595984 -0.212550 21
-18.339508 10.563098 -0.205510 4
-18.324356 10.626925 -0.205503 4
-18.259197 10.650585 -0.202612 4
-17.205898 10.591477 -0.151025 21
-17.159838 10.625916 -0.149225 8
-17.074802 10.625714 -0.145138 8
-17.009665 10.638924 -0.142171 8
-16.951630 10.661903 -0.139668 8
-16.908400 10.698012 -0.138037 8
-16.755753 10.634380 -0.129949 8
-16.700878 10.658957 -0.127627 8
-16.630901 10.673100 -0.124457 8
-16.554068 10.676696 -0.120833 12
-16.472975 10.675788 -0.116953 12
-16.409882 10.687547 -0.114092 3
-16.363800 10.718865 -0.112290 3
-16.294538 10.727893 -0.109107 3
-16.147221 10.665030 -0.101311 3
-16.088402 10.682816 -0.098742 11
-16.032892 10.699800 -0.096323 11
-15.968844 10.708129 -0.093393 3
-15.921687 10.699091 -0.091043 3
-15.817392 10.707874 -0.086218 3
-15.698159 10.663257 -0.080005 3
-15.669289 10.708871 -0.079230 3
-15.545967 10.662146 -0.072804 3
-15.501225 10.694803 -0.071119 3
-15.452701 10.719717 -0.069158 3
-15.318764 10.651857 -0.061965 7
-15.293032 10.695952 -0.061334 7
-15.229990 10.700850 -0.058437 3
-15.163289 10.708978 -0.055413 3
-15.055730 10.672964 -0.049892 3
-15.010243 10.699021 -0.048108 3
-14.932194 10.689628 -0.044330 3
-14.878616 10.706351 -0.042048 3
-14.778001 10.671076 -0.036875 6
-14.732646 10.696049 -0.035094 6
-14.685105 10.714691 -0.033130 3
-14.605112 10.700480 -0.029211 3
-14.501513 10.658891 -0.023825 9
-14.445779 10.670774 -0.021396 9
-14.384063 10.671731 -0.018543 3
-14.336277 10.692142 -0.016606 3
-14.270224 10.691136 -0.013530 3
-14.241142 10.695062 -0.012237 3
-14.151402 10.703377 -0.008200 3
-14.018744 10.621922 -0.000940 3
-13.986725 10.659278 0.000019 3
-13.908613 10.641176 0.003874 3
-13.842174 10.636539 0.007000 6
-13.816366 10.681065 0.007563 6
-13.753817 10.680555 0.010446 3
-13.703922 10.695295 0.012530 3
-13.635295 10.686419 0.015804 12
-13.571188 10.686501 0.018742 12
-13.517727 10.695763 0.021058 6
-13.472932 10.715795 0.022821 6
-13.428101 10.735643 0.024586 3
-13.371019 10.739493 0.027136 3
-13.318320 10.744805 0.029462 3
-13.251695 10.735418 0.032632 3
-13.214158 10.763959 0.033928 3
-13.177722 10.793967 0.035150 3
-13.106551 10.777375 0.038622 6
-13.065794 10.805200 0.040065 6
-13.012643 10.812145 0.042372 15
-12.952480 10.809160 0.045138 15
-12.770631 10.637471 0.055874 17
-12.799951 10.717396 0.053376 17
-12.686419 10.673455 0.059145 13
-12.751850 10.845214 0.053662 13
-12.710086 10.862495 0.055286 20
-12.656492 10.870799 0.057572 20
-12.511578 10.742780 0.065983 5
-12.532863 10.854398 0.063365 5
-12.486680 10.864268 0.065287 17
-12.452060 10.895101 0.066375 17
-12.363814 10.846193 0.071054 8
-12.301504 10.835050 0.074004 8
-12.234948 10.816936 0.077246 11
-12.197134 10.841923 0.078553 11
-12.150501 10.853384 0.080455 8
-12.100620 10.859616 0.082578 8
-12.006517 10.796673 0.087713 13
-11.961259 10.809062 0.089531 13
-11.882895 10.768893 0.093616 7
-11.857994 10.812970 0.094044 7
-11.715648 10.668647 0.102548 10
-11.715107 10.751342 0.101301 10
-11.691099 10.796669 0.101661 13
-11.637785 10.794139 0.104048 13
-11.563925 10.757137 0.107869 7
-11.519402 10.725642 0.110314 7
-11.417889 10.674609 0.115562 15
-11.381591 10.698465 0.116782 15
-11.348230 10.727374 0.117792 7
-11.334802 10.790759 0.117390 7
-11.308049 10.831658 0.117918 15
-11.253345 10.823897 0.120426 15
-11.174155 10.772402 0.124686 7
-11.116930 10.758827 0.127390 7
-11.066683 10.757209 0.129599 2
-11.056144 10.827105 0.128953 2
-11.002935 10.819925 0.131373 2
-10.946988 10.807239 0.133997 2
-10.837161 10.693993 0.140546 4
-10.817681 10.747594 0.140535 4
-10.785731 10.778228 0.141425 2
-10.699721 10.706139 0.146282 2
-10.726066 10.843548 0.142950 4
-10.668843 10.830503 0.145619 4
-10.631903 10.851798 0.146863 7
-10.599405 10.881879 0.147773 7
-10.484173 10.743082 0.154943 19
-10.476977 10.822762 0.153965 19
-10.448904 10.861315 0.154541 7
-10.391951 10.793601 0.158067 7
-10.359814 10.871712 0.158170 7
-10.296658 10.837925 0.161406 7
-10.247584 10.832691 0.163577 4
-10.232068 10.997143 0.161553 2
-10.154885 10.931746 0.165889 2
-9.990433 10.675298 0.177040 6
-10.011209 10.819746 0.173794 6
-10.017038 10.933503 0.171680 14
-9.976380 10.945269 0.173198 14
-9.951913 10.993428 0.173433 9
-9.904650 10.990309 0.175470 9
-9.845499 10.959500 0.178460 15
-9.830947 11.031208 0.177882 15
-9.734694 11.013723 0.182196 21
-9.705479 11.052099 0.182777 16
-9.710231 11.283960 0.178717 2
-9.719010 11.418633 0.176105 2
-9.692554 11.468206 0.176374 2
-9.640638 11.454598 0.178753 2
-9.562456 11.373826 0.183342 2
-9.479763 11.221642 0.189313 2
-9.426696 11.259547 0.190867 2
-9.216473 11.053079 0.202996 21
-8.905835 10.681708 0.222001 21
-9.110517 11.377085 0.201846 2
-8.823863 10.687542 0.225245 2
-9.032960 11.404392 0.204541 2
-8.712289 10.721940 0.229193 6
-8.641126 10.634169 0.233575 6
-8.817292 11.289869 0.215240 4
-8.576735 10.689301 0.235236 4
-8.640937 11.147708 0.224791 21
-8.610090 11.323185 0.223017 21
-8.544598 11.251451 0.226879 15
-8.427344 11.147235 0.233368 4
-8.426205 11.214387 0.232255 4
-8.339288 11.135936 0.237077 2
-8.282037 11.083940 0.240256 2
-8.234526 11.064360 0.242485 6
-8.136188 10.863708 0.249866 6
-8.099307 10.878227 0.251076 10
-8.009447 10.699826 0.257730 10
-8.049214 10.987423 0.251161 14
-8.003239 10.977053 0.253157 14
-8.000518 11.122595 0.250731 13
-7.964174 11.142464 0.251815 13
-7.911332 11.090051 0.254805 8
-7.779188 10.729666 0.266279 8
-7.747492 10.762371 0.266950 2
-7.795008 11.119289 0.258852 2
-7.776320 11.212339 0.257954 2
-7.671560 10.945526 0.266711 2
-14.669086 41.672745 -0.544241 21
-7.549400 11.305801 0.265131 2
-14.058164 41.707016 -0.521179 2
-7.467074 11.307249 0.268284 2
-7.571414 11.902352 0.253781 2
-7.510246 11.921210 0.255803 16
-7.279193 10.986823 0.281160 16
-7.298860 11.288734 0.275076 4
-7.272532 11.558661 0.271314 2
-7.200802 11.409450 0.276691 2
-7.066635 11.348518 0.282875 6
-7.066694 11.585989 0.278662 6
-6.842909 10.494421 0.306502 38
-6.803443 10.494959 0.307985 38
-6.853138 11.035897 0.296501 2
-6.820827 11.081583 0.296907 2
-6.813970 11.281005 0.293620 8
-6.761574 11.214197 0.296777 8
-6.719497 11.200280 0.298602 6
-6.694019 11.300999 0.297763 6
-6.703902 11.659096 0.291013 4
-6.623533 11.359392 0.299356 4
-6.556790 11.146492 0.305640 14
-6.543142 11.362086 0.302301 14
-6.453568 11.143724 0.309525 21
-6.451906 11.611265 0.301235 9
-6.348792 11.073776 0.314653 9
-6.260447 10.981105 0.319567 21
-6.226264 11.024993 0.320040 6
-6.186552 11.017053 0.321640 6
-6.152728 11.048580 0.322316 4
-6.101742 10.920933 0.326468 4
-6.071926 11.016096 0.325853 10
-6.036239 11.051424 0.326522 10
-5.655393 -6.725188 0.425338 13
-5.679357 -6.729063 0.424398 15
-5.703355 -6.732852 0.423457 15
-5.727387 -6.736555 0.422515 16
-5.751655 -6.742161 0.421531 16
-5.773677 -6.725805 0.420998 20
-5.797531 -6.727268 0.420096 20
-5.821849 -6.732621 0.419110 31
-5.844379 -6.721994 0.418457 31
-5.868733 -6.727177 0.417470 46
-5.891190 -6.716393 0.416820 46
-5.914579 -6.713470 0.416001 48
-5.943610 -6.754091 0.414240 48
-5.999939 -7.006834 0.407900 1
-6.041854 -6.778947 0.410159 21
-6.055856 -6.710217 0.410787 9
-6.089630 -6.856805 0.407065 9
-6.128415 -6.715278 0.407976 21
-6.151163 -6.707578 0.407248 24
-6.178752 -6.729393 0.405841 24
-6.220801 -6.835878 0.402473 1
-6.251391 -6.871213 0.400725 1
-6.292172 -6.823403 0.399974 21
-6.315933 -6.819078 0.399142 1
-6.339679 -6.814671 0.398311 1
-6.362223 -6.810407 0.397521 1
-6.385938 -6.805838 0.396691 1
-6.396868 -6.736452 0.397425 3
-6.432927 -6.788372 0.395180 3
-6.464585 -6.822731 0.393394 1
-6.480635 -6.786734 0.393374 1
-6.503086 -6.782002 0.392587 1
-6.515248 -6.718049 0.393177 1
-6.542064 -6.728571 0.391966 47
-6.564623 -6.719471 0.391244 47
-6.587291 -6.716411 0.390416 26
-6.607811 -6.693251 0.390001 26
-6.707250 -6.953354 0.381845 21
-6.738330 -6.933582 0.380959 1
-6.739905 -6.830302 0.382596 1
-6.740057 -6.729338 0.384250 3
-6.762998 -6.721510 0.383479 3
-6.786400 -6.715542 0.382659 1
-6.841944 -6.833342 0.378546 1
-6.865736 -6.827096 0.377712 1
-6.874911 -6.770863 0.378270 1
-6.910882 -6.815002 0.376129 1
-6.953647 -6.877928 0.373411 1
-7.025418 -6.857770 0.370894 1
-9.093510 -11.225181 0.217209 21
-9.132608 -11.211034 0.215836 2
-9.153765 -11.147950 0.215972 2
-9.196210 -11.149312 0.214211 2
-9.243455 -11.157275 0.212146 2
-9.287446 -11.162041 0.210263 2
-9.316842 -11.116596 0.209772 2
-9.364207 -11.124048 0.207703 2
-9.418946 -11.149926 0.205036 2
-9.463649 -11.149522 0.203196 2
-9.505442 -11.141511 0.201592 2
-9.545293 -11.134128 0.200057 4
-9.584503 -11.113911 0.198747 4
-9.633842 -11.123939 0.196541 2
-9.680243 -11.126371 0.194572 2
-9.724777 -11.129430 0.192669 2
-9.747266 -11.128642 0.191744 2
-9.802607 -11.092088 0.190002 2
-9.862608 -11.125029 0.186981 2
-9.902607 -11.116374 0.185440 4
-9.949691 -11.113191 0.183514 4
-9.991636 -11.103363 0.181905 4
-10.043378 -11.115271 0.179545 4
-10.083447 -11.105970 0.178002 4
-10.131248 -11.108374 0.175949 4
-10.186648 -11.126921 0.173326 2
-10.217819 -11.092640 0.172534 2
-10.266630 -11.096287 0.170412 4
-10.327496 -11.125026 0.167394 4
-10.373126 -11.121001 0.165519 5
-10.423792 -11.132138 0.163196 5
-10.471970 -11.137666 0.161063 2
-10.520427 -11.138452 0.158987 2
-10.563643 -11.128282 0.157298 2
-10.619338 -11.142991 0.154697 2
-10.662631 -11.132444 0.153005 2
-10.710569 -11.126093 0.151048 2
-10.751135 -11.109857 0.149553 2
-10.806326 -11.121892 0.147004 2
-10.865363 -11.140768 0.144183 2
-10.888474 -11.137703 0.143235 2
-10.954105 -11.121159 0.140655 2
-11.009780 -11.132251 0.138088 2
-11.095931 -11.199406 0.133368 2
-11.132980 -11.179324 0.132064 2
-12.080008 -12.711667 0.068362 21
-12.697967 -11.287372 0.061614 21
-12.748516 -11.277148 0.059494 3
-12.830472 -11.308190 0.055391 3
-13.644626 -11.114373 0.021201 21
-13.729935 -11.144274 0.016910 3
-13.768723 -11.113929 0.015539 3
-13.813595 -11.091294 0.013786 6
-13.877067 -11.091949 0.010871 6
-13.958133 -11.114139 0.006865 6
-13.986780 -11.070551 0.006121 6
-14.028423 -11.047081 0.004515 6
-14.071321 -11.017216 0.002931 6
-14.128721 -11.008819 0.000398 3
-14.235932 -11.060143 -0.005205 3
-14.269940 -11.026572 -0.006340 3
-14.326323 -11.015754 -0.008804 3
-14.367243 -10.986376 -0.010318 3
-14.418446 -10.969010 -0.012464 3
-14.464432 -10.945356 -0.014292 3
-14.515597 -10.927560 -0.016437 3
-14.550999 -10.891459 -0.017623 3
-14.623170 -10.897303 -0.021048 3
-14.666384 -10.869828 -0.022711 3
-14.738750 -10.875029 -0.026143 3
-14.792597 -10.859020 -0.028451 7
-14.878320 -10.916303 -0.033161 7
-14.980951 -10.915000 -0.037933 3
-15.044014 -10.911512 -0.040836 3
-15.104456 -10.904786 -0.043579 3
-15.158708 -10.887222 -0.045901 3
-15.223870 -10.881096 -0.048879 3
-15.302805 -10.889201 -0.052679 3
-15.379171 -10.893986 -0.056321 3
-15.483280 -10.927289 -0.061616 3
-15.524070 -10.893702 -0.063127 3
-15.581423 -10.877198 -0.065628 3
-15.655519 -10.877604 -0.069123 3
-15.740942 -10.889037 -0.073288 3
-15.815338 -10.888632 -0.076794 3
-15.872951 -10.870837 -0.079304 3
-15.939989 -10.865967 -0.082416 3
-16.022251 -10.868201 -0.086335 3
-16.124615 -10.889601 -0.091435 3
-16.197758 -10.889150 -0.094898 3
-16.253819 -10.871625 -0.097354 3
-16.343420 -10.882401 -0.101734 3
-16.424572 -10.884390 -0.105615 4
-16.484602 -10.861916 -0.108212 4
-16.553337 -10.847376 -0.111319 4
-16.643990 -10.890974 -0.116138 4
-16.744822 -10.882535 -0.120851 4
-16.834454 -10.885729 -0.125167 4
-16.901760 -10.871564 -0.128223 4
-16.957298 -10.846292 -0.130595 4
-17.021692 -10.828810 -0.133481 4
-17.113939 -10.839830 -0.138024 4
-18.191231 -10.849560 -0.190028 21
-18.325937 -10.887043 -0.196948 4
-18.385485 -10.858310 -0.199532 4
-18.516453 -10.887095 -0.206186 4
-15.641266 -5.487659 -0.014448 2
-15.695848 -5.468935 -0.017063 2
-15.735238 -5.444507 -0.018870 2
-15.775527 -5.418006 -0.020710 2
-15.805044 -5.385922 -0.021967 2
-16.473843 1.957787 -0.041623 2
-16.435085 1.994073 -0.039730 2
-16.459475 2.039441 -0.041164 2
-17.396147 5.572615 -0.109951 21
-17.283941 5.573308 -0.104252 6
-17.191835 5.582491 -0.099643 6
-17.170439 5.623981 -0.098883 2
-17.206812 5.901053 -0.102952 21
-17.355001 6.187113 -0.112818 21
-17.297699 6.211896 -0.110131 3
-17.227934 6.229968 -0.106761 3
-17.191898 6.265078 -0.105242 9
-17.155766 6.300012 -0.103719 9
-17.156656 6.354315 -0.104232 3
-17.169666 6.415260 -0.105417 3
-17.125675 6.497578 -0.103924 21
-17.291397 8.068172 -0.127123 21
-17.275293 8.146660 -0.127126 7
-17.263559 8.203678 -0.127130 7
-17.244747 8.252980 -0.126709 7
-17.225742 8.302252 -0.126280 7
-17.175282 8.329956 -0.124079 3
-15.091184 7.352833 0.423368 57
-15.038110 7.367538 0.424620 14
-15.015518 7.404675 0.425459 14
-14.984794 7.435738 0.426411 14
-14.987468 7.492014 0.426917 14
-15.008959 7.562944 0.427177 14
-14.966615 7.585410 0.428295 14
-14.997018 7.663937 0.428449 14
-14.891288 7.637105 0.430409 14
-14.806679 7.904150 0.434970 57
-14.764919 7.923723 0.436069 14
-14.772827 7.989731 0.436596 14
-14.766401 8.041432 0.437283 14
-16.791208 10.803574 0.423525 57
-16.418192 10.907964 0.433004 57
-16.280924 10.851480 0.435417 16
-15.832025 10.934792 0.446509 57
-15.453321 10.773141 0.453182 15
-14.989281 10.732505 0.463331 15
-14.881773 10.765983 0.466229 15
-14.913869 10.877298 0.466866 15
-14.792204 10.814646 0.468913 15
-14.698473 10.785818 0.470734 15
-14.650145 10.807375 0.472131 15
-14.612350 10.840740 0.473433 15
-14.510550 10.797005 0.475265 15
-14.341742 10.678804 0.477729 15
-14.369658 10.786861 0.478444 15
-14.164640 10.699059 0.482157 15
-14.067919 10.660400 0.483948 15
-14.089702 10.762271 0.484740 15
-14.013709 10.747543 0.486354 15
-13.963394 10.763264 0.487754 15
-13.913079 10.778764 0.489153 15
-13.824892 10.747509 0.490852 15
-13.882842 10.896217 0.491405 15
-13.799685 10.870745 0.493065 15
-13.759771 10.902657 0.494442 15
-13.659631 10.854469 0.496218 15
-13.574751 10.824594 0.497871 15
-13.522149 10.835275 0.499283 15
-13.459785 10.833066 0.500763 15
-13.406744 10.838616 0.502124 15
-13.339733 10.829479 0.503630 15
-13.301868 10.858269 0.504937 15
-13.162937 10.752653 0.506910 15
-13.151663 10.816085 0.508039 15
-13.076238 10.797410 0.509635 15
-13.006495 10.781778 0.511136 14
-12.952290 10.786791 0.512537 14
-12.921618 10.823945 0.513798 14
-12.883976 10.811683 0.514560 14
-12.829136 10.851078 0.516455 14
-12.744924 10.812828 0.518019 14
-12.681377 10.798964 0.519407 14
-12.657770 10.849729 0.520693 14
-12.553733 10.780818 0.522337 14
-12.554600 10.862876 0.523451 14
-12.462097 10.805067 0.524965 14
-12.413095 10.814242 0.526323 14
-12.335077 10.780073 0.527808 14
-12.304059 10.815333 0.529082 14
-12.226456 10.780504 0.530553 14
-12.166778 10.771996 0.531943 14
-12.152090 10.831854 0.533158 14
-12.114224 10.856497 0.534467 14
-12.022171 10.796907 0.535966 14
-11.993038 10.834583 0.537243 14
-11.839573 10.676203 0.538914 14
-11.736260 10.594775 0.540398 14
-11.743681 10.689240 0.541557 14
-11.809465 10.879120 0.542583 14
-11.733760 10.841212 0.543989 14
-11.635506 10.765335 0.545434 14
-11.562696 10.729982 0.546808 14
-11.595538 10.826960 0.547356 14
-11.524114 10.827771 0.549222 14
-11.490336 10.857110 0.550525 14
-11.415979 10.817326 0.551886 14
-11.364096 10.815193 0.553210 14
-11.302320 10.883148 0.555820 57
-11.264280 10.904823 0.557137 14
-11.200659 10.881052 0.558463 14
-10.882398 10.750525 0.564965 14
-10.929817 10.929406 0.566359 14
-10.763874 10.800145 0.568869 57
-10.789145 10.935948 0.570220 14
-10.690152 10.843158 0.571491 14
-10.619371 10.798645 0.572728 14
-10.763084 11.174412 0.574498 14
-10.647685 11.232402 0.578498 14
-10.276050 10.861773 0.583008 14
-10.203792 10.807590 0.584162 14
-10.167056 10.926528 0.586990 57
-10.056759 10.788087 0.587910 14
-10.080642 10.939994 0.589581 14
-10.063884 11.004763 0.591040 14
-10.004122 10.974679 0.592235 14
-9.929995 10.911422 0.593320 14
-9.914454 10.979548 0.594805 14
-9.856339 11.266160 0.600875 57
-9.678883 11.283683 0.606155 57
-9.696397 11.440618 0.608116 14
-9.322211 10.784571 0.608464 57
-9.056805 11.185130 0.622447 14
-8.868905 10.776410 0.621399 14
-8.973975 11.193091 0.624986 13
-8.768078 10.722571 0.623481 13
-8.699491 10.767050 0.626202 57
-8.646711 10.734096 0.627224 24
-8.563441 10.862309 0.631742 57
-8.521861 10.862985 0.632984 12
-8.481516 10.867318 0.634251 12
-8.497408 11.052988 0.636777 13
-8.335226 10.864072 0.638558 57
-8.256804 10.808094 0.639998 12
-8.233566 10.869066 0.641686 12
-8.191378 11.010157 0.645251 57
-8.075397 10.743605 0.644411 11
-8.042650 10.771365 0.645854 11
-8.071503 11.018507 0.649013 12
-8.024868 11.006236 0.650229 12
-7.980283 10.993264 0.651374 12
-7.970140 11.111712 0.653622 12
-7.922305 11.078639 0.654541 12
-7.838391 10.910159 0.654347 12
-7.845840 11.102127 0.657269 12
-7.747796 10.870925 0.656483 12
-7.754109 11.062890 0.659445 12
-7.551598 10.708009 0.659857 57
-7.532072 10.786357 0.661755 11
-7.553761 11.068496 0.665740 11
-7.501114 11.022820 0.666624 12
-7.421951 10.843585 0.666130 12
-7.402410 10.937775 0.668300 12
-7.391576 10.980954 0.669354 12
-7.329195 10.969426 0.671119 12
-7.276615 10.906657 0.671731 12
-7.243970 10.941738 0.673341 11
-7.205366 10.937092 0.674482 11
-7.169075 10.944096 0.675746 11
-7.126722 10.939902 0.677018 11
-7.077188 10.896210 0.677862 11
-7.029186 10.848024 0.678586 11
-6.980641 10.783550 0.679057 11
-6.963480 10.908363 0.681687 11
-6.927285 10.914564 0.682948 11
-6.881353 10.885768 0.683938 11
-6.839479 10.868318 0.684990 11
-6.803405 10.886260 0.686450 11
-6.767900 10.895882 0.687755 11
-6.728541 10.905966 0.689194 11
-6.685755 10.880018 0.690143 11
-6.648329 10.889531 0.691515 11
-6.611974 10.906836 0.692985 11
-6.573601 10.896022 0.694051 11
-6.535317 10.885074 0.695114 11
-6.496955 10.902248 0.696654 11
-6.454337 10.871433 0.697530 11
-6.433953 10.878029 0.698308 11
-6.381723 10.908591 0.700535 11
-6.339457 10.877329 0.701399 11
-6.300570 10.873725 0.702619 11
-6.255191 10.810345 0.703049 11
-6.219545 10.834283 0.704631 11
-6.170699 10.730782 0.704505 11
-6.153641 10.921419 0.708284 11
-6.115119 10.921134 0.709559 11
-6.074413 10.896815 0.710505 11
-6.033535 10.868362 0.711388 11
-5.664838 -6.739008 0.660731 65
-5.688492 -6.738896 0.659940 68
-5.711393 -6.730738 0.659032 68
-5.735228 -6.732451 0.658270 65
-5.759084 -6.734080 0.657508 65
-5.783591 -6.741590 0.656830 68
-5.807723 -6.745036 0.656094 68
-5.829641 -6.728523 0.655076 81
-5.853306 -6.727830 0.654284 81
-5.878169 -6.736981 0.653630 71
-5.901385 -6.732147 0.652782 71
-5.925336 -6.733185 0.652016 78
-5.947229 -6.718274 0.651034 78
-5.969988 -6.719305 0.650310 81
-5.994206 -6.722078 0.649570 81
-6.018735 -6.726745 0.648856 61
-6.041588 -6.719447 0.647984 61
-6.064401 -6.712071 0.647114 39
-6.078168 -6.724175 0.646884 39
-6.165223 -7.052783 0.649918 3
-6.198583 -7.104230 0.649758 3
-6.218829 -7.072626 0.648546 3
-6.638256 -6.788599 0.630292 57
-6.645421 -6.713008 0.628745 6
-6.656434 -6.702194 0.628215 6
-6.707932 -6.772125 0.627851 3
-8.856364 -11.137162 0.638864 13
-8.901004 -11.134574 0.637513 13
-8.945709 -11.138149 0.636268 13
-8.992479 -11.147207 0.635059 13
-9.026686 -11.126618 0.633714 13
-9.068733 -11.115824 0.632310 13
-9.108821 -11.105574 0.630975 13
-9.154409 -11.110194 0.629734 13
-9.199536 -11.119102 0.628582 13
-9.241079 -11.112124 0.627267 13
-9.296300 -11.146864 0.626265 14
-9.342796 -11.146255 0.624921 14
-9.394632 -11.164855 0.623749 14
-9.437897 -11.160881 0.622446 14
-9.479714 -11.153022 0.621121 14
-9.530439 -11.167292 0.619916 14
-9.570386 -11.159873 0.618657 14
-9.621772 -11.169247 0.617356 14
-9.665244 -11.164402 0.616045 14
-9.699519 -11.137231 0.614624 14
-9.759602 -11.177153 0.613595 14
-9.793070 -11.202127 0.613068 14
-9.853519 -11.176435 0.610944 14
-9.892445 -11.159685 0.609576 14
-9.929369 -11.143647 0.608278 14
-9.970119 -11.125779 0.606845 14
-10.008867 -11.108623 0.605483 14
-10.047555 -11.091331 0.604123 14
-10.245151 -11.221122 0.600784 14
-10.284230 -11.203005 0.599409 14
-10.362197 -11.166362 0.596668 57
-10.680102 -11.234001 0.589094 57
-10.719224 -11.214366 0.587718 14
-10.760227 -11.193601 0.586275 14
-12.785262 -11.391418 0.536653 57
-12.775289 -11.291762 0.535413 15
-14.789913 -11.302825 0.486685 15
-14.813530 -11.250705 0.485414 15
-16.429010 -11.489704 0.451374 16
-16.457695 -11.438661 0.450066 16
-17.134384 -11.332754 0.433574 57
-17.187574 -11.275790 0.431687 16
-13.652567 -7.875570 0.467713 13
-13.620789 -7.791727 0.467382 13
-13.573693 -7.694793 0.467230 12
-13.508937 -6.774595 0.457728 57
-13.524660 -6.738874 0.456986 76
-13.525017 -6.712694 0.456680 76
-13.538773 -6.656487 0.455751 43
-13.555597 -6.621973 0.455006 43
-13.556466 -6.575186 0.454462 63
-13.572972 -6.540655 0.453728 63
-13.586618 -6.506362 0.453059 53
-13.609229 -6.476599 0.452254 53
-13.618947 -6.437143 0.451614 63
-13.636508 -6.403679 0.450879 63
-13.649119 -6.366599 0.450209 63
-13.682013 -6.342225 0.449257 63
-13.729896 -6.330995 0.448138 63
-13.761610 -6.307773 0.447228 63
-13.793797 -6.287097 0.446338 64
-13.828661 -6.265911 0.445389 64
-13.883060 -6.258438 0.444184 32
-14.297743 -6.271025 0.435786 11
-14.402469 -6.294634 0.433888 11
-14.638193 -6.213510 0.428268 12
-14.700140 -6.206047 0.426939 12
-14.799233 -6.221904 0.425094 13
-14.876593 -6.223230 0.423545 13
-14.954079 -6.224091 0.421993 26
-15.026599 -6.221311 0.420506 26
-15.094118 -6.214942 0.419088 27
-15.158306 -6.206083 0.417715 27
-15.244754 -6.210381 0.416026 14
-15.329642 -6.213115 0.414355 14
-15.407813 -6.211216 0.412777 14
-15.460317 -6.193506 0.411563 14
-15.536932 -6.189739 0.410003 14
-15.622274 -6.190566 0.408316 14
-15.683541 -6.176806 0.406972 14
-15.810681 -6.200642 0.404675 14
-15.864121 -6.183859 0.403464 14
-15.926673 -6.166950 0.402074 14
-16.033493 -6.177062 0.400061 14
-16.102093 -6.165066 0.398602 14
-16.220409 -6.182692 0.396435 14
-16.283699 -6.192189 0.395278 14
-16.380198 -6.165849 0.393151 14
-16.468477 -6.162431 0.391394 14
-16.565685 -6.163190 0.389502 14
-16.664803 -6.164283 0.387578 14
-16.771147 -6.168483 0.385543 14
-16.904253 -6.185894 0.383104 14
-17.686909 -6.152459 0.367700 57
-17.812723 -6.158791 0.365336 15
-28.336349 -2.127610 0.156671 57
-28.339609 -2.046034 0.156445 35
-24.010145 0.181563 0.229315 18
-23.600555 1.155673 0.236577 57
-23.648254 1.223795 0.235784 18
-23.775723 1.294578 0.233601 18
-23.777279 1.357039 0.233618 36
-24.464466 7.884451 0.244308 22
-24.351728 7.917121 0.246621 22
-24.340578 7.991278 0.247286 100
-24.323612 8.063133 0.248050 100
-24.297173 8.131068 0.248973 44
-24.273766 8.196352 0.249826 44
-24.268497 8.269488 0.250391 22
-24.268833 8.349223 0.250896 22
-24.239555 8.416186 0.251884 22
-24.268732 8.469018 0.251675 22
-24.213148 8.564516 0.253357 22
-24.228985 8.656047 0.253664 22
-19.365166 7.380248 0.337982 16
-16.630573 7.305861 0.391395 57
-16.529104 7.297778 0.393371 45
-16.485035 7.325836 0.394511 45
-15.889415 7.377780 0.407110 57
-15.853690 7.408697 0.408132 14
-15.781722 7.414391 0.409664 14
-15.777072 7.466616 0.410253 29
-15.731296 7.490132 0.411420 29
-16.128069 10.866046 0.980689 33
-16.017122 10.870130 0.980581 30
-15.933883 10.862945 0.980140 30
-15.853642 10.858150 0.979803 29
-15.791314 10.874734 0.980295 29
-15.843622 11.008223 0.985311 30
-15.805120 11.045688 0.986636 30
-15.768422 11.081155 0.987898 30
-15.379104 10.899890 0.980642 33
-15.270685 10.864619 0.979209 27
-15.232688 10.900087 0.980518 27
-15.161985 10.900200 0.980473 27
-15.072473 10.879339 0.979630 27
-15.050592 10.931840 0.981623 27
-15.012362 10.966540 0.982940 27
-14.842211 10.850766 0.978469 26
-14.804264 10.884739 0.979776 26
-14.707821 10.852781 0.978552 26
-14.654009 10.868285 0.979167 26
-14.633704 10.917993 0.981107 26
-14.417183 10.746017 0.974514 26
-14.418786 10.823915 0.977559 25
-14.313849 10.740135 0.974355 25
-14.187516 10.706063 0.973128 23
-14.155239 10.743862 0.974655 23
-14.153644 10.818325 0.977604 24
-14.054400 10.776166 0.976064 24
-14.024364 10.816635 0.977721 23
-14.024602 10.894103 0.980814 23
-13.943557 10.872546 0.980094 23
-13.809938 10.785301 0.976846 23
-13.777236 10.821907 0.978388 23
-13.715060 10.825546 0.978672 23
-13.682174 10.861856 0.980220 23
-13.624422 10.866641 0.980559 23
-13.579045 10.886912 0.981504 22
-13.484638 10.843804 0.980006 22
-13.385202 10.789219 0.978060 21
-13.359620 10.833991 0.979978 21
-13.338660 10.885086 0.982149 22
-13.233238 10.824405 0.979997 22
-13.252867 10.929602 0.984284 22
-13.181763 10.917714 0.984050 22
-13.077183 10.855775 0.981869 21
-13.006181 10.838416 0.981425 21
-12.972987 10.872455 0.982985 21
-12.930557 10.853806 0.982382 21
-12.849906 10.857594 0.982893 20
-12.805000 10.874841 0.983823 20
-12.801156 10.946098 0.986853 20
-12.683008 10.862940 0.983900 20
-12.551485 10.754779 0.979961 19
