# .PCD v.7 - Point Cloud Data file format
VERSION .7
FIELDS x y z intensity
SIZE 4 4 4 1
TYPE F F F U
COUNT 1 1 1 1
WIDTH 1555
HEIGHT 1
VIEWPOINT 0 0 0 1 0 0 0
POINTS 1555
DATA ascii
-0.221309 6.023777 0.626936 40
-0.205075 6.013907 0.627114 45
-0.180910 6.026571 0.625793 41
-0.162008 6.024089 0.625471 41
-0.142623 6.025608 0.624901 43
-0.125067 6.019232 0.624828 43
-0.106152 6.016541 0.624503 43
-0.088627 6.010038 0.624429 46
-0.070593 6.007539 0.624107 41
-0.049385 6.008041 0.623527 45
-0.034758 5.993888 0.623951 39
-0.025992 5.964811 0.625376 40
-0.003680 5.973234 0.624302 41
0.038713 6.029459 0.619968 54
0.051218 6.007276 0.620887 53
0.068709 6.000224 0.620807 46
0.087686 5.996806 0.620477 50
0.101221 5.982607 0.620902 46
0.129380 6.001173 0.619067 47
0.159243 6.023283 0.616979 58
0.168979 5.997484 0.618151 56
0.180136 5.975347 0.619072 55
0.208627 5.993485 0.617233 40
0.231596 6.000896 0.616149 45
0.237032 5.963614 0.618069 49
0.285260 6.025188 0.613214 57
0.307727 6.028240 0.612374 55
0.329364 6.031596 0.611538 53
0.346938 6.023573 0.611451 51
0.364484 6.015488 0.611363 51
0.388755 6.021812 0.610269 50
0.407996 6.017193 0.609929 48
0.432374 6.023317 0.608833 44
0.453371 6.022134 0.608240 44
0.472650 6.017271 0.607897 39
0.491924 6.012335 0.607554 36
0.512957 6.010907 0.606959 30
0.548221 6.037993 0.604347 33
0.571183 6.039913 0.603498 35
0.575300 6.006550 0.605172 45
0.629932 6.068348 0.600032 31
0.640389 6.049534 0.600702 26
0.670884 6.065234 0.598840 18
0.690422 6.059556 0.598491 15
0.972480 6.551709 0.562560 26
0.991864 6.541437 0.562452 31
0.781061 6.101883 0.593146 21
0.855839 6.197629 0.585469 13
0.801371 6.054581 0.594966 13
0.870948 6.139361 0.588042 21
0.838574 6.038669 0.594511 16
1.107404 6.478394 0.561794 52
1.169645 6.544165 0.556119 34
1.086467 6.352712 0.569160 15
1.214271 6.532570 0.555132 52
1.265523 6.576769 0.550967 76
1.096236 6.241159 0.574650 37
1.310482 6.564442 0.549974 26
1.328938 6.553565 0.549862 31
1.025463 6.000218 0.589782 14
1.028535 5.965810 0.591449 17
1.387534 6.476427 0.551669 56
1.463112 6.556519 0.544700 21
1.040893 5.831980 0.597870 29
1.070454 5.841789 0.596240 34
1.063968 5.794018 0.598925 35
1.285987 6.107039 0.574435 12
1.242339 5.997578 0.581682 13
1.418254 6.154755 0.566851 12
1.490841 6.188176 0.562293 1
1.513391 6.182734 0.561663 2
1.553794 6.203679 0.558995 2
1.576445 6.197985 0.558363 2
1.676290 6.226239 0.552892 22
1.715129 6.242950 0.550470 26
1.786325 6.305133 0.544475 35
1.804843 6.292022 0.544345 13
2.043951 6.587282 0.519967 23
2.043036 6.504274 0.524031 20
1.805408 6.139048 0.551740 20
2.086144 6.482618 0.523242 14
2.050568 6.394730 0.528982 22
2.098076 6.419064 0.525776 20
2.001738 6.251794 0.537915 13
2.023976 6.244988 0.537274 37
2.032592 6.218358 0.538161 20
2.060540 6.217044 0.537000 19
2.100752 6.231377 0.534557 14
2.119010 6.217169 0.534418 20
2.004016 6.033423 0.548119 28
2.123168 6.147875 0.537472 14
2.158554 6.155437 0.535538 14
2.169049 6.131691 0.536167 14
2.166877 6.092416 0.538080 15
2.202297 6.099642 0.536143 13
2.212499 6.075822 0.536772 37
2.222586 6.051994 0.537401 27
2.173831 5.957586 0.543941 39
2.706500 6.558059 0.492130 22
2.731043 6.547835 0.491458 40
2.742645 6.522301 0.492072 28
2.761913 6.505850 0.491913 30
2.809795 6.522589 0.488923 42
2.871611 6.558832 0.484401 40
2.910363 6.562122 0.482427 55
2.945594 6.563064 0.480718 20
2.991482 6.575775 0.477975 17
2.574981 6.070099 0.520098 9
2.742116 6.220472 0.505501 19
2.840701 6.292800 0.497603 30
2.786557 6.196364 0.504412 16
2.588725 5.944533 0.524911 14
2.635787 5.960864 0.521918 21
2.663977 5.956476 0.520731 17
2.711303 5.972335 0.517734 14
2.978021 6.220115 0.494049 13
2.864214 6.063990 0.506301 34
2.943586 6.115144 0.500206 26
2.843212 5.973552 0.511165 15
3.131143 6.233706 0.485881 14
3.190340 6.259613 0.481836 13
3.234808 6.266298 0.479325 17
3.226974 6.223526 0.481495 17
3.044997 6.004795 0.499735 10
3.328435 6.251937 0.475186 16
3.463170 6.348468 0.464373 26
3.127664 5.983744 0.496391 22
3.262244 6.080182 0.485578 13
3.332484 6.110967 0.480722 13
3.551789 6.286049 0.462358 13
3.648199 6.341174 0.455158 15
3.481393 6.145858 0.471618 7
3.501353 6.130520 0.471189 11
3.531808 6.121367 0.469960 16
3.605266 6.153748 0.464834 10
3.656661 6.168706 0.461546 4
3.772754 6.237016 0.452756 6
3.699452 6.133748 0.460649 19
3.865514 6.247675 0.447429 7
3.820491 6.172373 0.452726 6
3.684382 6.013166 0.466096 13
3.811404 6.056256 0.457644 12
3.901251 6.099022 0.451188 8
4.027681 6.172569 0.441592 8
3.951881 6.070984 0.449501 11
3.963493 6.045134 0.449833 15
3.984133 6.027005 0.449380 16
4.035259 6.034492 0.446310 21
4.071194 6.028887 0.444546 23
4.018075 5.949189 0.450374 19
4.161650 6.032333 0.439441 21
4.197736 6.026094 0.437671 22
4.240050 6.024696 0.435376 24
4.291750 6.030580 0.432291 28
4.315524 6.013714 0.431566 18
4.092409 5.800546 0.451576 19
4.143615 5.806587 0.448493 10
4.483989 6.038798 0.421242 16
4.529911 6.038328 0.418670 16
4.566431 6.030280 0.416885 19
4.646435 6.057191 0.411428 15
4.702172 6.063115 0.408060 17
4.738927 6.054269 0.406268 20
4.810816 6.071582 0.401579 23
4.850900 6.064608 0.399519 24
4.900645 6.064536 0.396668 22
4.944037 6.059453 0.394341 17
4.976919 6.048287 0.392814 19
5.024496 6.043885 0.390208 19
5.110154 6.068369 0.384445 18
5.144070 6.055243 0.382900 15
5.194269 6.053471 0.380034 9
5.202085 6.021582 0.380600 9
5.281791 6.039926 0.375351 8
5.324732 6.034059 0.373019 11
5.388328 6.040246 0.369085 14
5.431392 6.033847 0.366748 16
5.472946 6.022384 0.364650 17
5.510326 6.009762 0.362826 16
5.589997 6.027047 0.357569 20
5.658312 6.032382 0.353344 19
5.709208 6.027669 0.350453 16
5.776881 6.033560 0.346233 15
5.887366 6.068592 0.338572 14
5.815225 5.981577 0.345480 17
5.930201 6.016593 0.337535 14
6.143348 6.112715 0.321879 8
6.080018 6.033495 0.328003 15
6.104332 6.009616 0.327220 15
6.328924 6.109365 0.310743 7
6.393474 6.111052 0.306771 8
6.568134 6.177268 0.294265 10
6.524662 6.110346 0.298792 8
6.473978 6.039692 0.303855 9
6.429769 5.973531 0.308389 4
7.007567 6.274494 0.264669 13
7.070730 6.269342 0.260922 5
7.151385 6.233627 0.256903 15
7.162680 6.197831 0.257154 19
7.034919 6.083358 0.268090 15
7.080461 6.067563 0.265673 22
7.091136 6.032088 0.265927 18
7.154074 6.025552 0.262169 19
7.308076 6.068502 0.251451 10
7.329233 6.038023 0.250896 11
7.490822 6.083194 0.239628 23
7.656358 6.129178 0.228084 22
7.808221 6.166592 0.217602 18
7.878302 6.162025 0.213293 22
7.878578 6.118426 0.214330 13
7.977944 6.126195 0.207855 13
8.098793 6.144252 0.199763 12
8.134492 6.118145 0.198111 19
8.163002 6.088261 0.196993 16
8.294975 6.109938 0.188081 33
8.387877 6.111283 0.182119 19
8.437025 6.092764 0.179395 19
8.555237 6.105322 0.171541 26
8.626929 6.094583 0.167180 22
8.669866 6.069640 0.164969 13
8.698330 6.037626 0.163835 6
8.715860 6.000389 0.163508 4
8.715168 5.954676 0.164529 4
8.750532 5.925732 0.162853 6
8.833019 5.918150 0.157668 9
8.911946 5.908408 0.152748 8
8.994577 5.899806 0.147554 9
9.117402 5.908502 0.139383 4
9.222154 5.908365 0.132557 4
9.381057 5.933446 0.121686 13
9.456842 5.919137 0.117011 25
9.540860 5.905488 0.111774 10
9.648946 5.906227 0.104672 7
9.764522 5.909391 0.097023 9
9.877416 5.908244 0.089621 8
10.008898 5.913960 0.080857 9
10.147953 5.921828 0.071543 9
10.360365 5.960786 0.056815 16
10.448895 5.943706 0.051265 14
10.567157 5.937772 0.043538 14
10.724700 5.951441 0.032854 10
10.921421 5.974036 0.019405 5
11.024430 5.961861 0.012762 5
11.129513 5.955011 0.005880 7
11.262560 5.952758 -0.002951 3
11.429419 5.962141 -0.014239 3
11.442919 5.913994 -0.014372 5
11.495687 5.827050 -0.016545 3
11.478621 5.768017 -0.014497 5
11.476365 5.714457 -0.013538 5
11.481439 5.663592 -0.013124 5
11.497642 5.616642 -0.013529 5
11.536351 5.577341 -0.015573 3
11.559819 5.532741 -0.016526 3
11.488460 5.456588 -0.010646 1
11.421290 5.379897 -0.005054 1
11.356786 5.307314 0.000289 3
11.298308 5.188854 0.005807 14
11.323558 5.148439 0.004607 10
11.357744 5.105613 0.002819 3
11.330017 5.046284 0.005436 1
11.293700 4.987209 0.008623 1
11.319019 4.944335 0.007403 1
11.305914 4.890077 0.008927 1
11.307921 4.840407 0.009355 1
11.229182 4.767696 0.015551 1
11.234581 4.719461 0.015707 1
11.228272 4.668018 0.016688 1
11.229460 4.618783 0.017120 1
11.218288 4.568748 0.018397 1
11.199836 4.514463 0.020207 1
11.204314 4.466465 0.020365 1
11.124252 4.394076 0.026566 1
11.120566 4.344416 0.027279 1
11.100643 4.293190 0.029116 1
11.088835 4.241788 0.030383 1
11.076826 4.190509 0.031651 1
10.998682 4.123409 0.037614 1
10.978458 4.070759 0.039439 1
10.954141 4.017377 0.041542 1
10.949050 3.968689 0.042265 1
10.955451 3.922724 0.042159 1
10.937318 3.876033 0.043752 1
10.861550 3.812121 0.049459 1
10.836678 3.757515 0.051552 1
10.831095 3.707275 0.052263 1
10.824850 3.659345 0.052994 1
10.801880 3.612739 0.054872 1
10.814842 3.568963 0.054218 1
10.729800 3.505729 0.060500 1
10.722811 3.458366 0.061236 1
10.727405 3.413329 0.061140 1
10.720485 3.363872 0.061859 1
10.716894 3.317430 0.062320 1
10.712736 3.273254 0.062799 1
10.732391 3.231084 0.061592 1
10.708656 3.181322 0.063445 1
10.728004 3.139084 0.062238 1
10.699609 3.091115 0.064391 1
10.715075 3.045976 0.063443 1
10.706734 2.997006 0.064168 1
10.712954 2.957200 0.063834 1
10.720051 2.910736 0.063444 1
10.715137 2.862497 0.063891 1
10.634050 2.810109 0.069700 1
10.620545 2.763349 0.070728 1
10.598962 2.715620 0.072316 1
10.593019 2.670180 0.072787 1
10.567127 2.622225 0.074658 1
10.560847 2.576980 0.075131 1
10.479159 2.522528 0.080923 1
10.472263 2.479843 0.081419 1
10.453582 2.433670 0.082737 1
10.442660 2.388539 0.083496 1
10.415709 2.341769 0.085378 1
10.420326 2.298559 0.085018 1
10.400976 2.252900 0.086341 1
10.409255 2.210134 0.085701 1
10.333970 2.159391 0.090958 1
10.337952 2.116468 0.090601 1
10.325885 2.072130 0.091368 1
10.317815 2.026084 0.091837 1
10.301446 1.981610 0.092887 1
10.308621 1.941250 0.092268 1
10.295925 1.897239 0.093039 1
10.282922 1.855464 0.093828 1
10.293805 1.813256 0.092911 1
10.300562 1.770728 0.092275 1
10.283401 1.724589 0.093312 1
10.293832 1.682295 0.092394 1
10.296149 1.639515 0.092041 1
10.298212 1.598866 0.091705 1
10.280406 1.553015 0.092746 1
10.294231 1.510790 0.091545 1
10.259985 1.468743 0.093753 1
10.269531 1.426367 0.092836 1
10.290895 1.384315 0.091070 1
10.276218 1.341089 0.091849 1
10.273355 1.298271 0.091781 1
10.254387 1.255132 0.092845 1
10.271171 1.212783 0.091361 1
10.184079 1.168792 0.097245 1
10.196574 1.126533 0.096046 1
10.192962 1.084064 0.095981 1
10.189201 1.041623 0.095917 1
10.157364 0.999188 0.097840 1
10.148262 0.832213 0.097039 1
10.094018 0.706639 0.099703 1
10.069000 0.665208 0.101068 1
10.079732 0.622854 0.099870 1
10.090316 0.580421 0.098672 1
10.052904 0.539703 0.100895 1
9.963532 0.501365 0.106829 1
9.981659 0.458858 0.105063 1
9.963868 0.420021 0.105882 1
9.947483 0.335364 0.106045 1
9.906734 0.254467 0.107942 1
9.912033 0.212526 0.107033 1
9.901261 0.171636 0.107269 1
9.890501 0.132881 0.107523 1
9.852362 0.052691 0.109144 1
-16.773058 1.026783 -0.057380 1
-16.772869 1.078484 -0.056956 1
-16.784470 1.130298 -0.057354 1
-16.771948 1.181883 -0.056109 1
-16.755257 1.233316 -0.054591 1
-16.770306 1.285272 -0.055263 1
-16.825068 1.338270 -0.058668 1
-16.827780 1.390258 -0.058517 1
-16.826321 1.442148 -0.058093 1
-16.832659 1.494303 -0.058215 1
-16.834826 1.546358 -0.058065 1
-16.840796 1.598598 -0.058187 1
-16.850683 1.648464 -0.058603 3
-16.884199 1.702144 -0.060633 1
-16.885637 1.754433 -0.060481 1
-16.855015 1.804996 -0.058151 1
-16.844141 1.856514 -0.057183 1
-16.841055 1.908458 -0.056761 1
-16.837786 1.960391 -0.056339 1
-16.842300 2.012860 -0.056461 1
-16.830708 2.064221 -0.055496 1
-16.822918 2.115816 -0.054803 1
-16.827087 2.165720 -0.054947 1
-16.818945 2.217274 -0.054255 3
-16.822552 2.269813 -0.054377 3
-16.841871 2.323817 -0.055585 3
-16.841127 2.376120 -0.055436 3
-16.840200 2.428434 -0.055287 1
-16.839088 2.480759 -0.055138 1
-16.837793 2.533093 -0.054989 1
-16.856153 2.587564 -0.056194 1
-16.838615 2.638227 -0.054963 1
-16.833391 2.684956 -0.054586 1
-16.839304 2.738255 -0.054979 1
-16.844713 2.794213 -0.055350 1
-16.834393 2.845659 -0.054662 1
-16.839729 2.899087 -0.055054 1
-16.836962 2.951531 -0.054906 1
-16.854132 3.004057 -0.056129 1
-16.819727 3.049595 -0.053844 1
-16.808159 3.103476 -0.053137 1
-16.820087 3.160761 -0.054048 1
-16.800608 3.210841 -0.052824 1
-16.804630 3.264438 -0.053216 1
-16.797033 3.313647 -0.052822 1
-16.839676 3.376220 -0.055884 1
-16.835224 3.428785 -0.055737 1
-16.834955 3.479412 -0.055880 1
-16.826204 3.531314 -0.055465 3
-16.829517 3.582649 -0.055877 3
-16.808159 3.635025 -0.054636 3
-16.802792 3.687546 -0.054491 3
-16.793314 3.739334 -0.054078 3
-16.791500 3.792572 -0.054201 3
-16.782152 3.841733 -0.053810 3
-16.787802 3.896520 -0.054469 1
-16.777596 3.948255 -0.054057 1
-16.794062 4.008108 -0.055500 1
-16.763924 4.055817 -0.053750 1
-16.788853 4.112287 -0.055767 2
-16.793503 4.167367 -0.056426 2
-16.794050 4.221670 -0.056817 2
-16.767693 4.267387 -0.055358 2
-16.771767 4.322554 -0.056017 2
-16.771746 4.376900 -0.056408 2
-16.771524 4.431285 -0.056799 2
-16.767221 4.484794 -0.056924 2
-16.770485 4.540174 -0.057581 2
-16.761911 4.592789 -0.057439 2
-16.749273 4.644429 -0.057031 2
-16.732586 4.695054 -0.056357 2
-16.723459 4.747576 -0.056217 2
-16.753456 4.807477 -0.058758 2
-16.747118 4.863688 -0.058863 2
-16.733536 4.915275 -0.058456 2
-16.712759 4.962163 -0.057539 2
-16.698833 5.013630 -0.057134 2
-16.684727 5.065047 -0.056729 2
-16.583807 5.202429 -0.051540 40
-16.546055 5.246735 -0.049548 54
-16.515827 5.293092 -0.048089 10
-16.588615 5.425864 -0.054445 2
-16.582266 5.474134 -0.054615 2
-16.626749 5.546638 -0.058430 4
-16.636631 5.608744 -0.059862 4
-16.603058 5.648773 -0.058179 4
-16.556343 5.690066 -0.055665 4
-16.536083 5.739746 -0.055003 4
-16.489119 5.780592 -0.052493 4
-16.426905 5.816116 -0.048930 4
-16.349491 5.846159 -0.044313 6
-16.175707 5.898289 -0.033774 3
-16.083151 5.921560 -0.028115 5
-15.960500 5.933613 -0.020353 15
-15.662908 5.936360 -0.001162 35
-14.745712 5.655774 0.062385 15
-14.711471 5.691238 0.064029 12
-14.698749 5.737109 0.064111 12
-14.710114 5.842953 0.061644 26
-14.801156 5.928977 0.054369 28
-14.776423 5.970874 0.055241 15
-14.625237 5.963059 0.065037 14
-14.474262 5.954250 0.074826 22
-14.283961 5.978584 0.086512 27
-14.063299 5.938488 0.101261 21
-14.009085 5.965467 0.104206 29
-13.903255 5.970620 0.110816 34
-13.753394 5.956506 0.120562 32
-13.678109 5.970601 0.125051 28
-13.524963 5.953227 0.135045 27
-13.236573 5.876129 0.154709 27
-13.212159 5.912257 0.155534 30
-13.308122 6.001486 0.147733 16
-13.122884 5.966305 0.160054 25
-13.145509 6.023252 0.157479 10
-12.384459 5.768556 0.210267 16
-13.085911 6.134801 0.158879 15
-13.436845 6.345769 0.132577 9
-13.400048 6.377291 0.134186 18
-12.497930 5.997470 0.198332 8
-12.412024 6.001431 0.203561 2
-11.936489 5.902527 0.235095 11
-13.227666 6.587252 0.140162 19
-12.155360 6.099012 0.217162 16
-13.263172 6.703583 0.135300 25
-11.714105 5.963361 0.247321 20
-12.335644 6.325967 0.200828 12
-11.531237 5.952466 0.258727 30
-11.428985 5.941451 0.265209 13
-11.312804 5.922334 0.272723 37
-11.282318 5.945824 0.273995 19
-11.257077 5.976181 0.274771 23
-11.692557 6.253548 0.241583 22
-11.695172 6.298952 0.240284 27
-11.722073 6.357900 0.237173 6
-11.033031 6.020326 0.287137 5
-11.934314 6.657330 0.216729 8
-10.788810 6.047298 0.301012 9
-10.549794 5.990322 0.316715 18
-10.656243 6.092998 0.307642 28
-10.312874 5.928803 0.332384 20
-10.332449 5.981867 0.329774 21
-10.434740 6.083022 0.320963 25
-10.360662 6.074481 0.325546 18
-10.304509 6.082360 0.328611 15
-10.235701 6.080085 0.332694 16
-10.133082 6.056360 0.339350 23
-10.098439 6.074281 0.340850 16
-10.705557 5.934527 0.367555 54
-10.754174 6.002591 0.363312 33
-10.681246 6.001422 0.367307 49
-10.687022 6.047365 0.365900 39
-10.680565 6.082314 0.365411 18
-10.552636 6.047901 0.373159 18
-10.260218 5.914854 0.392178 54
-10.369791 6.019628 0.383705 25
-10.345361 6.044826 0.384394 27
-10.290144 6.051254 0.387193 33
-10.197525 6.034420 0.392570 36
-9.911438 5.897461 0.411309 36
-10.029904 6.009546 0.402139 30
-9.961599 6.005868 0.405863 23
-9.923803 6.020969 0.407476 21
-9.647691 5.882271 0.425701 23
-9.628079 5.905579 0.426124 17
-9.684682 5.979980 0.421175 10
-9.566834 5.941558 0.428391 7
-10.197283 6.392956 0.383231 19
-9.562094 6.014352 0.426679 30
-9.521260 6.025362 0.428511 50
-9.623025 6.131819 0.420298 22
-9.681133 6.209973 0.415126 30
-9.322951 6.005343 0.439361 32
-9.339222 6.052319 0.437208 30
-9.160561 5.966792 0.448824 39
-9.592107 6.304511 0.417072 23
-9.586601 6.340290 0.416335 27
-9.580939 6.376095 0.415599 30
-9.532832 6.381816 0.417890 20
-8.975338 6.021864 0.456725 15
-8.902721 6.006560 0.460860 16
-9.472775 6.458462 0.418701 22
-9.398911 6.444509 0.422845 18
-8.734220 5.993569 0.469758 14
-8.566151 5.905149 0.480851 11
-9.141060 6.369970 0.438037 10
-8.995269 6.337804 0.446293 17
-9.166811 6.507983 0.432548 18
-9.109576 6.503839 0.435515 16
-8.320822 5.931033 0.492277 28
-8.272099 5.928597 0.494756 53
-8.157606 5.873977 0.502099 40
-8.106128 5.868269 0.504803 51
-8.099288 5.896100 0.504256 32
-8.402556 6.175390 0.480566 15
-7.968750 5.860881 0.511738 13
-7.868206 5.813636 0.518135 13
-7.894528 5.869735 0.515046 43
-7.886698 5.898059 0.514501 23
-7.697808 5.775482 0.527592 39
-7.668850 5.785206 0.528660 47
-7.731359 5.872157 0.522798 13
-7.691099 5.907124 0.523547 20
-7.840103 6.070693 0.511000 9
-7.963934 6.214389 0.500305 17
-8.393174 6.627460 0.466098 39
-8.332534 6.611774 0.469477 24
-8.289983 6.611659 0.471471 37
-8.174116 6.549614 0.479007 20
-8.139852 6.557904 0.480313 15
-7.384843 5.910336 0.537782 17
-8.097911 6.598212 0.480848 21
-8.081250 6.622304 0.480769 21
-7.853592 6.450928 0.497250 20
-7.723558 6.367938 0.506132 34
-7.921097 6.589338 0.489258 35
-7.852210 6.563458 0.493310 13
-7.228155 6.043283 0.540216 34
-7.098477 5.953437 0.549298 18
-7.732819 6.607198 0.497105 30
-7.085673 6.012434 0.547720 18
-7.676435 6.630528 0.498763 38
-7.574574 6.568818 0.505551 31
-6.988545 6.019756 0.551755 21
-6.932453 5.996733 0.555079 22
-6.678574 5.776046 0.574449 9
-6.737281 5.869531 0.568380 38
-6.767555 5.934850 0.564604 17
-6.789982 5.990978 0.561510 18
-6.704265 5.934923 0.567341 24
-6.765992 6.036138 0.560827 18
-7.387723 6.728899 0.507659 26
-7.364937 6.744896 0.508019 16
-7.238604 6.649828 0.517062 15
-6.523304 5.918950 0.575688 19
-6.650220 6.089840 0.563685 26
-6.563262 6.028707 0.569729 23
-6.525996 6.024835 0.571443 29
-6.434445 5.956869 0.577937 34
-6.493421 6.059562 0.571432 28
-6.410292 5.999924 0.577237 20
-6.493174 6.129231 0.568677 22
-6.433119 6.096956 0.572432 21
-6.376851 6.066567 0.575952 18
-6.319954 6.036623 0.579474 23
-6.207852 5.943434 0.587783 17
-5.940221 5.662603 0.609969 15
-6.229916 6.040054 0.582974 24
-6.225112 6.070219 0.581937 34
-6.171565 6.042129 0.585223 43
-6.073297 5.957635 0.592596 48
-6.119348 6.049081 0.587007 43
-6.091572 6.051193 0.588013 45
-6.053774 6.040762 0.589928 48
-5.998574 6.008352 0.593433 56
-5.996000 6.041136 0.592163 34
-5.978355 6.055191 0.592257 47
-5.945835 6.050362 0.593713 47
-5.910937 6.042221 0.595394 49
-5.888390 6.049671 0.595940 47
-5.851211 6.038047 0.597845 44
-5.763193 5.959626 0.604514 39
-5.744286 5.969029 0.604824 37
-5.695622 5.940764 0.607858 36
-5.703143 5.985081 0.605673 47
-5.677672 5.989151 0.606443 73
-5.683929 6.034225 0.604262 53
-5.671031 6.053633 0.603893 45
-5.637779 6.043307 0.605559 39
-5.601418 6.030215 0.607454 38
-5.568971 6.024052 0.608899 45
-5.559216 6.045750 0.608297 39
-5.525424 6.035451 0.609962 40
-5.474819 6.002705 0.613214 31
-5.473280 6.037886 0.611709 33
-5.421600 6.000830 0.615180 31
-5.440234 6.065580 0.611640 25
-5.412156 6.060585 0.612844 24
-5.284883 5.910463 0.623993 30
-5.354450 6.051391 0.615257 23
-5.295602 5.999459 0.619620 45
-5.223922 5.927205 0.625335 35
-5.206678 5.938567 0.625408 45
-5.177638 5.933695 0.626611 53
-5.170338 5.962229 0.625557 36
-5.224959 6.083800 0.618179 21
-5.149299 6.004181 0.624341 22
-5.099813 5.964623 0.627793 33
-5.149041 6.079918 0.620868 26
-5.131265 6.091017 0.620938 27
-5.077806 6.044271 0.624838 22
-5.051815 6.041497 0.625807 35
-5.023808 6.035189 0.627000 51
-4.983518 6.008223 0.629544 40
-4.959845 6.008461 0.630284 36
-4.924857 5.987468 0.632372 37
-4.918682 6.018952 0.631088 34
-4.916094 6.052876 0.629572 46
-4.858381 5.994045 0.634136 46
-4.882687 6.076849 0.629472 52
-4.829328 6.024563 0.633583 47
-4.821573 6.051929 0.632519 72
-4.815616 6.082787 0.631230 58
-4.774539 6.050839 0.633987 56
-4.764581 6.074619 0.633147 56
-4.748742 6.087880 0.632981 51
-4.728021 6.090078 0.633485 51
-4.699742 6.078129 0.634887 56
-4.680094 6.084137 0.635169 60
-4.655810 6.083481 0.635901 65
-4.633345 6.081783 0.636627 65
-4.611876 6.083998 0.637131 66
-4.573056 6.054641 0.639657 76
-4.545340 6.041945 0.641054 47
-4.537654 6.072756 0.639762 55
-4.520794 6.081275 0.639811 64
-4.499452 6.083033 0.640311 60
-4.447154 6.019825 0.644846 34
-4.449798 6.071942 0.642206 58
-4.428564 6.073416 0.642704 57
-4.407350 6.074803 0.643201 57
-4.387876 6.079709 0.643474 60
-4.329139 6.001497 0.648901 70
-4.338749 6.067599 0.645361 57
-4.305885 6.043268 0.647424 58
-4.261538 5.993372 0.651054 47
-4.243285 5.997342 0.651320 49
-4.243889 6.045314 0.648900 57
-4.234396 6.071481 0.647824 62
-4.208560 6.061132 0.648987 66
-4.194953 6.075872 0.648579 65
-4.174008 6.076317 0.649069 66
-4.148344 6.065676 0.650230 63
-4.130623 6.073282 0.650270 66
-4.110432 6.077524 0.650536 70
-4.087388 6.069890 0.651469 70
-4.068122 6.073595 0.651731 74
-4.042789 6.062449 0.652888 73
-4.015173 6.047847 0.654270 60
-4.005854 6.073158 0.653187 72
-3.980716 6.061716 0.654341 62
-3.962430 6.064672 0.654599 70
-3.940354 6.060470 0.655305 68
-3.922652 6.067350 0.655340 73
-3.899218 6.059248 0.656268 60
-3.878693 6.058515 0.656749 55
-3.860998 6.065180 0.656782 55
-3.845168 6.079602 0.656369 47
-3.822790 6.070825 0.657293 52
-3.802329 6.069786 0.657771 50
-3.777853 6.057388 0.658919 46
-3.762833 6.071229 0.658503 43
-3.746417 6.081258 0.658309 41
-3.718170 6.057277 0.660124 55
-3.708256 6.086048 0.658813 52
-3.679806 6.057778 0.660849 52
-3.660458 6.055880 0.661322 24
-3.633970 6.035249 0.662911 47
-3.623824 6.063830 0.661598 48
-3.608574 6.077204 0.661177 50
-3.588380 6.075319 0.661649 51
-3.568536 6.077444 0.661898 52
-3.548091 6.071312 0.662590 52
-3.527997 6.069191 0.663060 52
-3.509103 6.070812 0.663306 52
-3.489064 6.068539 0.663774 52
-3.469060 6.066187 0.664242 52
-3.449092 6.063758 0.664710 52
-3.423602 6.042072 0.666292 52
-3.413440 6.069934 0.664973 52
-3.393538 6.067288 0.665438 50
-3.372787 6.064812 0.665904 52
-3.352957 6.062009 0.666369 54
-3.335094 6.062744 0.666609 54
-3.317387 6.067512 0.666626 56
-3.296610 6.060632 0.667312 60
-3.277907 6.061400 0.667551 58
-3.258223 6.058230 0.668013 60
-3.238578 6.054985 0.668474 50
-3.221863 6.063292 0.668266 52
-3.202254 6.059906 0.668726 56
-3.184506 6.060114 0.668962 58
-3.159417 6.033273 0.670758 60
-3.140904 6.033539 0.670993 58
-3.128682 6.060980 0.669668 60
-3.109216 6.057237 0.670125 53
-3.091530 6.061216 0.670136 53
-3.072089 6.061427 0.670370 47
-3.054431 6.061182 0.670602 52
-3.035074 6.057156 0.671057 52
-3.017389 6.060877 0.671066 52
-3.001294 6.072361 0.670629 52
-2.982866 6.067954 0.671082 52
-2.963593 6.063656 0.671535 52
-2.943601 6.055366 0.672210 57
-2.927418 6.066613 0.671771 44
-2.908232 6.062106 0.672222 47
-2.889090 6.057528 0.672673 47
-2.870698 6.056808 0.672900 52
-2.853015 6.059954 0.672905 47
-2.833962 6.055168 0.673354 45
-2.814955 6.050311 0.673802 52
-2.797946 6.057203 0.673582 47
-2.780508 6.056010 0.673807 52
-2.763087 6.054758 0.674031 47
-2.745138 6.061613 0.673810 47
-2.725050 6.048525 0.674701 52
-2.705359 6.031279 0.675815 53
-2.682898 6.006305 0.677373 68
-2.660945 5.977157 0.679154 66
-2.652010 6.034847 0.676035 58
-2.635109 6.049225 0.675365 48
-2.615396 6.035707 0.676253 53
-2.595661 6.014078 0.677586 46
-2.581633 6.052049 0.675578 47
-2.561603 6.034359 0.676688 53
-2.544000 6.036427 0.676683 48
-2.521473 5.986740 0.679574 43
-2.510950 6.052193 0.676005 50
-2.492449 6.046141 0.676444 42
-2.473187 6.032074 0.677329 52
-2.455883 6.045844 0.676653 52
-2.438240 6.047543 0.676645 47
-2.420954 6.053158 0.676414 48
-2.401545 6.034842 0.677520 39
-2.386497 6.056176 0.676397 48
-2.369703 6.057561 0.676388 52
-2.350172 6.035068 0.677715 52
-2.331687 6.036462 0.677703 47
-2.315476 6.057648 0.676578 50
-2.298411 6.054812 0.676790 52
-2.279603 6.052032 0.677000 56
-2.262584 6.049076 0.677211 52
-2.245156 6.054088 0.676975 48
-2.226393 6.051109 0.677183 39
-2.209616 6.051963 0.677170 49
-2.193204 6.060741 0.676710 49
-2.174289 6.053580 0.677140 51
-2.156466 6.050305 0.677347 53
-2.138810 6.050959 0.677331 45
-2.122034 6.051523 0.677315 45
-2.104260 6.048065 0.677521 48
-2.086412 6.040551 0.677949 49
-2.069048 6.052939 0.677262 36
-2.051239 6.045301 0.677689 49
-2.033776 6.057568 0.677001 52
-2.015124 6.049816 0.677426 53
-1.998322 6.045976 0.677630 54
-1.980748 6.062053 0.676717 54
-1.963936 6.062093 0.676697 54
-1.945574 5.986190 0.680913 53
-1.928866 6.010076 0.679553 54
-1.910436 6.013921 0.679306 68
-1.893522 6.033695 0.678169 61
-1.875392 6.065376 0.676360 56
-1.857846 6.057063 0.676782 55
-1.840074 6.060667 0.676534 66
-1.822817 6.044247 0.677401 64
-1.805306 6.039744 0.677599 47
-1.786735 6.067112 0.676010 56
-1.769473 6.054503 0.676653 51
-1.753015 6.045861 0.677074 40
-1.736965 6.029187 0.677940 38
-1.719079 6.016366 0.678581 31
-1.700313 6.039425 0.677212 40
-1.682479 6.042474 0.676960 39
-1.663921 6.057421 0.676036 42
-1.648604 6.032494 0.677348 52
-1.630916 6.019361 0.677986 40
-1.613700 6.026210 0.677510 36
-1.596995 6.013019 0.678149 36
-1.577688 6.023601 0.677444 42
-1.558547 6.042140 0.676294 47
-1.543565 6.008867 0.678049 45
-1.525559 6.023373 0.677123 45
-1.512444 5.982125 0.679327 53
-1.492807 6.004391 0.677951 60
-1.470205 6.046370 0.675453 65
-1.450971 6.060524 0.674522 66
-1.432458 6.066659 0.674038 70
-1.414322 6.068757 0.673778 66
-1.397492 6.066918 0.673742 69
-1.380215 6.068992 0.673482 63
-1.361145 6.070797 0.673218 70
-1.342054 6.072532 0.672953 68
-1.324821 6.066380 0.673137 70
-1.307490 6.068206 0.672875 70
-1.291184 6.062054 0.673060 70
-1.271535 6.067482 0.672569 72
-1.253274 6.069002 0.672304 72
-1.234994 6.070457 0.672037 70
-1.218159 6.068024 0.671997 72
-1.199561 6.065269 0.671951 72
-1.180647 6.070478 0.671459 70
-1.163194 6.071810 0.671193 69
-1.145469 6.068997 0.671148 68
-1.125575 6.073858 0.670652 68
-1.108503 6.066975 0.670831 69
-1.090121 6.067906 0.670560 69
-1.072608 6.068927 0.670291 69
-1.054893 6.065797 0.670244 69
-1.033076 6.090272 0.668627 72
-1.014398 6.086840 0.668576 74
-0.995880 6.087431 0.668303 74
-0.977345 6.087955 0.668028 74
-0.960454 6.084667 0.667981 76
-0.944250 6.073313 0.668380 73
-0.927318 6.065822 0.668553 74
-0.906375 6.077828 0.667603 73
-0.886984 6.081934 0.667101 78
-0.870062 6.074251 0.667273 76
-0.851480 6.074317 0.666995 76
-0.842392 6.031425 0.669191 72
-0.822176 6.039180 0.668462 72
-0.797429 6.070415 0.666386 76
-0.778789 6.074311 0.665883 78
-0.773900 6.015739 0.668978 76
-0.739661 6.077377 0.665093 39
-0.728535 6.045923 0.666612 30
-0.750207 5.882640 0.675789 50
-0.690281 6.052917 0.665599 64
-0.667700 6.067804 0.664415 73
-0.648108 6.066899 0.664128 72
-0.632300 6.058656 0.664297 69
-0.610523 6.069429 0.663335 77
-0.593695 6.064925 0.663277 76
-0.572842 6.071681 0.662540 78
-0.558317 6.055261 0.663155 62
-0.541732 6.046491 0.663319 60
-0.523007 6.045349 0.663030 70
-0.507589 6.032626 0.663419 56
-0.486649 6.039026 0.662678 79
-0.465897 6.041250 0.662160 77
-0.438855 6.070699 0.660066 79
-0.422572 6.057445 0.660449 76
-0.402269 6.063771 0.659708 77
-0.379835 6.073556 0.658738 77
-0.369301 6.045152 0.660027 76
-0.343190 6.066204 0.658377 79
-0.325150 6.064615 0.658086 77
-0.302504 6.074063 0.657112 77
-0.280136 6.079330 0.656361 77
-0.264920 6.065858 0.656743 78
-0.244273 6.071559 0.655997 76
-0.223974 6.073097 0.655473 76
-0.207554 6.063231 0.655628 72
-0.186346 6.064312 0.655100 70
-0.165992 6.065619 0.654574 70
-0.149179 6.059641 0.654504 70
-0.131503 6.053288 0.654430 70
-0.111110 6.054377 0.653903 68
-0.087923 6.062877 0.652921 69
-0.075819 6.041344 0.653753 65
-0.053981 6.045945 0.652996 60
-0.028707 6.061989 0.651562 61
-0.015326 6.044034 0.652166 51
-0.015646 5.988487 0.655036 61
-0.004063 5.966801 0.655868 59
0.028625 6.001118 0.653295 54
0.040152 5.979318 0.654126 59
0.087525 6.046336 0.649501 50
0.106664 6.042853 0.649193 47
0.116656 6.017152 0.650249 39
0.131107 6.002500 0.650623 45
0.145481 5.987809 0.650996 34
0.183227 6.028201 0.647956 38
0.200791 6.020688 0.647873 24
0.226273 6.031432 0.646650 32
0.235839 6.005478 0.647705 36
0.266974 6.031044 0.645574 33
0.302439 6.063358 0.642982 34
0.310289 6.033580 0.644263 36
0.343505 6.062384 0.641900 34
0.346212 6.021638 0.643865 34
0.380518 6.049801 0.641496 33
0.401534 6.048837 0.640951 32
0.420871 6.044174 0.640633 31
0.438489 6.035831 0.640543 32
0.449170 6.013024 0.641366 34
0.478856 6.029746 0.639676 31
0.498175 6.024789 0.639356 37
0.519254 6.023342 0.638807 46
0.542130 6.025385 0.638028 43
0.559682 6.016619 0.637935 54
0.588015 6.029175 0.636468 47
0.612837 6.034479 0.635458 48
0.634074 6.032568 0.634905 49
0.653489 6.027026 0.634580 52
0.674749 6.024948 0.634025 52
0.698875 6.030311 0.633016 54
0.722069 6.031574 0.632231 54
0.741529 6.025700 0.631903 54
0.760980 6.019750 0.631574 53
0.782336 6.017232 0.631016 52
0.809480 6.025123 0.629768 52
0.828966 6.018916 0.629438 52
0.867932 6.047490 0.626810 56
0.877714 6.023672 0.627626 60
0.899204 6.020679 0.627064 60
0.926663 6.027991 0.625811 60
0.951092 6.027749 0.625012 62
0.969782 6.021517 0.624682 58
0.989338 6.014703 0.624346 60
1.004816 6.000939 0.624470 62
1.033676 6.011659 0.622988 58
1.065574 6.025138 0.621269 60
1.089328 6.024793 0.620469 57
1.115196 6.027750 0.619439 63
1.139030 6.027188 0.618637 60
1.106078 5.934886 0.624061 39
1.169867 5.998655 0.618877 58
1.206473 6.018110 0.616690 52
1.183339 5.942964 0.620962 58
1.267296 6.036250 0.613694 47
1.291370 6.035022 0.612887 41
1.322000 6.043736 0.611386 34
1.346170 6.042272 0.610577 30
1.365973 6.034033 0.610229 27
1.392389 6.035696 0.609187 21
1.416635 6.033917 0.608376 18
1.442262 6.035935 0.607338 15
1.483168 6.056458 0.604898 14
1.495429 6.038420 0.605246 10
1.571961 6.111800 0.599103 12
1.630819 6.158469 0.594809 36
1.687755 6.201518 0.590743 33
1.742733 6.240968 0.586906 34
1.765654 6.234521 0.586314 34
2.000056 6.523487 0.564605 24
2.101071 6.623001 0.556343 34
2.099578 6.579710 0.558292 30
1.791314 6.117530 0.590439 26
2.050822 6.432291 0.566609 27
2.024558 6.357337 0.570887 21
2.033692 6.330602 0.571680 24
2.124375 6.412316 0.564564 21
2.136024 6.388481 0.565122 24
2.045717 6.231376 0.575456 26
2.066413 6.220524 0.575086 14
2.126231 6.260084 0.570988 21
2.035553 6.108009 0.581108 43
2.089508 6.141821 0.577482 26
2.142155 6.171485 0.574080 20
2.178537 6.178266 0.572300 13
2.193208 6.161399 0.572399 14
2.149327 6.068534 0.578087 17
2.207379 6.103685 0.574211 27
2.235326 6.101453 0.573135 41
2.199704 6.022143 0.577901 17
2.679666 6.563056 0.535445 39
2.740128 6.595784 0.531546 32
2.743225 6.561857 0.532799 39
2.779123 6.562832 0.531228 22
2.790741 6.537156 0.531771 37
2.819528 6.533467 0.530682 34
2.895457 6.583929 0.525375 35
2.926427 6.578118 0.524266 43
2.874638 6.480112 0.530433 22
2.469850 5.985193 0.567802 24
2.638859 6.139461 0.554278 12
2.482368 5.931167 0.569390 17
2.513839 5.929648 0.568060 13
2.800128 6.209027 0.544418 14
2.815603 6.189437 0.544494 8
2.784012 6.120798 0.548575 21
2.921607 6.232791 0.538069 24
2.969909 6.247760 0.535318 14
2.805426 6.035163 0.550916 13
2.922068 6.122654 0.542281 14
2.900388 6.066058 0.545425 40
2.995670 6.129545 0.538666 18
2.981075 6.076974 0.541323 13
2.953239 6.014879 0.544941 19
2.964261 5.992866 0.545258 41
3.420193 6.418057 0.508278 17
3.660102 6.618701 0.489676 36
3.710844 6.630022 0.486892 31
3.672693 6.555057 0.491441 14
3.164771 6.018016 0.534986 17
3.323316 6.135711 0.523222 14
3.876972 6.637364 0.478819 26
3.902394 6.622486 0.478154 30
3.875781 6.557885 0.481750 7
3.584100 6.244595 0.506911 8
3.521879 6.147626 0.513355 14
3.531083 6.120280 0.513887 15
3.651395 6.196133 0.505408 6
3.889767 6.379427 0.487432 6
4.154789 6.545197 0.468769 17
3.812426 6.197512 0.497547 10
3.717539 6.076087 0.506389 8
4.051481 6.337547 0.481007 19
3.884555 6.152636 0.495556 17
3.971568 6.192760 0.489895 17
4.164315 6.324126 0.475898 29
4.255365 6.365401 0.469985 22
4.207434 6.286441 0.475025 18
4.241062 6.277833 0.473634 14
4.185425 6.195302 0.479165 11
4.066032 6.058165 0.489698 8
4.197068 6.131795 0.480676 22
4.205744 6.102624 0.481194 13
4.383829 6.213041 0.468579 11
4.500931 6.271733 0.460730 19
4.593717 6.309538 0.454787 20
4.030023 5.819145 0.499294 6
4.065533 5.813176 0.497667 8
4.076903 5.786090 0.497943 16
4.667290 6.217511 0.453942 9
4.713774 6.216500 0.451574 8
4.586964 6.080432 0.462382 14
4.581673 6.041610 0.463860 21
4.652236 6.061196 0.459586 16
4.699357 6.058690 0.457205 17
4.735226 6.051023 0.455563 20
4.778385 6.046793 0.453429 21
4.818393 6.039938 0.451533 23
4.877697 6.047110 0.448194 24
4.925139 6.043275 0.445802 26
4.971765 6.040370 0.443418 23
4.981990 6.012673 0.443690 21
5.064325 6.034993 0.438656 18
5.131525 6.043972 0.434810 17
5.168665 6.033020 0.433140 17
5.258096 6.058584 0.427612 16
5.334689 6.074452 0.423043 18
5.395062 6.078488 0.419677 19
5.455552 6.082163 0.416307 19
5.495474 6.073288 0.414394 19
5.489130 6.032867 0.415861 17
5.583780 6.056731 0.410057 25
5.674493 6.079087 0.404501 21
5.732153 6.078841 0.401359 19
5.786567 6.076062 0.398455 18
5.834363 6.068606 0.396033 15
5.794155 6.005864 0.399917 12
5.851045 6.006011 0.396779 13
5.993956 6.056715 0.387554 8
6.038576 6.045985 0.385365 13
6.106894 6.049856 0.381475 15
6.144828 6.034323 0.379767 15
6.237104 6.052153 0.374172 21
6.275134 6.036023 0.372458 21
6.367735 6.052875 0.366854 21
6.428902 6.052046 0.363447 18
6.481640 6.041766 0.360740 15
6.482039 6.002075 0.361693 17
6.594913 6.030804 0.354627 8
6.791677 6.105681 0.341697 4
7.109952 6.249342 0.320229 6
7.122135 6.172041 0.321371 14
7.018537 6.071477 0.329627 12
7.165016 6.112416 0.320318 15
7.203752 6.092184 0.318569 20
7.234582 6.069489 0.317322 14
7.350277 6.091077 0.310194 9
7.445186 6.100481 0.304527 12
7.649228 6.167996 0.291272 14
7.952449 6.286834 0.271154 15
7.812105 6.168079 0.281864 9
7.858375 6.148790 0.279602 12
7.993148 6.175359 0.271213 11
8.078565 6.175396 0.266248 23
8.164101 6.174900 0.261278 13
8.142959 6.119645 0.263665 13
8.221407 6.114861 0.259181 13
8.414261 6.166636 0.246834 18
8.481446 6.156993 0.243091 16
8.531658 6.136337 0.240558 20
8.575563 6.110062 0.238497 23
8.797471 6.173885 0.224167 22
8.875821 6.167443 0.219669 27
8.926281 6.144963 0.217121 30
8.969486 6.118802 0.215062 61
9.059704 6.114286 0.209798 27
9.101995 6.089413 0.207752 26
9.160537 6.067071 0.204683 28
9.232733 6.052902 0.200641 27
9.315893 6.043188 0.195854 27
9.429194 6.043926 0.189070 22
9.464143 6.014165 0.187504 20
9.477059 5.974657 0.187420 23
9.538351 5.953689 0.184103 11
9.632673 5.946480 0.178556 8
9.738113 5.943342 0.172261 9
9.851034 5.942616 0.165466 6
9.978840 5.947284 0.157673 6
10.099436 5.948084 0.150368 4
10.249763 5.960144 0.141073 6
10.400317 5.971213 0.131770 13
10.506599 5.963540 0.125437 12
10.650110 5.969848 0.116615 15
10.786377 5.972307 0.108282 12
10.937707 5.979637 0.098947 15
11.082654 5.980839 0.090081 14
11.211108 5.979990 0.082242 14
11.384553 5.995169 0.071409 4
11.447698 5.962882 0.067997 14
11.471585 5.921143 0.067114 14
11.837666 6.000965 0.043529 4
12.036265 6.015111 0.031122 3
12.135587 5.998072 0.025232 3
12.186853 5.960747 0.022561 5
12.287054 5.940159 0.016641 5
12.353302 5.907257 0.012964 5
12.381691 5.861114 0.011784 5
12.387226 5.807208 0.012102 5
12.396348 5.754580 0.012171 5
12.431831 5.710657 0.010488 5
12.451178 5.664135 0.009827 5
12.471179 5.615019 0.009144 5
12.403478 5.538102 0.014224 3
12.335417 5.461713 0.019309 1
12.336424 5.404574 0.019862 1
12.259063 5.274904 0.026057 19
12.262427 5.221827 0.026385 8
12.292406 5.176653 0.024954 3
12.264730 5.114646 0.027294 1
12.206092 5.044096 0.031647 1
12.189396 4.985940 0.033237 1
12.191007 4.935779 0.033591 1
12.177046 4.881412 0.034953 1
12.105760 4.809026 0.040075 1
12.108066 4.754349 0.040391 1
12.106299 4.698689 0.040960 1
12.087587 4.643981 0.042581 1
12.091867 4.595391 0.042689 1
12.084990 4.541424 0.043534 1
12.089527 4.490443 0.043622 1
12.086126 4.437572 0.044216 1
12.004923 4.366005 0.049868 1
11.977761 4.307991 0.051983 1
11.978140 4.254151 0.052309 1
11.949965 4.198937 0.054449 1
11.949376 4.147709 0.054797 1
11.870680 4.079121 0.060215 1
11.861858 4.026539 0.061073 1
11.844514 3.974780 0.062461 1
11.820190 3.916698 0.064316 1
11.830297 3.868576 0.063909 1
11.808458 3.816406 0.065555 1
11.752172 3.752518 0.069449 1
11.734294 3.699212 0.070824 1
11.711829 3.647689 0.072476 1
11.685707 3.593215 0.074363 1
11.671143 3.541158 0.075489 1
11.676013 3.492839 0.075343 1
11.680712 3.444516 0.075196 1
11.630202 3.386485 0.078620 1
11.606991 3.333594 0.080261 1
11.622536 3.289922 0.079372 1
11.602888 3.237925 0.080760 1
11.598806 3.188649 0.081128 1
11.578774 3.136928 0.082519 1
11.597995 3.091488 0.081356 1
11.589436 3.041757 0.081982 1
11.580694 2.992110 0.082608 1
11.579673 2.943690 0.082724 1
11.574527 2.894745 0.083096 1
11.498017 2.836095 0.088081 1
11.504354 2.789104 0.087688 1
11.471247 2.734599 0.089840 1
11.469013 2.689045 0.089981 1
11.431256 2.636798 0.092412 1
11.416802 2.590009 0.093325 1
11.327118 2.532258 0.099101 1
11.324463 2.484973 0.099228 1
11.285925 2.433832 0.101670 1
11.283162 2.384436 0.101780 1
11.256155 2.334965 0.103454 1
11.244629 2.289566 0.104119 1
11.181504 2.237052 0.108115 1
11.166085 2.187063 0.109002 1
11.169959 2.143527 0.108641 1
11.146038 2.095338 0.110065 1
11.133878 2.048294 0.110718 1
11.133488 2.002272 0.110596 1
11.124974 1.955677 0.110992 1
11.128242 1.909994 0.110613 1
11.115417 1.863236 0.111269 1
11.122202 1.820123 0.110651 1
11.125131 1.772166 0.110254 1
11.123772 1.726260 0.110135 1
11.134210 1.681003 0.109239 1
11.116584 1.634307 0.110157 1
11.122716 1.588838 0.109521 1
11.104762 1.542322 0.110440 1
11.094533 1.498527 0.110861 1
11.036368 1.450831 0.114378 1
11.029822 1.407473 0.114542 1
11.039220 1.360085 0.113630 1
11.036418 1.314605 0.113517 1
11.041438 1.269321 0.112883 1
11.027613 1.132976 0.112805 1
10.636184 0.031923 0.127021 1
-18.175957 1.032321 -0.059058 1
-18.167770 1.086041 -0.058116 1
-18.179316 1.145553 -0.058381 1
-18.182730 1.199383 -0.058191 1
-18.177893 1.258769 -0.057454 1
-18.172894 1.315292 -0.056741 1
-18.167698 1.371783 -0.056028 1
-18.178268 1.428674 -0.056316 1
-18.184732 1.482689 -0.056377 1
-18.170973 1.538910 -0.055165 1
-18.184944 1.596083 -0.055702 1
-18.190737 1.653035 -0.055739 1
-18.177795 1.765936 -0.054317 16
-18.175018 1.822535 -0.053856 7
-18.152927 1.934774 -0.051939 1
-18.145748 1.988215 -0.051254 1
-18.166279 2.043431 -0.052311 1
-18.154568 2.099443 -0.051354 1
-18.142660 2.155386 -0.050398 1
-18.154234 2.215890 -0.050911 1
-18.133966 2.271143 -0.049459 1
-18.145340 2.328904 -0.049995 1
-18.148794 2.383248 -0.050056 1
-18.156042 2.437984 -0.050366 1
-18.150656 2.497330 -0.049886 1
-18.160948 2.558193 -0.050397 1
-18.163349 2.615526 -0.050436 1
-18.165840 2.670067 -0.050497 1
-18.175785 2.728322 -0.051030 1
-18.161398 2.786857 -0.050056 1
-18.206944 2.846459 -0.052837 1
-18.208656 2.901253 -0.052897 1
-18.205536 2.961269 -0.052665 1
-18.179129 3.012654 -0.050996 1
-18.179918 3.070266 -0.051034 1
-18.172216 3.129695 -0.050556 1
-18.176546 3.187876 -0.050841 1
-18.160896 3.243362 -0.049894 1
-18.240316 3.309457 -0.054883 1
-18.228199 3.365688 -0.054180 1
-18.231684 3.424226 -0.054464 1
-18.223116 3.481004 -0.054008 1
-18.241961 3.542079 -0.055275 3
-18.217667 3.593527 -0.053859 1
-18.208046 3.653090 -0.053383 1
-18.210493 3.711762 -0.053666 1
-18.209278 3.766975 -0.053726 1
-18.254578 3.833281 -0.056708 2
-18.252443 3.891536 -0.056745 2
-18.250101 3.949811 -0.056781 2
-18.259853 4.007442 -0.057576 2
-18.240870 4.065675 -0.056610 2
-18.245747 4.125500 -0.057136 2
-18.246485 4.184628 -0.057418 2
-18.258755 4.246146 -0.058433 2
-18.262968 4.306196 -0.058959 2
-18.248001 4.359426 -0.058285 2
-18.255705 4.420367 -0.059055 2
-18.270380 4.485921 -0.060290 2
-18.270428 4.542532 -0.060593 2
-18.261856 4.600302 -0.060385 2
-18.260870 4.659808 -0.060666 2
-18.263557 4.720242 -0.061190 2
-18.269911 4.781643 -0.061958 2
-18.248835 4.836711 -0.061020 2
-18.254751 4.898196 -0.061788 2
-18.237160 4.954101 -0.061095 2
-18.242632 5.015679 -0.061862 2
-18.295057 5.086155 -0.065569 2
-18.312368 5.148168 -0.067086 4
-18.212734 5.246853 -0.061793 50
-18.144531 5.286378 -0.057971 50
-18.152597 5.349068 -0.058982 10
-18.260361 5.500325 -0.066819 4
-18.332966 5.581988 -0.071945 4
-18.362955 5.652206 -0.074402 4
-18.384977 5.720478 -0.076374 4
-18.468050 5.806854 -0.082216 6
-18.151033 5.837234 -0.063422 32
-18.172255 5.905300 -0.065396 28
-18.197014 5.974744 -0.067610 30
-18.137604 6.018349 -0.064511 34
-17.439089 5.857569 -0.020888 13
-17.355381 5.949586 -0.016909 50
-17.296247 5.989677 -0.013838 31
-17.142225 5.998146 -0.004747 52
-16.882288 5.970209 0.011080 42
-16.834578 6.012043 0.013412 38
-16.752750 6.041992 0.017907 49
-16.564344 6.037478 0.029152 31
-16.087687 5.925230 0.058861 33
-16.070400 5.974509 0.059244 47
-15.883735 5.963291 0.070437 39
-15.757409 5.972529 0.077778 26
-15.608685 5.972732 0.086552 26
-15.401059 5.947494 0.099139 22
-15.249012 5.944165 0.108136 19
-14.745932 5.807503 0.139660 31
-14.885783 5.911775 0.129941 33
-14.771660 5.919579 0.136517 27
-14.560883 5.889029 0.149313 42
-14.580893 5.947577 0.147259 25
-14.444774 5.944468 0.155254 16
-14.479312 6.008813 0.152242 18
-14.173930 5.933452 0.171206 12
-14.492954 6.113545 0.149792 12
-13.862369 5.904304 0.189775 15
-13.893073 5.965794 0.186991 17
-13.794696 5.973323 0.192561 19
-13.608224 5.942729 0.203850 34
-13.488153 5.939249 0.210839 31
-13.221708 5.871472 0.227354 46
-13.193648 5.905946 0.228370 49
-13.205660 5.958033 0.226765 13
-14.464626 6.566443 0.143751 12
-12.959566 5.941351 0.241167 16
-13.491522 6.324238 0.203767 34
-13.454763 6.356009 0.205262 38
-13.339390 6.348166 0.211965 23
-12.480312 5.988581 0.267576 20
-11.569079 5.598853 0.326713 11
-11.903542 5.842775 0.303027 13
-13.511934 6.680226 0.195711 22
-12.241377 6.096800 0.278917 25
-12.911546 6.479794 0.233500 28
-12.699917 6.420685 0.246572 16
-11.770314 5.993690 0.307429 18
-11.600127 5.949355 0.317858 50
-11.604042 5.994005 0.316694 23
-11.357431 5.905654 0.332298 45
-11.259004 5.895572 0.337979 67
-11.441898 6.036552 0.324776 34
-11.111971 5.899957 0.346022 37
-11.330984 6.057534 0.330441 25
-11.285211 6.074917 0.332574 22
-11.168567 6.055172 0.339433 21
-11.154341 6.089219 0.339439 12
-11.087710 6.093994 0.342979 9
-8.302957 5.925694 0.540319 13
-8.210246 5.888663 0.545484 20
-8.196257 5.912923 0.545433 26
-8.207188 5.957033 0.543715 8
-8.196060 5.983801 0.543456 13
-8.467768 6.238759 0.524251 15
-8.136266 6.007061 0.545434 10
-8.024042 5.986547 0.550943 41
-7.997355 6.000029 0.551719 21
-8.574470 6.518030 0.511556 10
-7.696372 5.818258 0.570093 12
-8.090859 6.186952 0.542203 5
-7.642503 5.875453 0.570729 35
-7.574935 5.849825 0.574390 53
-7.817808 6.094099 0.556690 31
-8.250483 6.588017 0.523362 21
-8.233891 6.612605 0.523311 22
-8.211274 6.631792 0.523673 12
-8.194512 6.656262 0.523621 9
-7.514635 6.073858 0.570107 12
-7.468379 6.065180 0.572305 17
-7.433072 6.068073 0.573681 20
-7.403648 6.076235 0.574642 30
-7.356780 6.067830 0.576842 30
-7.318735 6.067403 0.578420 30
-7.185385 5.975770 0.586808 29
-7.245734 6.068705 0.581365 33
-7.176311 6.037124 0.585207 37
-7.130061 6.027422 0.587397 46
-7.123863 6.056627 0.586698 43
-7.091949 6.060581 0.587855 48
-7.051574 6.055921 0.589627 36
-7.023468 6.061468 0.590569 40
-6.997308 6.070600 0.591309 39
-6.926303 6.034066 0.595342 34
-6.928226 6.071362 0.594022 21
-6.865946 6.042815 0.597433 35
-6.770654 5.979387 0.603308 34
-6.813998 6.059625 0.598903 33
-6.757747 6.036006 0.601896 36
-6.707205 6.017865 0.604476 29
-6.589401 5.925772 0.612182 35
-6.691951 6.070520 0.603262 18
-6.660636 6.072341 0.604401 16
-6.561812 6.000452 0.610668 16
-6.487775 5.954501 0.615084 24
-6.502608 6.005805 0.612732 16
-6.442343 5.974104 0.616120 27
-6.355746 5.912249 0.621553 39
-6.471070 6.077003 0.611417 15
-6.329216 5.951807 0.621148 21
-6.414431 6.084310 0.613269 16
-6.375680 6.075695 0.615011 17
-6.350086 6.081999 0.615729 18
-6.334893 6.100325 0.615628 19
-5.903137 5.659935 0.647303 40
-6.134078 5.966818 0.627777 30
-6.133710 6.003572 0.626450 32
-6.086524 5.980440 0.628993 35
-6.089368 6.019512 0.627456 33
-6.118865 6.093450 0.623680 41
-6.050780 6.045823 0.627858 38
-5.963064 5.972869 0.633664 69
-5.983901 6.032953 0.630694 38
-5.646276 5.643036 0.657084 45
-5.980723 6.101737 0.628231 33
-5.925098 6.069204 0.631384 37
-5.829914 5.981297 0.637989 36
-5.851465 6.045423 0.634820 33
-5.835346 6.062824 0.634711 29
-5.783828 6.031758 0.637649 28
-5.797453 6.086561 0.635092 34
-5.765299 6.080725 0.636400 48
-5.741262 6.083691 0.637093 48
-5.724360 6.096200 0.637175 43
-5.700912 6.103513 0.637671 43
-5.673660 6.103609 0.638569 46
-5.627764 6.077652 0.641091 48
-5.571350 6.034565 0.644622 46
-5.547667 6.036743 0.645309 51
-5.561393 6.095559 0.642552 47
-5.497734 6.042648 0.646691 39
-5.477805 6.051684 0.646974 44
-5.464661 6.070508 0.646647 49
-5.448283 6.086614 0.646527 50
-5.429126 6.094848 0.646803 52
-5.403251 6.093076 0.647687 49
-5.298735 5.975609 0.655666 43
-5.239306 5.924017 0.659589 44
-5.290262 6.038810 0.653383 30
-5.283567 6.067114 0.652445 52
-5.231013 6.025083 0.655757 35
-5.209976 6.029186 0.656230 43
-5.196682 6.047227 0.655896 54
-5.123334 5.970815 0.661227 52
-5.127237 6.015622 0.659273 26
-5.124512 6.050355 0.657927 17
-5.082790 6.024574 0.660223 34
-5.048455 6.008225 0.661907 47
-5.050549 6.049120 0.660152 25
-5.018385 6.035961 0.661633 27
-4.973999 6.002098 0.664324 47
-4.940119 5.985141 0.666004 71
-4.934883 6.016139 0.664856 38
-4.931489 6.050605 0.663507 46
-4.911804 6.057493 0.663772 30
-4.840141 5.974372 0.669282 46
-4.852533 6.036383 0.666317 37
-4.817139 6.015192 0.668193 38
-4.758379 5.952059 0.672487 54
-4.795657 6.059418 0.666902 46
-4.778839 6.068792 0.666958 48
-4.751470 6.061100 0.668025 46
-4.721243 6.045785 0.669490 49
-4.703587 6.055392 0.669547 48
-4.683123 6.061892 0.669808 49
-4.657901 6.057260 0.670670 51
-4.636475 6.059579 0.671127 50
-4.612244 6.054270 0.671985 53
-4.590877 6.056405 0.672441 55
-4.568643 6.058907 0.672900 63
-4.546379 6.056854 0.673553 104
-4.519666 6.048027 0.674611 73
-4.499329 6.053802 0.674866 63
-4.479868 6.059056 0.675118 78
-4.460401 6.064237 0.675369 77
-4.413752 6.011480 0.678833 44
-4.417114 6.063159 0.676470 73
-4.394213 6.060898 0.677122 81
-4.369641 6.054933 0.677973 81
-4.322163 5.997858 0.681633 80
-4.329244 6.056325 0.678865 81
-4.304834 6.050064 0.679714 78
-4.262952 6.007792 0.682572 54
-4.255353 6.037618 0.681412 51
-4.232806 6.034671 0.682058 52
-4.220076 6.053516 0.681500 69
-4.198432 6.050022 0.682142 77
-4.179161 6.054144 0.682385 80
-4.158297 6.054529 0.682828 80
-4.135880 6.051159 0.683470 81
-4.116643 6.055047 0.683711 80
-4.098958 6.062542 0.683751 101
-4.076630 6.058917 0.684392 81
-4.053709 6.051140 0.685230 77
-4.037552 6.062113 0.685068 101
-4.016840 6.061929 0.685506 81
-3.996155 6.061662 0.685944 81
-3.972545 6.053887 0.686782 101
-3.956328 6.064597 0.686617 102
-3.932812 6.056643 0.687453 101
-3.915123 6.063497 0.687488 103
-3.893139 6.059091 0.688123 102
-3.864157 6.035905 0.689758 69
-3.849335 6.050004 0.689390 101
-3.832553 6.056241 0.689421 81
-3.807515 6.039910 0.690652 67
-3.792604 6.053841 0.690283 80
-3.768193 6.041399 0.691313 81
-3.750557 6.047678 0.691343 81
-3.730260 6.046355 0.691773 101
