# .PCD v.7 - Point Cloud Data file format
VERSION .7
FIELDS x y z intensity
SIZE 4 4 4 1
TYPE F F F U
COUNT 1 1 1 1
WIDTH 1566
HEIGHT 1
VIEWPOINT 0 0 0 1 0 0 0
POINTS 1566
DATA ascii
-1.289810 9.968527 0.063787 31
-1.257880 9.974066 0.062936 32
-1.227198 9.963622 0.063670 33
-1.197133 9.965105 0.063217 36
-1.166700 9.970452 0.062367 35
-1.135384 9.967625 0.062305 37
-1.103700 9.968651 0.061847 39
-1.072391 9.965603 0.061783 35
-1.040281 9.970366 0.060926 34
-1.006981 9.970889 0.060462 31
-0.976364 9.975589 0.059606 33
-0.943690 9.983962 0.058350 34
-0.913711 9.968495 0.059471 31
-0.881928 9.968737 0.059006 31
-0.850235 9.980910 0.057354 31
-0.818885 9.976978 0.057283 31
-0.787033 9.976883 0.056815 28
-0.753601 9.976464 0.056342 27
-0.723833 9.972411 0.056273 23
-0.690287 9.983803 0.054611 25
-0.658358 9.983252 0.054140 26
-0.625249 9.990460 0.052873 30
-0.595435 9.985982 0.052800 33
-0.561890 9.984849 0.052321 33
-0.530222 9.991953 0.051056 33
-0.498835 9.986903 0.050976 32
-0.466162 9.989597 0.050101 33
-0.433882 9.980134 0.050412 34
-0.402066 9.986786 0.049143 34
-0.370698 9.981289 0.049060 37
-0.338643 9.979600 0.048578 38
-0.305140 9.985626 0.047301 38
-0.273777 9.979791 0.047215 37
-0.241687 9.977756 0.046731 38
-0.208068 9.983419 0.045451 40
-0.175164 9.985054 0.044568 42
-0.142227 9.986568 0.043683 40
-0.110862 9.980165 0.043592 41
-0.077888 9.981443 0.042705 39
-0.044053 9.986493 0.041420 40
-0.011731 9.991757 0.040139 42
0.022219 9.996560 0.038851 40
0.041451 9.935204 0.044322 43
0.073519 9.932040 0.043829 45
0.120823 9.994688 0.036574 37
0.156763 10.006741 0.034487 37
0.193736 10.022523 0.032000 31
0.225225 10.014946 0.031900 33
0.258587 10.014990 0.031003 34
0.292940 10.018772 0.029706 33
0.326369 10.018566 0.028807 31
0.359239 10.022496 0.027514 30
0.390155 10.018604 0.027016 31
0.423661 10.018038 0.026114 32
0.458221 10.021194 0.024812 30
0.491789 10.020375 0.023907 32
0.525380 10.019433 0.023002 29
0.558995 10.018367 0.022095 30
0.593716 10.021005 0.020789 29
0.627389 10.019684 0.019880 30
0.661084 10.018238 0.018971 30
0.691431 10.005212 0.019255 28
0.729674 10.018785 0.016749 30
0.766467 10.032677 0.014248 27
0.803798 10.042133 0.012138 24
0.837702 10.040032 0.011222 27
0.871625 10.037805 0.010306 32
0.909172 10.046833 0.008192 28
0.944386 10.048129 0.006874 29
0.980872 10.053075 0.005157 29
1.016187 10.054094 0.003837 28
1.048709 10.051726 0.002921 28
1.082829 10.048711 0.001998 25
1.118542 10.045030 0.001067 25
1.156574 10.053043 -0.001056 27
1.194424 10.065212 -0.003573 20
1.227375 10.057897 -0.004101 23
1.261645 10.054213 -0.005030 23
1.297275 10.054144 -0.006359 23
1.337020 10.065160 -0.008888 26
1.365905 10.046121 -0.008223 27
1.412704 10.075495 -0.012751 26
1.447165 10.071115 -0.013686 25
1.482875 10.074651 -0.015414 26
1.518806 10.073724 -0.016751 26
1.554920 10.068332 -0.017696 25
1.592358 10.070829 -0.019435 25
1.625468 10.062072 -0.019976 25
1.660036 10.056890 -0.020917 26
1.691544 10.048523 -0.021453 57
1.718610 10.024659 -0.020397 65
1.762205 10.041206 -0.023741 53
1.786115 10.009777 -0.021886 53
1.836020 10.040685 -0.026835 58
1.853591 9.994391 -0.023380 52
1.886534 9.984681 -0.023929 51
1.927345 9.993118 -0.026480 55
1.958719 9.979490 -0.026630 57
1.994854 9.976682 -0.027982 66
2.043943 10.002827 -0.032540 42
2.078607 9.996055 -0.033495 47
2.103426 9.967396 -0.032047 61
2.161168 10.011073 -0.038613 36
2.194364 10.004583 -0.039564 30
2.225884 9.994363 -0.040115 48
2.272472 10.012120 -0.043882 38
2.298801 9.986496 -0.042839 48
2.345443 9.999550 -0.046216 80
2.390665 10.013142 -0.049587 71
2.427328 10.008633 -0.050954 65
2.455245 9.986114 -0.050316 62
2.497186 9.992043 -0.052889 80
2.517881 9.955063 -0.050647 77
2.542187 9.929498 -0.049601 71
2.560967 9.893224 -0.047351 67
2.604687 9.902181 -0.050330 61
2.646698 9.907404 -0.052909 53
2.684552 9.896703 -0.053900 67
2.712182 9.877726 -0.053661 45
2.715511 9.812949 -0.048199 40
2.757505 9.817631 -0.050782 22
2.872895 9.954413 -0.068651 46
2.900325 9.930491 -0.068024 35
2.946777 9.941386 -0.071418 33
2.986027 9.942479 -0.073599 33
3.028460 9.941669 -0.075800 26
3.055748 9.917259 -0.075176 24
3.088810 9.903155 -0.075761 19
3.088284 9.830179 -0.069505 17
3.071889 9.734052 -0.060420 21
3.090368 9.695776 -0.058186 22
3.096588 9.636866 -0.053536 27
3.117125 9.606332 -0.052098 21
3.151205 9.595396 -0.053086 21
3.224111 9.649203 -0.061730 10
3.253725 9.626734 -0.061522 8
3.232096 9.523483 -0.051633 11
3.241018 9.471378 -0.047787 13
3.269086 9.454081 -0.047963 25
3.300673 9.439151 -0.048553 10
2.883037 8.648779 0.041436 2
2.899021 8.615044 0.043282 3
2.919130 8.587987 0.044321 3
2.960729 8.594294 0.041323 3
2.998084 8.593735 0.039130 3
3.042050 8.602985 0.035725 3
3.075157 8.595430 0.034338 3
3.112689 8.594357 0.032141 3
3.154714 8.599720 0.029135 3
3.190144 8.594997 0.027339 3
3.228763 8.597600 0.024743 3
3.656433 9.163240 -0.047395 3
3.690529 9.091185 -0.043744 17
3.721032 9.074664 -0.044345 20
3.744590 9.048285 -0.043733 15
3.763411 9.015360 -0.042313 13
3.782073 8.982401 -0.040892 7
3.788908 8.933291 -0.037448 3
3.830637 8.932466 -0.040076 3
3.851230 8.902579 -0.039061 2
3.904819 8.917433 -0.043717 2
3.913403 8.871382 -0.040678 2
2.709425 7.212645 0.167813 1
2.715618 7.178074 0.170092 1
2.716547 7.132397 0.173572 1
2.723407 7.097086 0.175845 1
2.813683 7.127884 0.167419 1
2.845941 7.122872 0.165625 1
2.846510 7.081907 0.168715 0
2.872522 7.025606 0.171220 2
2.906027 7.024186 0.169026 1
2.954633 7.041139 0.164393 3
2.980742 7.030104 0.163414 7
3.011893 7.025104 0.161621 5
3.047098 7.026958 0.159023 7
3.214998 7.187476 0.135287 2
3.197734 7.118842 0.141600 11
3.165043 7.037049 0.149965 8
3.201596 7.037280 0.147352 9
3.233025 7.031293 0.145551 11
3.269684 7.031178 0.142935 11
3.298560 7.021882 0.141538 2
3.340562 7.027409 0.138105 1
4.390906 8.175591 -0.021265 2
4.416954 8.104403 -0.018026 13
4.448481 8.092077 -0.019450 28
4.462500 8.057881 -0.018034 24
4.488331 8.034290 -0.018259 32
4.517021 8.018718 -0.019279 28
4.551091 8.008866 -0.021115 23
4.567374 7.977369 -0.020108 48
4.575337 7.937149 -0.017877 50
4.583099 7.896958 -0.015646 51
4.611087 7.875805 -0.016282 47
4.636614 7.856843 -0.016897 48
4.674348 7.848071 -0.019158 30
4.703771 7.830568 -0.020194 15
4.733153 7.812943 -0.021231 10
4.741277 7.726550 -0.015952 2
4.764723 7.703114 -0.016173 2
4.772793 7.666765 -0.014339 3
4.796030 7.643219 -0.014561 3
4.827983 7.582024 -0.012960 28
4.846339 7.551574 -0.012375 18
4.869173 7.527772 -0.012598 14
4.902322 7.516055 -0.014448 11
4.927924 7.494790 -0.015083 6
4.948786 7.466776 -0.014909 5
4.962586 7.434484 -0.013906 3
4.979168 7.404874 -0.013312 2
4.979860 7.362986 -0.010658 2
4.993215 7.330676 -0.009654 2
5.012328 7.303692 -0.009470 2
5.034296 7.279313 -0.009697 2
5.050242 7.249556 -0.009104 2
5.045227 7.201287 -0.005638 3
5.061403 7.128654 -0.002398 7
5.091773 7.111929 -0.003858 9
5.134167 7.105459 -0.006961 13
5.140329 7.067718 -0.005137 10
5.173599 7.053200 -0.007010 6
5.208840 7.042342 -0.009284 3
5.225795 7.015976 -0.009093 2
5.234528 6.980669 -0.007679 2
5.243101 6.945374 -0.006266 3
5.263816 6.920192 -0.006498 2
5.259772 6.874826 -0.003438 2
5.261685 6.834567 -0.001200 2
5.294420 6.819289 -0.003079 3
5.338001 6.770966 -0.003957 5
5.354980 6.742993 -0.003779 5
5.365581 6.710075 -0.002776 5
5.313152 6.628399 0.006471 10
5.307538 6.583560 0.009537 13
5.323830 6.555738 0.009718 9
5.340016 6.527871 0.009898 7
5.355136 6.501236 0.010089 7
5.425321 6.473745 0.005494 2
5.435731 6.439556 0.006486 3
5.446847 6.370377 0.009332 31
5.477105 6.348871 0.007833 50
5.481866 6.314916 0.009263 41
5.509186 6.297119 0.007798 32
5.580604 6.229955 0.005018 2
5.595546 6.201339 0.005193 2
5.610380 6.172683 0.005368 3
5.601335 6.051068 0.012521 33
5.652066 6.046654 0.008139 54
5.656357 6.011290 0.009557 49
5.692913 5.999075 0.006842 46
5.723668 5.980997 0.004943 38
5.754391 5.962765 0.003042 24
5.791782 5.948666 0.000310 13
5.832528 5.936499 -0.002838 5
5.847423 5.867956 -0.000848 2
5.863529 5.842036 -0.001081 2
5.870225 5.808439 -0.000079 2
5.890365 5.783147 -0.000740 2
5.927436 5.768079 -0.003479 3
5.940629 5.738465 -0.003310 3
5.963962 5.714930 -0.004388 2
5.976954 5.685213 -0.004219 2
5.986405 5.653449 -0.003635 2
5.964788 5.603662 0.000696 2
5.876912 5.445128 0.016210 24
5.888923 5.415788 0.016384 22
5.893880 5.382534 0.017390 20
5.920335 5.359503 0.015883 18
5.976582 5.356355 0.010648 11
6.012701 5.340054 0.007900 3
5.993744 5.257949 0.013247 2
6.005054 5.228287 0.013418 2
6.009217 5.194886 0.014424 2
6.006195 5.157818 0.016266 2
6.024198 5.131815 0.015602 1
6.042117 5.105736 0.014938 2
6.045775 5.072354 0.015945 2
6.052849 5.040791 0.016534 2
6.059800 5.009229 0.017124 2
6.070190 4.979437 0.017295 1
6.080471 4.949621 0.017466 1
6.093531 4.922934 0.017231 1
6.102922 4.894469 0.017415 2
6.112889 4.864576 0.017586 1
6.122745 4.834661 0.017757 1
6.128892 4.803028 0.018347 1
6.145729 4.776450 0.017680 1
6.158869 4.748130 0.017431 1
6.164680 4.716447 0.018021 1
6.166746 4.683124 0.019030 1
6.183187 4.656363 0.018362 1
6.210440 4.634395 0.016435 1
6.208530 4.599419 0.017864 1
6.217408 4.569285 0.018035 1
6.229825 4.540716 0.017785 1
6.234831 4.508964 0.018375 1
6.243377 4.478777 0.018546 1
6.254875 4.451552 0.018308 1
6.259538 4.419789 0.018899 1
6.230993 4.374364 0.023273 1
6.250093 4.348762 0.022183 1
6.243305 4.312613 0.024037 1
6.247442 4.280994 0.024629 1
6.247761 4.247919 0.025643 1
6.240545 4.211973 0.027499 1
6.251714 4.183325 0.027250 1
6.247935 4.148923 0.028686 2
6.266319 4.123082 0.027595 1
6.266012 4.090136 0.028610 1
6.254394 4.053061 0.030891 2
6.287400 4.032627 0.028112 2
6.290470 4.001089 0.028707 2
6.304125 3.975061 0.028048 2
6.310722 3.944855 0.028221 2
6.305957 3.910663 0.029660 2
6.323585 3.884413 0.028566 2
6.322830 3.850135 0.029571 2
6.332736 3.821202 0.029322 2
6.342054 3.793684 0.029084 2
6.340444 3.760906 0.030103 2
6.342484 3.729419 0.030699 1
6.348187 3.699186 0.030872 1
6.361352 3.671385 0.030200 1
6.347894 3.635079 0.032489 2
6.360844 3.607253 0.031816 1
6.365654 3.578462 0.032002 1
6.367007 3.547046 0.032600 1
6.379661 3.519115 0.031927 1
6.365550 3.483140 0.034219 1
6.382233 3.454860 0.033110 1
6.394578 3.426836 0.032437 1
6.387717 3.393254 0.033883 1
6.391789 3.364468 0.034071 1
6.384682 3.331000 0.035518 1
6.385109 3.299732 0.036118 1
6.404605 3.273728 0.034596 1
6.404818 3.242445 0.035196 1
6.408758 3.212209 0.035371 1
6.420285 3.183988 0.034697 1
6.431717 3.155713 0.034023 1
6.431489 3.124443 0.034624 1
6.435004 3.094169 0.034799 1
6.438410 3.063895 0.034975 1
6.437842 3.032684 0.035577 1
6.437159 3.001502 0.036179 1
6.447628 2.974555 0.035516 1
6.458012 2.947562 0.034854 1
6.457347 2.914919 0.035444 1
6.460108 2.884649 0.035620 1
6.458878 2.853524 0.036223 1
6.457532 2.822430 0.036827 1
6.463537 2.794504 0.036590 1
6.504785 2.772462 0.032504 1
6.436929 2.727588 0.040358 1
6.442917 2.698264 0.040110 1
6.437101 2.666583 0.041143 1
6.442876 2.637258 0.040895 1
6.444924 2.605695 0.041062 1
6.442669 2.574870 0.041669 1
6.440032 2.545546 0.042288 1
6.437294 2.516257 0.042908 1
6.446979 2.484695 0.042209 1
6.444282 2.453972 0.042817 1
6.445145 2.425422 0.043010 1
6.445911 2.396883 0.043203 1
6.443134 2.364777 0.043800 0
6.452016 2.334593 0.043113 1
6.464490 2.306447 0.042010 1
6.469008 2.277029 0.041764 1
6.465338 2.247893 0.042386 1
6.465502 2.219370 0.042580 0
6.477798 2.189597 0.041464 1
6.481908 2.160134 0.041217 1
6.485717 2.132130 0.040983 1
6.485490 2.103594 0.041178 1
6.485542 2.072124 0.041348 0
6.485295 2.042143 0.041530 0
6.492661 2.014607 0.040867 0
6.456663 1.980445 0.044915 0
6.460209 1.949587 0.044657 0
6.467272 1.922093 0.043995 0
6.470448 1.892668 0.043750 0
6.469717 1.861351 0.043922 0
6.472535 1.833390 0.043689 0
6.479360 1.804329 0.043014 0
6.517762 1.778175 0.038897 0
6.528357 1.749283 0.037790 1
6.483258 1.717034 0.042722 0
6.469864 1.686245 0.044199 0
6.456360 1.655558 0.045677 0
6.466536 1.626772 0.044572 0
6.456782 1.596493 0.045621 0
6.450986 1.565095 0.046227 0
6.452916 1.535729 0.045984 0
6.454743 1.506356 0.045741 0
6.468379 1.477666 0.044203 0
6.477866 1.450144 0.043109 0
6.467480 1.420077 0.044161 0
6.445071 1.389521 0.046508 0
6.466251 1.361051 0.044106 0
6.467469 1.331633 0.043863 0
6.468584 1.302211 0.043621 0
6.457625 1.273854 0.044687 0
6.386993 1.242304 0.052225 0
6.467337 1.213818 0.043326 0
6.400425 1.184297 0.050448 0
6.472562 1.157995 0.042433 0
6.389575 1.127184 0.051278 0
6.389995 1.096577 0.051026 0
6.382337 1.067353 0.051653 0
6.414341 1.038414 0.047949 0
6.402504 1.009151 0.049009 0
6.386588 0.979977 0.050502 0
6.378531 0.952332 0.051142 0
6.398204 0.923063 0.048736 0
6.370060 0.894205 0.051533 0
6.369649 0.865126 0.051295 0
6.361186 0.836195 0.051924 0
6.360605 0.808599 0.051699 0
6.375719 0.776240 0.049701 0
6.347116 0.749403 0.052515 0
6.342274 0.721982 0.052724 0
6.361077 0.690837 0.050304 0
6.328171 0.663044 0.053543 0
6.315098 0.636068 0.054623 0
6.313787 0.607182 0.054388 0
6.308329 0.577055 0.054576 0
6.294899 0.548830 0.055646 0
6.289397 0.521681 0.055858 0
6.299593 0.492167 0.054318 0
6.297779 0.463336 0.054084 0
6.295766 0.433070 0.053838 0
6.285917 0.406255 0.054487 0
6.291842 0.378323 0.053394 0
-10.424150 1.000347 0.058785 1
-10.432050 1.028447 0.058168 1
-10.427912 1.057983 0.058834 1
-10.431626 1.087582 0.058653 1
-10.435237 1.117208 0.058472 1
-10.434767 1.146786 0.058714 1
-10.442147 1.176538 0.058110 1
-10.445447 1.206241 0.057929 1
-10.448642 1.235970 0.057749 1
-10.451733 1.265724 0.057568 1
-10.454720 1.295502 0.057388 1
-10.449653 1.324991 0.058052 2
-10.456468 1.353477 0.057437 2
-10.459146 1.383312 0.057257 1
-10.457748 1.412972 0.057498 1
-10.476106 1.443686 0.055631 2
-10.474497 1.473405 0.055872 2
-10.480724 1.503597 0.055271 2
-10.494784 1.534344 0.053827 3
-10.516670 1.565730 0.051540 3
-10.514635 1.595590 0.051783 3
-10.500594 1.624559 0.053289 3
-10.486456 1.653437 0.054793 2
-10.496009 1.684158 0.053772 2
-10.493560 1.713945 0.054013 2
-10.498931 1.744424 0.053413 2
-10.500233 1.774585 0.053234 3
-10.497468 1.804386 0.053475 2
-10.498704 1.833079 0.053283 2
-10.495735 1.862875 0.053524 2
-10.512442 1.894752 0.051664 2
-10.505302 1.924163 0.052325 3
-10.490158 1.952643 0.053825 3
-10.490723 1.982868 0.053645 3
-10.491180 2.013108 0.053466 3
-10.495480 2.043852 0.052866 2
-10.487828 2.073133 0.053526 3
-10.476133 2.101860 0.054604 3
-10.480111 2.132632 0.054004 3
-10.480241 2.161417 0.053812 2
-10.472187 2.190591 0.054470 3
-10.471908 2.220861 0.054290 3
-10.471520 2.251144 0.054109 2
-10.463160 2.280245 0.054766 3
-10.470423 2.311746 0.053748 3
-10.469712 2.342064 0.053567 3
-10.468893 2.372393 0.053387 3
-10.460118 2.401430 0.054043 2
-10.471104 2.432264 0.052595 2
-10.466299 2.460475 0.052821 2
-10.472371 2.495198 0.051828 2
-10.467358 2.523414 0.052053 2
-10.466164 2.552331 0.051861 2
-10.460685 2.582008 0.052098 2
-10.470733 2.614650 0.050664 2
-10.468653 2.646588 0.050495 2
-10.482355 2.680143 0.048645 2
-10.461130 2.705243 0.050539 2
-10.462912 2.736503 0.049940 2
-10.472365 2.769424 0.048508 2
-10.473911 2.800778 0.047911 2
-10.471453 2.831322 0.047730 2
-10.464675 2.862501 0.047977 2
-10.470091 2.893293 0.046951 2
-10.459542 2.922101 0.047603 2
-10.464401 2.954439 0.046589 2
-10.457865 2.982625 0.046812 2
-10.446662 3.012830 0.047475 2
-10.447666 3.042828 0.046865 2
-10.444339 3.073387 0.046684 2
-10.437041 3.102985 0.046917 2
-10.429268 3.134036 0.047163 2
-10.414430 3.160126 0.048215 2
-10.410679 3.190622 0.048033 2
-10.406430 3.222592 0.047861 2
-10.413983 3.256178 0.046432 2
-10.413726 3.287756 0.045834 2
-10.386907 3.310491 0.048130 2
-10.394110 3.344166 0.046701 2
-10.393108 3.377225 0.046115 2
-10.381347 3.404076 0.046749 2
-10.380961 3.434202 0.046139 2
-10.387672 3.468066 0.044711 3
-10.378997 3.497464 0.044942 2
-10.369779 3.528300 0.045183 2
-10.360893 3.557635 0.045413 2
-10.355706 3.588115 0.045229 3
-10.346613 3.617401 0.045458 2
-10.341209 3.647857 0.045272 3
-10.332375 3.675631 0.045490 2
-10.326759 3.706064 0.045304 3
-10.324814 3.737731 0.044704 2
-10.315198 3.766908 0.044932 2
-10.305481 3.796051 0.045159 2
-10.306961 3.829004 0.044146 2
-10.300789 3.859412 0.043960 3
-10.294507 3.889812 0.043773 2
-10.288114 3.920203 0.043586 3
-10.277861 3.949251 0.043812 3
-10.278739 3.982303 0.042799 3
-10.276274 4.012586 0.042187 2
-10.273169 4.044336 0.041587 2
-10.258216 4.073394 0.042236 2
-10.262328 4.107932 0.040811 2
-10.263128 4.139675 0.039787 2
-10.252110 4.168634 0.040011 2
-10.248970 4.198982 0.039399 2
-10.245155 4.230791 0.038799 2
-10.244920 4.264073 0.037786 2
-10.233468 4.292968 0.038009 2
-10.240365 4.329264 0.036173 2
-10.228684 4.358142 0.036396 2
-10.216312 4.388421 0.036629 2
-10.219123 4.423324 0.035205 2
-10.222393 4.456847 0.033771 2
-10.206605 4.484109 0.034403 2
-10.202314 4.514561 0.033791 2
-10.179029 4.538574 0.035245 2
-10.180585 4.575032 0.033832 2
-10.171689 4.605303 0.033641 2
-10.169954 4.638789 0.032629 2
-10.161466 4.667617 0.032426 2
-10.138375 4.689869 0.033866 2
-10.128407 4.721467 0.033685 2
-10.122585 4.753285 0.033082 2
-10.115980 4.786530 0.032490 3
-10.099770 4.811860 0.033106 2
-10.097865 4.843935 0.032082 3
-10.080124 4.872015 0.032719 2
-10.077302 4.905517 0.031705 3
-10.070767 4.937305 0.031101 3
-10.057659 4.964176 0.031305 3
-10.047330 4.994178 0.031110 3
-10.040450 5.025935 0.030506 3
-10.034155 5.056283 0.029890 3
-10.030581 5.089844 0.028876 2
-10.019790 5.119800 0.028680 3
-9.983227 5.207663 0.028499 46
-9.957936 5.230047 0.029937 44
-9.949388 5.263081 0.029341 49
-9.921189 5.281993 0.031175 43
-9.920170 5.317354 0.029750 15
-9.970691 5.415684 0.020765 2
-9.965649 5.449423 0.019751 3
-9.942342 5.474833 0.020788 3
-9.937840 5.507155 0.019762 3
-9.949697 5.550752 0.016707 7
-9.919162 5.572058 0.018558 13
-9.886740 5.588439 0.020795 28
-9.870667 5.616075 0.021002 51
-9.863970 5.651097 0.019996 92
-9.833998 5.670520 0.021832 78
-9.831292 5.706153 0.020407 52
-9.822449 5.736338 0.019787 18
-9.829884 5.816064 0.015310 2
-9.826556 5.851869 0.013886 3
-11.050191 7.995317 -0.042180 23
-11.032007 8.031886 -0.042646 22
-11.019958 8.073323 -0.043808 21
-11.010860 8.117227 -0.045318 19
-10.989079 8.151247 -0.045437 11
-10.954716 8.175254 -0.044167 9
-10.984890 8.303091 -0.052748 3
-10.960618 8.332973 -0.052532 6
-10.925724 8.356752 -0.051264 6
-10.907904 8.397182 -0.052070 10
-10.888144 8.433469 -0.052540 9
-10.877397 8.477395 -0.054052 9
-10.858634 8.512065 -0.054534 9
-10.835386 8.545659 -0.054658 6
-10.805964 8.573995 -0.054090 4
-10.830742 8.649094 -0.059764 3
-10.813004 8.687850 -0.060583 3
-10.747153 8.738914 -0.058758 9
-10.740938 8.788057 -0.060965 10
-10.722366 8.820911 -0.061462 11
-10.699560 8.858301 -0.061926 11
-10.676599 8.895629 -0.062392 10
-10.654690 8.925655 -0.062544 7
-10.637311 8.968253 -0.063703 3
-10.638680 9.025562 -0.066949 2
-10.639754 9.082978 -0.070195 2
-10.623103 9.124133 -0.071364 3
-10.612343 9.228371 -0.076471 12
-10.563429 9.239211 -0.073839 15
-10.505691 9.299063 -0.073419 23
-10.475270 9.324563 -0.072875 16
-10.436185 9.347318 -0.071621 5
-10.491829 9.461082 -0.081773 6
-10.537004 9.562569 -0.090552 6
-10.530833 9.619389 -0.093440 10
-10.496602 9.642084 -0.092552 10
-10.485903 9.691750 -0.094760 11
-10.472181 9.738590 -0.096623 10
-10.444391 9.771110 -0.096762 11
-10.408201 9.794916 -0.095868 11
-10.374697 9.821462 -0.095319 12
-10.342655 9.846417 -0.094782 13
-10.306262 9.869811 -0.093891 15
-10.277966 9.901799 -0.094035 17
-10.229430 9.908873 -0.091433 25
-10.156236 9.895132 -0.086059 27
-10.109001 9.906034 -0.083796 37
-10.075181 9.931468 -0.083257 26
-10.069531 9.984963 -0.086171 13
-10.048747 10.025087 -0.087355 10
-9.998656 10.032413 -0.084753 15
-9.948613 10.039499 -0.082154 13
-9.885483 10.031363 -0.077836 15
-9.831934 10.030540 -0.074562 15
-9.769081 10.021783 -0.070249 12
-7.116845 7.041203 0.274221 0
-7.039077 6.992235 0.281903 0
-6.934545 6.908369 0.293357 0
-6.877889 6.924535 0.295651 0
-6.743086 6.844527 0.308586 1
-6.705066 6.839520 0.311101 2
-6.647751 6.849892 0.313719 2
-6.617373 6.853734 0.315200 2
-6.579621 6.848047 0.317710 2
-6.554250 6.857858 0.318503 2
-6.528866 6.867563 0.319295 4
-6.493732 6.864542 0.321458 3
-6.438171 6.877012 0.323723 8
-6.403203 6.873523 0.325883 19
-6.345401 6.882014 0.328484 2
-6.339036 6.916514 0.326529 2
-6.312304 6.921361 0.327651 3
-6.235277 6.859203 0.335970 2
-6.196100 6.848252 0.338807 7
-6.157052 6.837099 0.341642 12
-6.104660 6.849982 0.343543 2
-6.079618 6.857888 0.344320 1
-6.068243 6.885308 0.343044 0
-6.083931 6.952052 0.337662 1
-6.018000 6.900696 0.344596 0
-5.950233 6.845661 0.351870 1
-5.919205 6.885914 0.350675 2
-5.894197 6.893063 0.351446 4
-5.869189 6.900109 0.352217 2
-5.832085 6.886386 0.355034 1
-5.810467 6.900536 0.355123 1
-5.781175 6.900550 0.356575 1
-5.752960 6.899770 0.358021 1
-5.723762 6.899525 0.359470 1
-5.692483 6.895779 0.361261 0
-5.667628 6.902016 0.362025 0
-5.642776 6.908152 0.362788 0
-5.611643 6.904013 0.364575 0
-5.586831 6.909924 0.365337 0
-5.556843 6.904889 0.367118 0
-5.525898 6.900343 0.368902 0
-5.492981 6.892234 0.371026 0
-5.472375 6.904528 0.371102 0
-5.447680 6.909882 0.371859 0
-5.410923 6.894490 0.374662 0
-5.378315 6.885810 0.376782 0
-5.351771 6.887339 0.377877 0
-5.325257 6.888755 0.378972 0
-5.294849 6.883120 0.380747 0
-5.270374 6.887771 0.381499 0
-5.240091 6.881877 0.383273 0
-5.225301 6.903755 0.382319 0
-5.189483 6.882526 0.385447 0
-5.162174 6.883814 0.386540 0
-5.132146 6.877410 0.388309 0
-5.113471 6.891960 0.388034 0
-5.085404 6.888842 0.389461 0
-5.062957 6.896185 0.389866 0
-5.036003 6.892302 0.391288 1
-5.004421 6.881756 0.393394 1
-4.979191 6.885777 0.394140 1
-4.956805 6.892724 0.394541 1
-4.924684 6.877709 0.396981 1
-4.897764 6.877834 0.398065 1
-4.871169 6.873253 0.399482 1
-4.846094 6.876723 0.400223 2
-4.818885 6.867838 0.401976 1
-4.794906 6.870599 0.402713 2
-4.770942 6.873264 0.403449 2
-4.726448 6.885523 0.404239 2
-4.699146 6.880685 0.405653 2
-4.674221 6.883442 0.406389 2
-4.648685 6.882001 0.407461 2
-4.624219 6.879988 0.408530 2
-4.600400 6.881975 0.409261 3
-4.578217 6.887511 0.409651 2
-4.551213 6.882018 0.411060 3
-4.530084 6.886922 0.411446 3
-4.500022 6.873900 0.413534 3
-4.473217 6.868070 0.414940 3
-4.454254 6.880474 0.414647 3
-4.429584 6.882222 0.415375 3
-4.404434 6.879761 0.416439 3
-4.380358 6.876774 0.417501 2
-4.359811 6.885184 0.417544 2
-4.336255 6.886129 0.418267 2
-4.312721 6.886981 0.418989 2
-4.291704 6.891042 0.419368 2
-4.265301 6.884295 0.420768 2
-4.241850 6.884871 0.421487 2
-4.215573 6.877910 0.422885 2
-4.195023 6.885745 0.422925 1
-4.163247 6.863655 0.425679 1
-4.141360 6.867571 0.426056 1
-4.115351 6.860181 0.427451 1
-4.093503 6.863921 0.427827 1
-4.045178 6.851651 0.430269 1
-4.020752 6.847612 0.431322 2
-3.998999 6.851003 0.431695 1
-3.978544 6.858083 0.431728 1
-3.996562 6.978291 0.421582 1
-3.988364 7.023139 0.418222 1
-3.977561 7.064571 0.415203 1
-3.861137 6.846915 0.435954 2
-3.838263 6.845923 0.436662 2
-3.814214 6.841043 0.437708 6
-3.770840 6.842101 0.438779 4
-3.749252 6.844573 0.439144 6
-3.727799 6.851089 0.439172 4
-3.664063 6.857492 0.440262 112
-3.644685 6.867234 0.439946 39
-3.577804 6.865333 0.441708 3
-3.531622 6.857230 0.443444 13
-3.517772 6.972193 0.434332 1
-3.467170 6.861778 0.444518 2
-3.439837 6.839953 0.446908 4
-3.418516 6.837092 0.447602 5
-3.353556 6.836530 0.449005 62
-3.310942 6.838345 0.449712 3
-3.290535 6.843022 0.449725 4
-3.271851 6.855408 0.449060 3
-3.253097 6.867734 0.448395 1
-3.248600 6.946225 0.441969 1
-3.252092 7.059614 0.432494 1
-3.261115 7.208427 0.419969 1
-3.141957 6.842307 0.452512 9
-3.101864 6.854323 0.452190 25
-3.082898 6.866101 0.451520 10
-3.063864 6.877817 0.450849 7
-3.044041 6.885552 0.450516 4
-3.022763 6.885376 0.450861 2
-3.014237 7.081155 0.434610 1
-2.981662 7.017992 0.440373 0
-2.967683 7.198075 0.425474 2
-2.897770 7.168711 0.428866 247
-2.875628 7.168002 0.429205 246
-2.854074 7.171158 0.429204 244
-2.833065 7.178185 0.428865 228
-2.812561 7.189090 0.428185 35
-2.765205 7.336059 0.416321 0
-2.749895 7.394207 0.411574 0
-2.718087 7.510412 0.402078 0
-2.707209 7.607939 0.393942 0
-2.872649 10.227553 0.170996 37
-2.837678 10.218930 0.171998 42
-2.802937 10.194151 0.174355 41
-2.771382 10.184981 0.175356 46
-2.736949 10.159955 0.177712 34
-2.705281 10.166580 0.177355 26
-2.672959 10.165149 0.177676 40
-2.642131 10.183477 0.176302 38
-2.617085 10.285192 0.167811 31
-2.584405 10.259480 0.170162 23
-2.551560 10.253644 0.170818 22
-2.520685 10.279520 0.168762 25
-2.485111 10.225708 0.173482 30
-2.449920 10.171762 0.178201 31
-2.419875 10.213220 0.174787 27
-2.390285 10.270504 0.170016 13
-2.358594 10.287874 0.168632 17
-2.326206 10.249316 0.171994 16
-2.293620 10.242569 0.172643 26
-2.262252 10.271558 0.170240 32
-2.228948 10.240682 0.172920 26
-2.197903 10.289372 0.168820 27
-2.166909 10.282138 0.169466 30
-2.133224 10.215057 0.175195 17
-2.100313 10.167780 0.179229 15
-2.069381 10.259873 0.171395 9
-2.036086 10.144617 0.181191 27
-2.004172 10.148809 0.180815 28
-1.972209 10.136948 0.181794 27
-1.940269 10.152873 0.180398 48
-1.908264 10.160716 0.179680 24
-1.873842 10.610846 0.141318 20
-1.841127 10.542733 0.147040 16
-1.808315 10.510376 0.149708 25
-1.775031 10.513770 0.149324 9
-1.746650 10.301882 0.167256 16
-1.716485 10.213425 0.174673 22
-1.686220 10.148774 0.180054 40
-1.652679 10.195560 0.175935 31
-1.616312 10.309931 0.166047 16
-1.573998 10.551594 0.145299 16
-1.540751 10.586094 0.142195 22
-1.512395 10.441170 0.154356 18
-1.493197 10.168877 0.177381 9
-1.428715 10.173346 0.176595 38
-1.400131 10.167650 0.176885 42
-1.366779 10.161556 0.177166 19
-1.336147 10.139544 0.178807 15
-1.301386 10.177061 0.175354 40
-1.269046 10.178678 0.174956 40
-1.235436 10.196073 0.173199 36
-1.199410 10.241150 0.169063 37
-1.167146 10.238436 0.169002 41
-1.135246 10.231639 0.169279 44
-1.104488 10.212826 0.170574 45
-1.068503 10.249453 0.167113 38
-1.032294 10.301965 0.162294 33
-0.993685 10.358134 0.157131 40
-0.958477 10.378479 0.155024 24
-0.928792 10.347192 0.157334 41
-0.895259 10.351452 0.156584 41
-0.866325 10.316008 0.159232 34
-0.837626 10.280476 0.161880 39
-0.814080 10.205307 0.167927 32
-0.778910 10.224968 0.165814 41
-0.750340 10.193125 0.168121 42
-0.722513 10.169311 0.169750 46
-0.692688 10.149140 0.171036 36
-0.660748 10.144658 0.170960 42
-0.627676 10.147952 0.170203 48
-0.595153 10.147184 0.169785 48
-0.561417 10.154181 0.168686 46
-0.527000 10.164990 0.167245 48
-0.494093 10.175928 0.165808 44
-0.462061 10.170752 0.165726 47
-0.428736 10.173326 0.164963 50
-0.396714 10.167922 0.164879 52
-0.362661 10.174186 0.163774 51
-0.328546 10.180324 0.162667 40
-0.287266 10.225552 0.158154 33
-0.249995 10.247087 0.155683 43
-0.216382 10.257030 0.154236 39
-0.190073 10.219570 0.156871 38
-0.159500 10.213647 0.156785 40
-0.120343 10.242483 0.153628 27
-0.095176 10.192709 0.157279 49
-0.062283 10.190043 0.156845 58
-0.027748 10.195061 0.155728 49
0.016882 10.254861 0.149844 44
0.051647 10.251445 0.149402 50
0.085658 10.252146 0.148622 60
0.112980 10.237893 0.149216 50
0.143454 10.222826 0.149798 52
0.188048 10.261642 0.145601 44
0.236810 10.323915 0.139360 34
0.244335 10.211528 0.148467 20
0.320054 10.242344 0.144166 21
0.343609 10.199529 0.147132 27
0.379992 10.215014 0.144984 24
0.424075 10.253102 0.140781 43
0.457377 10.248577 0.140331 38
0.477847 10.201979 0.143642 38
0.517771 10.216073 0.141478 42
0.549936 10.207364 0.141367 31
0.584192 10.206227 0.140572 17
0.608277 10.174707 0.142515 16
0.649509 10.192069 0.140005 17
0.693697 10.225035 0.136131 30
0.752117 10.311849 0.127478 21
0.795882 10.340549 0.123942 38
0.813659 10.281225 0.128267 8
0.742250 9.928148 0.158918 33
0.883356 10.051454 0.144886 8
1.064543 10.512465 0.102345 16
1.186969 10.228777 0.121432 2
1.263142 10.240447 0.118088 18
1.295387 10.229136 0.117956 24
1.328930 10.221468 0.117480 19
1.366511 10.224926 0.115976 26
1.398701 10.213255 0.115840 19
1.429013 10.206395 0.115375 24
1.454196 10.175828 0.116953 20
1.482010 10.152658 0.117844 23
1.519606 10.155488 0.116334 25
1.551721 10.138949 0.116531 24
1.585051 10.130348 0.116048 41
1.609504 10.103696 0.117287 43
1.635405 10.076354 0.118518 40
1.628615 9.967531 0.127300 31
1.707654 10.073198 0.116173 61
1.742323 10.067718 0.115342 47
1.796730 10.110008 0.110046 33
1.831518 10.108537 0.108876 47
1.863299 10.095243 0.108728 67
1.910591 10.118529 0.105143 28
1.940838 10.101296 0.105337 57
1.983662 10.113228 0.102780 24
2.025022 10.121318 0.100565 21
2.064880 10.125584 0.098692 21
2.104816 10.129682 0.096818 20
2.143198 10.129977 0.095286 19
2.178341 10.122855 0.094442 32
2.200224 10.086606 0.096348 35
2.258648 10.129919 0.090683 38
2.302366 10.144778 0.087778 30
2.342743 10.147875 0.085895 20
2.379779 10.143600 0.084699 19
2.416838 10.139177 0.083502 16
2.457383 10.141785 0.081615 19
2.492765 10.133472 0.080760 27
2.538687 10.146484 0.077836 20
2.579444 10.148575 0.075945 21
2.622053 10.154057 0.073707 21
2.659371 10.148678 0.072502 34
2.707549 10.164461 0.069226 20
2.746797 10.162292 0.067673 18
2.784254 10.156420 0.066464 21
2.819883 10.146866 0.065599 27
2.863187 10.155648 0.063015 21
2.911938 10.170434 0.059731 20
2.955209 10.174450 0.057480 21
2.992889 10.167754 0.056264 21
3.040107 10.178409 0.053319 23
3.085542 10.185352 0.050718 23
3.123369 10.178142 0.049498 24
3.172856 10.191660 0.046202 20
3.208824 10.180630 0.045324 23
3.227087 10.138263 0.047557 32
3.292582 10.178912 0.041490 29
3.336536 10.181234 0.039224 25
2.306887 8.221394 0.230748 0
2.297452 8.148228 0.236480 0
2.299852 8.095724 0.240136 0
2.293695 8.029648 0.245178 0
2.307857 7.997737 0.246758 0
2.284325 7.904682 0.254575 0
2.281160 7.845766 0.258928 0
2.290287 7.807246 0.261204 0
2.301316 7.772120 0.263133 0
2.278044 7.683133 0.270611 0
2.278767 7.635444 0.273937 0
2.289990 7.604586 0.275529 0
2.305519 7.575583 0.276759 0
2.309999 7.529872 0.279725 0
2.328401 7.508267 0.280268 0
2.348839 7.494761 0.280133 0
2.326162 7.409327 0.287267 0
2.335177 7.374486 0.289201 0
2.347346 7.342207 0.290780 0
2.367857 7.279908 0.293962 1
2.393370 7.223401 0.296442 2
2.408203 7.198388 0.297334 4
2.425219 7.176598 0.297878 6
2.442137 7.154765 0.298422 6
2.475244 7.155532 0.296528 8
2.487366 7.127104 0.297768 9
2.512372 7.118758 0.296925 10
2.538439 7.109528 0.296074 9
2.562124 7.096989 0.295570 10
2.597689 7.100328 0.293324 9
2.618971 7.084380 0.293167 9
2.649815 7.081067 0.291615 8
2.675860 7.071274 0.290759 7
2.703261 7.065348 0.289561 7
2.727914 7.051365 0.289045 2
2.756370 7.044393 0.287838 2
2.808365 7.023819 0.286118 1
2.948835 7.028608 0.277435 6
2.977436 7.020684 0.276219 2
3.021252 7.031079 0.272905 2
3.083019 7.062699 0.267140 7
3.154995 7.064805 0.262608 3
3.189034 7.062106 0.260685 12
3.210177 7.044093 0.260512 20
3.244249 7.041112 0.258587 6
3.273145 7.031942 0.257361 3
3.317756 7.040661 0.254032 5
3.354602 7.040161 0.251752 2
3.386228 7.033508 0.250172 1
3.547985 7.129500 0.234031 4
3.556005 7.095451 0.235601 1
3.598714 7.099735 0.232609 1
3.641520 7.103796 0.229616 2
3.686055 7.111545 0.226279 1
3.723637 7.109314 0.223984 1
3.769438 7.115625 0.220634 1
3.807155 7.112989 0.218335 2
3.850408 7.115946 0.215333 2
3.899255 7.124437 0.211625 2
3.942707 7.126919 0.208618 2
3.987949 7.133072 0.205267 4
4.027094 7.128342 0.202949 2
4.073590 7.132987 0.199585 3
4.128597 7.145881 0.195162 2
4.175332 7.149996 0.191792 3
4.219347 7.151046 0.188773 4
4.263443 7.151863 0.185751 2
4.309387 7.156335 0.182386 3
4.374685 7.175066 0.176883 5
4.427680 7.183423 0.172797 6
4.483679 7.194248 0.168356 7
4.542712 7.207511 0.163559 7
4.610583 7.228668 0.157701 9
4.661286 7.233026 0.153957 9
4.732458 7.256167 0.147740 14
4.771774 7.249043 0.145402 13
4.815886 7.248311 0.142368 9
4.867030 7.251549 0.138614 4
4.918278 7.254506 0.134858 3
6.482515 8.572058 -0.046973 1
6.491059 8.526628 -0.045125 1
6.505722 8.492110 -0.044311 1
6.525846 8.457246 -0.043878 1
6.548829 8.424954 -0.043799 1
6.563952 8.383272 -0.042672 1
6.578884 8.341579 -0.041545 1
6.601911 8.314714 -0.041794 2
6.625631 8.280702 -0.041730 1
6.647953 8.248116 -0.041653 2
5.552051 7.279351 0.088186 1
5.540231 7.225070 0.091845 1
5.560880 7.156186 0.093857 1
5.557614 7.109771 0.096454 2
5.643606 7.092045 0.090999 2
5.720922 7.110155 0.084361 6
5.810955 7.137685 0.076297 3
5.860540 7.132668 0.072849 9
5.885050 7.107780 0.072243 10
5.928383 7.097429 0.069503 3
5.993851 7.103846 0.064271 2
6.794259 7.670627 -0.023518 1
6.906415 7.707392 -0.033763 2
6.920227 7.669214 -0.032978 2
6.939108 7.637342 -0.032891 1
6.962228 7.606235 -0.033174 1
6.994864 7.582132 -0.034527 1
7.024225 7.555532 -0.035525 1
7.047059 7.524128 -0.035810 1
7.076249 7.497302 -0.036810 1
7.108603 7.472667 -0.038167 1
7.144144 7.450191 -0.039882 1
7.179638 7.427546 -0.041598 1
7.198759 7.393318 -0.041530 1
7.211206 7.354491 -0.040749 1
7.226775 7.317916 -0.040324 1
7.260834 7.296410 -0.042029 1
7.268485 7.256843 -0.040876 1
7.290275 7.224588 -0.041167 1
7.311952 7.192257 -0.041459 1
7.323558 7.153241 -0.040678 1
7.351640 7.125178 -0.041686 1
7.366301 7.088274 -0.041263 1
7.390843 7.057847 -0.041914 1
7.388491 7.010067 -0.039701 1
7.392633 6.966669 -0.038203 1
7.413410 6.933983 -0.038497 1
7.420584 6.892737 -0.037357 1
7.427585 6.851514 -0.036216 1
7.432040 6.806576 -0.034731 1
7.397949 6.740382 -0.029284 1
7.412541 6.708877 -0.029188 1
7.411970 6.663743 -0.027327 1
7.419010 6.621150 -0.026198 2
7.422441 6.576542 -0.024709 2
7.415913 6.532844 -0.022457 2
7.422389 6.490380 -0.021326 2
7.418346 6.441937 -0.019116 2
7.426938 6.403193 -0.018329 2
7.423128 6.361798 -0.016433 2
7.435795 6.323435 -0.016020 2
7.441363 6.281143 -0.014887 2
7.419657 6.230206 -0.011188 3
7.441990 6.156917 -0.010330 32
7.478326 6.131948 -0.012438 58
7.503199 6.102755 -0.013451 39
7.537630 6.080753 -0.015533 32
7.586972 6.064394 -0.019073 12
7.615047 5.993924 -0.018942 2
7.638634 5.965808 -0.019945 2
7.677174 5.943196 -0.022408 2
7.697926 5.911331 -0.023067 2
7.708756 5.872305 -0.022657 3
7.736398 5.843872 -0.024039 2
7.771096 5.818847 -0.026146 2
7.787863 5.784846 -0.026445 2
7.792942 5.747253 -0.025644 2
7.795114 5.706241 -0.024496 2
7.811488 5.672158 -0.024796 2
7.759373 5.605550 -0.018215 2
7.764477 5.481759 -0.014775 36
7.780068 5.447784 -0.015073 20
7.794770 5.415457 -0.015356 7
7.788224 5.332741 -0.012308 1
7.799651 5.297075 -0.012243 2
7.808042 5.258082 -0.011830 1
7.822852 5.223957 -0.012128 1
7.826560 5.185071 -0.011336 1
7.852115 5.155551 -0.012725 1
7.840863 5.110466 -0.010478 2
7.858123 5.079471 -0.011125 1
7.864945 5.042134 -0.010696 1
7.875314 5.006305 -0.010631 1
7.878166 4.967467 -0.009838 1
7.888264 4.931618 -0.009773 1
7.898231 4.895747 -0.009707 1
7.915484 4.862763 -0.010371 1
7.906634 4.819616 -0.008483 1
7.919913 4.785149 -0.008782 1
7.907009 4.740728 -0.006528 1
7.905100 4.700651 -0.005367 1
7.914231 4.664800 -0.005301 1
7.921964 4.632381 -0.005204 1
7.930848 4.596497 -0.005138 1
7.920866 4.553838 -0.003245 1
7.925715 4.516646 -0.002812 1
7.930424 4.479464 -0.002380 1
7.931234 4.440979 -0.001581 1
7.939426 4.405129 -0.001513 1
7.936179 4.365407 -0.000348 1
7.940325 4.328293 0.000086 1
7.948110 4.292452 0.000154 1
7.914151 4.242887 0.004251 1
7.921631 4.207165 0.004320 1
7.917605 4.167769 0.005489 1
7.917222 4.129648 0.006292 1
7.943295 4.099922 0.004530 1
7.931236 4.058250 0.006433 1
7.948946 4.027765 0.005418 1
7.940401 3.987384 0.006956 1
7.954592 3.953945 0.006293 1
7.957210 3.917061 0.006730 1
7.967339 3.882423 0.006434 2
7.977347 3.847749 0.006137 1
7.983403 3.811954 0.006208 1
7.993165 3.777225 0.005911 1
7.991288 3.739280 0.006718 1
7.996954 3.703477 0.006789 1
8.002491 3.667667 0.006860 1
8.000199 3.629811 0.007668 1
7.990057 3.589990 0.009212 1
7.987473 3.552258 0.010021 1
8.007911 3.520457 0.008620 1
7.993039 3.481582 0.010550 1
7.993914 3.444914 0.010992 1
8.006686 3.409352 0.010313 1
8.007710 3.370952 0.010740 1
8.023687 3.337965 0.009706 1
8.031392 3.304842 0.009425 1
8.015689 3.266377 0.011360 1
8.042977 3.235902 0.009217 1
8.046840 3.200109 0.009291 1
8.019437 3.157554 0.012321 1
8.046390 3.126862 0.010178 1
8.038169 3.088645 0.011361 1
8.057108 3.056143 0.009956 1
8.048265 3.019744 0.011155 1
8.051355 2.984016 0.011230 1
8.062477 2.948070 0.010550 1
8.018373 2.903320 0.015070 1
8.001479 2.864056 0.017000 1
8.000099 2.827824 0.017448 1
8.018185 2.795170 0.016042 1
8.012325 2.759981 0.016876 1
7.998796 2.721746 0.018438 1
7.996901 2.685632 0.018888 1
8.006660 2.651518 0.018224 1
7.996649 2.614150 0.019417 1
7.998298 2.578755 0.019496 1
7.995885 2.542754 0.019947 1
7.993343 2.506789 0.020399 1
7.998550 2.472034 0.020108 1
8.007577 2.437833 0.019444 1
7.992826 2.400234 0.021013 1
7.997662 2.365481 0.020722 1
8.014216 2.332304 0.019314 1
8.006741 2.297665 0.020154 1
8.023069 2.264376 0.018746 1
8.019526 2.228537 0.019200 1
8.023761 2.193692 0.018909 1
8.016007 2.157443 0.019736 1
8.023952 2.123060 0.019073 1
8.031777 2.088635 0.018409 1
8.031565 2.053326 0.018491 1
7.995572 2.014364 0.021934 1
8.034727 1.983147 0.018284 1
7.998463 1.944451 0.021728 1
8.009638 1.910413 0.020692 1
8.004829 1.874900 0.021150 1
8.047511 1.843492 0.017122 1
8.058199 1.810949 0.016099 1
8.017439 1.770804 0.019909 1
7.996248 1.734188 0.021865 1
7.986841 1.698578 0.022700 1
7.973217 1.664507 0.023924 1
7.971620 1.627837 0.023997 1
7.961834 1.592439 0.024834 1
7.967825 1.558026 0.024173 1
7.961768 1.522938 0.024636 1
7.975472 1.488898 0.023225 1
7.957157 1.455013 0.024828 1
7.962671 1.420563 0.024167 1
7.964087 1.385921 0.023881 1
7.965382 1.351274 0.023595 1
7.962520 1.318224 0.023699 1
7.967558 1.283701 0.023038 1
7.948592 1.248523 0.024632 1
7.953388 1.214021 0.023971 1
7.942138 1.179185 0.024814 1
7.938730 1.144554 0.024906 1
7.935200 1.109949 0.024998 1
7.927567 1.075336 0.025467 1
7.943707 1.040901 0.023678 1
7.919904 1.006288 0.025654 1
7.915896 0.973529 0.025762 1
7.907788 0.939094 0.026233 1
7.899559 0.904715 0.026705 1
7.899174 0.870297 0.026423 1
7.902679 0.837539 0.025778 1
7.874156 0.801922 0.028123 1
7.865451 0.767773 0.028597 1
7.868569 0.733370 0.027939 1
7.871568 0.698943 0.027281 1
7.854545 0.665150 0.028512 1
7.853325 0.630890 0.028233 1
7.844027 0.596954 0.028709 1
7.834612 0.563078 0.029186 1
7.833117 0.530598 0.028922 1
7.831428 0.496413 0.028643 1
7.825642 0.462449 0.028744 1
7.787935 0.430346 0.031872 1
7.769997 0.397288 0.033110 1
7.771816 0.363069 0.032456 1
7.773514 0.328830 0.031801 1
7.743318 0.296841 0.034178 1
7.736841 0.263269 0.034282 1
7.793900 0.226453 0.028334 1
7.787181 0.192732 0.028437 1
7.796215 0.157695 0.027023 1
-12.009451 1.004608 0.034374 1
-11.969534 1.039485 0.038329 1
-12.017123 1.074823 0.034216 1
-12.012790 1.111630 0.034884 1
-12.020296 1.146839 0.034439 1
-12.023728 1.180270 0.034345 2
-12.011083 1.215125 0.035731 1
-12.026190 1.250616 0.034554 2
-12.025245 1.285747 0.034841 1
-12.020253 1.318987 0.035479 2
-12.038911 1.356576 0.033951 2
-12.033616 1.391592 0.034604 2
-12.048098 1.427439 0.033429 2
-12.046617 1.460885 0.033701 2
-12.068808 1.497283 0.031796 2
-12.078935 1.533202 0.030988 2
-12.076904 1.570281 0.031289 2
-12.086771 1.606313 0.030482 2
-12.092535 1.642164 0.030039 2
-12.094316 1.676026 0.029947 2
-12.111753 1.712806 0.028411 2
-12.105223 1.747936 0.029063 2
-12.110484 1.783961 0.028622 3
-12.103994 1.815518 0.029245 2
-12.105046 1.851254 0.029167 2
-12.121844 1.888410 0.027634 2
-12.114707 1.923507 0.028285 3
-12.111245 1.960714 0.028586 2
-12.115575 1.998695 0.028159 2
-12.120306 2.031403 0.027689 2
-12.116635 2.066858 0.027976 2
-12.108882 2.101865 0.028625 2
-12.101007 2.136832 0.029274 2
-12.096970 2.172219 0.029560 2
-12.092808 2.207591 0.029845 2
-12.096429 2.243926 0.029404 2
-12.092017 2.279296 0.029688 2
-12.079582 2.313617 0.030698 2
-12.094431 2.353349 0.029183 2
-12.081744 2.387621 0.030193 2
-12.104690 2.425080 0.027925 2
-12.099646 2.460477 0.028210 2
-12.102619 2.495258 0.027755 2
-12.101269 2.531247 0.027677 2
-12.111599 2.569081 0.026513 2
-12.102118 2.603876 0.027158 2
-12.112177 2.641822 0.025995 2
-12.118165 2.679205 0.025193 2
-12.116161 2.715316 0.025115 2
-12.110104 2.750751 0.025398 2
-12.119614 2.788944 0.024236 2
-12.101220 2.824037 0.025617 2
-12.102618 2.860865 0.025177 2
-12.112045 2.897427 0.024002 2
-12.105351 2.932847 0.024284 2
-12.102446 2.969007 0.024205 2
-12.095503 3.004394 0.024487 2
-12.096601 3.039567 0.024033 2
-12.089413 3.074933 0.024315 2
-12.078201 3.109456 0.024956 2
-12.086353 3.148079 0.023796 2
-12.070999 3.181720 0.024796 2
-12.063313 3.216996 0.025076 2
-12.074943 3.256600 0.023556 2
-12.066997 3.291888 0.023836 2
-12.066689 3.328946 0.023396 2
-12.050734 3.362382 0.024395 2
-12.054043 3.400361 0.023595 2
-12.061507 3.437568 0.022422 2
-12.064535 3.475664 0.021623 2
-12.055824 3.510915 0.021901 2
-12.039267 3.544178 0.022898 2
-12.034175 3.580333 0.022816 2
-12.032808 3.617489 0.022376 2
-12.019752 3.651609 0.023011 2
-12.010427 3.686703 0.023288 2
-12.000978 3.721764 0.023564 3
-11.999572 3.757158 0.023109 2
-12.000901 3.797149 0.022323 2
-11.991069 3.832176 0.022599 2
-11.989774 3.865867 0.022130 2
-11.979701 3.900855 0.022405 3
-11.965172 3.936429 0.023051 2
-11.977760 3.978163 0.021178 2
-11.971109 4.014260 0.021094 2
-11.964329 4.050347 0.021010 2
-11.961224 4.087602 0.020568 2
-11.957980 4.124873 0.020126 2
-11.958948 4.161619 0.019313 2
-11.958665 4.201896 0.018528 2
-11.947419 4.236773 0.018800 2
-11.958760 4.279080 0.016931 2
-11.947246 4.313957 0.017203 2
-11.962040 4.357693 0.014977 2
-11.958386 4.393405 0.014522 2
-11.949640 4.431320 0.014450 2
-11.946330 4.465301 0.013982 2
-11.930408 4.498810 0.014609 2
-11.936275 4.542006 0.013111 2
-11.931341 4.579502 0.012669 2
-11.926266 4.617007 0.012227 2
-11.917311 4.653144 0.012141 2
-11.904491 4.687874 0.012410 2
-11.895280 4.723960 0.012323 2
-11.893387 4.762857 0.011525 2
-11.872745 4.794648 0.012504 2
-11.866860 4.832102 0.012060 2
-11.868255 4.872469 0.010906 2
-11.854670 4.907027 0.011173 2
-11.841652 4.939812 0.011426 2
-11.827832 4.974277 0.011692 2
-11.813891 5.008692 0.011957 2
-11.814568 5.049129 0.010802 2
-11.804045 5.085028 0.010712 2
-11.797065 5.122446 0.010267 2
-11.760648 5.228379 0.010348 39
-11.767730 5.272124 0.008485 64
-11.738167 5.299900 0.010164 49
-11.709286 5.325821 0.011828 16
-11.744159 5.423367 0.005979 2
-11.757638 5.470745 0.003409 2
-11.767289 5.516600 0.001195 3
-11.783962 5.565942 -0.001726 3
-11.724808 5.663390 0.000116 58
-11.701287 5.693977 0.001082 55
-11.681254 5.726202 0.001694 20
-11.712262 5.825803 -0.004143 2
-11.721146 5.870584 -0.006368 2
-11.721866 5.913594 -0.007873 2
-11.716166 5.951352 -0.008686 3
-11.674271 6.015669 -0.007466 22
-11.663762 6.053229 -0.007914 22
-11.641644 6.086899 -0.007293 22
-11.630859 6.124395 -0.007742 14
-11.623445 6.163758 -0.008544 22
-11.622886 6.206918 -0.010049 16
-11.598559 6.235118 -0.009104 14
-11.590700 6.274476 -0.009906 5
-11.676818 6.365924 -0.020204 3
-11.696299 6.421156 -0.023817 10
-11.613143 6.463435 -0.018739 22
-11.604385 6.503025 -0.019540 22
-11.589530 6.536960 -0.019652 21
-11.573584 6.572536 -0.019751 20
-11.580595 6.623836 -0.022296 15
-11.543743 6.647251 -0.020290 4
-11.537663 6.688815 -0.021444 3
-11.552915 6.741027 -0.024715 2
-11.587376 6.807444 -0.030076 3
-11.536398 6.868249 -0.028524 16
-11.529405 6.910021 -0.029677 10
-11.518854 6.949708 -0.030480 12
-11.487900 6.976673 -0.029181 19
-11.484858 7.018887 -0.030698 13
-11.460424 7.049950 -0.030101 11
-11.445946 7.087379 -0.030555 5
-11.471024 7.195342 -0.037075 2
-11.429758 7.265432 -0.036922 12
-11.411138 7.300657 -0.037027 20
-11.399000 7.340277 -0.037833 16
-11.374619 7.369302 -0.037253 19
-11.358905 7.406615 -0.037709 20
-11.347453 7.444515 -0.038528 19
-11.346690 7.494761 -0.040719 22
-11.337026 7.536605 -0.041875 21
-11.317405 7.571584 -0.041984 23
-11.297655 7.606506 -0.042093 29
-11.274531 7.639055 -0.041854 20
-11.241590 7.664544 -0.040570 13
-11.252765 7.771449 -0.046372 2
-11.238698 7.810921 -0.047180 2
-11.253290 7.871719 -0.051125 3
-11.203104 7.932413 -0.050317 11
-11.175667 7.962225 -0.049734 22
-11.141794 7.987101 -0.048456 23
-12.867984 8.581685 -0.048860 7
-12.857776 8.631159 -0.050094 5
-12.860386 8.689857 -0.052538 5
-12.869219 8.753293 -0.055587 8
-12.829117 8.782024 -0.054098 10
-12.834216 8.843264 -0.056845 15
-12.813217 8.885861 -0.057172 10
-12.792054 8.928408 -0.057500 8
-12.756070 8.957174 -0.056331 8
-12.728224 8.994805 -0.056056 7
-12.760908 9.077763 -0.061520 3
-12.778983 9.153326 -0.065760 3
-12.794909 9.224825 -0.069711 7
-12.707075 9.274023 -0.066160 24
-12.652919 9.291913 -0.063475 28
-12.630189 9.334096 -0.063808 21
-12.607295 9.376222 -0.064141 10
-12.656107 9.475304 -0.071406 5
-12.738633 9.602215 -0.081981 5
-12.716259 9.642906 -0.082325 9
-12.709232 9.696095 -0.084176 16
-12.680373 9.737950 -0.084193 13
-12.655966 9.780377 -0.084526 13
-12.626787 9.815792 -0.084271 13
-12.605138 9.860627 -0.084906 13
-12.569531 9.897014 -0.084325 11
-12.562774 9.954590 -0.086465 9
-12.558780 10.014813 -0.088905 13
-12.537909 10.057693 -0.089555 16
-12.477467 10.072933 -0.086575 15
-12.399157 10.065882 -0.081521 15
-12.329847 10.072540 -0.077645 15
-12.257815 10.069941 -0.073198 16
-12.181350 10.066100 -0.068441 10
-12.112372 10.071585 -0.064575 7
-12.046661 10.073166 -0.060736 12
-11.985377 10.081519 -0.057488 21
-11.894704 10.062657 -0.051244 21
-11.820545 10.055054 -0.046515 17
-11.763873 10.069446 -0.043863 14
-11.691311 10.065520 -0.039427 15
-11.585582 10.026752 -0.031412 22
-11.543733 10.053742 -0.030265 14
-11.468739 10.045873 -0.025539 17
-11.421408 10.060787 -0.023522 22
-11.356862 10.058867 -0.019711 30
-11.289270 10.059877 -0.015880 24
-11.224961 10.057280 -0.012074 22
-11.162032 10.058762 -0.008558 26
-11.097624 10.061510 -0.005034 24
-11.001050 10.028482 0.002062 27
-10.971055 10.058410 0.002271 22
-10.908555 10.058572 0.005776 25
-10.851748 10.064107 0.008682 22
-10.779901 10.050664 0.013366 25
-10.721716 10.057109 0.016277 21
-10.664003 10.057333 0.019463 19
-10.604805 10.058783 0.022657 21
-10.534735 10.048344 0.027042 24
-10.478502 10.052057 0.029933 24
-10.418046 10.054049 0.033130 17
-10.368986 10.061565 0.035410 20
-10.307581 10.058575 0.038891 22
-10.246299 10.055267 0.042369 20
-10.185142 10.051641 0.045845 20
-10.129452 10.053626 0.048722 17
-10.083412 10.062832 0.050694 17
-10.024146 10.056930 0.054154 17
-9.969769 10.062498 0.056737 16
-9.906523 10.054403 0.060499 15
-9.851289 10.055005 0.063365 15
-7.111894 6.992221 0.370127 0
-7.023654 6.931232 0.377981 0
-6.965281 6.902321 0.382555 0
-6.880464 6.885055 0.387842 1
-6.885328 6.932904 0.384986 1
-6.759439 6.866040 0.395024 2
-6.719839 6.857138 0.397506 4
-6.636890 6.877721 0.400503 16
-6.665731 6.956649 0.394677 7
-6.626637 6.951866 0.396868 8
-6.469398 6.876897 0.408754 9
-6.451252 6.895774 0.408561 2
-6.412016 6.925426 0.408757 7
-6.301738 6.863332 0.417551 1
-6.254245 6.843823 0.420913 3
-6.244220 6.870925 0.419821 9
-6.200306 6.853518 0.422880 9
-6.174153 6.862535 0.423573 2
-6.147726 6.866729 0.424551 3
-6.129507 6.884565 0.424350 2
-6.114414 6.948799 0.421278 2
-6.029020 6.872126 0.429658 1
-5.976655 6.883902 0.431318 2
-5.948162 6.883971 0.432585 4
-5.925355 6.894542 0.432970 4
-5.898099 6.898387 0.433944 2
-5.866463 6.895460 0.435509 2
-5.841462 6.902388 0.436186 1
-5.814283 6.905871 0.437158 1
-5.780630 6.899188 0.439015 1
-5.747070 6.892341 0.440871 1
-5.720032 6.895427 0.441839 1
-5.693019 6.898396 0.442807 1
-5.666031 6.901249 0.443774 1
-5.636961 6.900598 0.445035 1
-5.606876 6.895785 0.446586 1
-5.576863 6.890839 0.448136 1
-5.547967 6.889792 0.449394 1
-5.520155 6.892653 0.450360 1
-5.487254 6.884503 0.452206 1
-5.461591 6.885876 0.453162 1
-5.429852 6.881481 0.454715 2
-5.404272 6.882621 0.455669 2
-5.377694 6.884252 0.456626 2
-5.353136 6.889228 0.457288 2
-5.320677 6.880244 0.459128 2
-5.294216 6.881522 0.460082 2
-5.271693 6.889644 0.460447 2
-5.218885 6.891662 0.462352 1
-5.191644 6.888440 0.463594 2
-5.171050 6.899682 0.463661 2
-5.140955 6.893293 0.465199 2
-5.112824 6.890285 0.466442 2
-5.088488 6.894202 0.467095 2
