# .PCD v.7 - Point Cloud Data file format
VERSION .7
FIELDS x y z intensity
SIZE 4 4 4 1
TYPE F F F U
COUNT 1 1 1 1
WIDTH 1602
HEIGHT 1
VIEWPOINT 0 0 0 1 0 0 0
POINTS 1602
DATA ascii
0.585067 -2.502288 0.005432 1
0.577298 -2.508382 0.004452 1
0.567509 -2.506849 0.004966 1
0.558278 -2.509194 0.004722 1
0.548513 -2.507587 0.005237 1
0.543973 -2.524895 0.002020 1
0.535562 -2.526940 0.001798 1
0.523478 -2.517713 0.003800 1
0.512822 -2.512151 0.005066 1
0.506713 -2.525668 0.002583 1
0.495197 -2.516207 0.004600 1
0.487247 -2.522020 0.003616 1
0.476264 -2.512377 0.005648 1
0.468302 -2.518129 0.004664 1
0.459472 -2.520017 0.004431 1
0.452277 -2.529558 0.002693 1
0.445021 -2.539080 0.000954 1
0.439771 -2.536141 0.001589 1
0.424975 -2.527086 0.003521 1
0.414578 -2.521118 0.004795 1
0.407248 -2.530529 0.003054 1
0.400598 -2.543777 0.000557 1
0.390224 -2.537707 0.001832 1
0.381595 -2.543265 0.000831 1
0.370578 -2.533255 0.002863 1
0.363069 -2.542537 0.001118 1
0.353482 -2.540188 0.001640 1
0.346555 -2.553291 -0.000864 1
0.335464 -2.539184 0.001940 1
0.325929 -2.536732 0.002464 1
0.316239 -2.530298 0.003757 1
0.308581 -2.539416 0.002009 1
0.301458 -2.552393 -0.000500 1
0.292062 -2.553763 -0.000746 1
0.281978 -2.547263 0.000537 1
0.272496 -2.544612 0.001063 1
0.266177 -2.561317 -0.002198 1
0.254913 -2.548935 0.000215 1
0.244699 -2.540344 0.001883 1
0.236291 -2.545347 0.000889 1
0.227814 -2.546372 0.000667 1
0.221679 -2.533258 0.003215 1
0.210414 -2.552338 -0.000562 1
0.200579 -2.545522 0.000729 1
0.191240 -2.538623 0.002033 1
0.184009 -2.555161 -0.001251 1
0.175052 -2.556056 -0.001485 1
0.165254 -2.553056 -0.000967 1
0.155929 -2.549977 -0.000436 1
0.147799 -2.554645 -0.001422 1
0.150645 2.569093 0.013593 1
0.158424 2.556546 0.016051 1
0.167304 2.555707 0.016278 1
0.177444 2.562611 0.015031 1
0.185922 2.557798 0.016001 1
0.195244 2.560770 0.015487 1
0.205039 2.567612 0.014231 1
0.212102 2.550998 0.017424 1
0.221473 2.557827 0.016157 1
0.230358 2.556768 0.016383 1
0.239238 2.555679 0.016610 1
0.248559 2.554501 0.016848 1
0.257431 2.553348 0.017074 1
0.269028 2.571629 0.013604 1
0.273604 2.543227 0.018992 1
0.285298 2.561433 0.015525 1
0.292437 2.548489 0.017966 1
0.300090 2.539412 0.019667 1
0.312586 2.561379 0.015466 1
0.317725 2.536715 0.020115 1
0.328454 2.546957 0.018129 1
0.330938 2.534611 0.020451 1
0.348808 2.559561 0.015634 1
0.359739 2.569675 0.013652 1
0.361286 2.529510 0.021222 1
0.371217 2.531752 0.020721 1
0.382172 2.541767 0.018739 1
0.388062 2.524696 0.021901 1
0.402812 2.553938 0.016251 1
0.407114 2.529100 0.020878 1
0.417780 2.539045 0.018889 1
0.432110 2.564269 0.013981 1
0.435409 2.535526 0.019335 1
0.445843 2.541415 0.018093 1
0.454669 2.539573 0.018316 1
0.467694 2.556908 0.014881 1
0.470592 2.528120 0.020225 1
0.480239 2.530027 0.019715 1
0.489906 2.531898 0.019207 1
0.501382 2.541392 0.017237 1
0.508392 2.531703 0.018920 1
0.519026 2.537290 0.017683 1
0.523163 2.516091 0.021551 1
0.536640 2.533065 0.018127 1
0.546398 2.534720 0.017620 1
0.544024 2.506943 0.022830 1
0.562567 2.526609 0.018780 1
0.569839 2.518654 0.020092 1
0.577064 2.510679 0.021403 1
0.585782 2.508379 0.021622 1
0.604452 2.544102 0.014563 1
0.603811 2.507597 0.021322 1
0.615716 2.516563 0.019363 1
0.623810 2.510223 0.020319 1
0.634712 2.515318 0.019087 1
0.641233 2.505267 0.020756 1
0.646141 2.491557 0.023138 1
0.654791 2.489016 0.023354 1
0.664146 2.490338 0.022836 1
0.669749 2.476324 0.025235 1
0.684636 2.492346 0.021844 1
0.692104 2.485919 0.022783 1
0.697140 2.471977 0.025167 1
0.714200 2.495460 0.020325 1
0.722431 2.492821 0.020531 1
0.729044 2.482404 0.022202 1
0.732661 2.464652 0.025303 1
0.752586 2.495344 0.019026 1
0.749336 2.459081 0.025719 1
0.757452 2.468793 0.023663 1
0.762919 2.441963 0.028315 1
0.777544 2.457706 0.024917 1
0.788303 2.462266 0.023680 1
0.797278 2.459076 0.023903 1
0.804887 2.452159 0.024845 1
0.810665 2.441685 0.026494 1
0.821900 2.445940 0.025269 1
0.827183 2.435583 0.026905 1
0.843638 2.454627 0.022799 1
0.846915 2.436550 0.025890 1
0.852512 2.425977 0.027534 1
0.871033 2.448344 0.022727 1
0.867886 2.415769 0.028668 1
0.882144 2.427059 0.026012 1
0.890148 2.423864 0.026211 1
0.898981 2.420301 0.026430 1
0.911901 2.427786 0.024493 1
0.915770 2.413426 0.026845 1
0.927210 2.417195 0.025624 1
0.932510 2.406434 0.027260 1
0.939305 2.399279 0.028180 1
0.950771 2.402934 0.026959 1
0.957528 2.395726 0.027878 1
0.968042 2.408320 0.025129 1
0.972122 2.385033 0.028991 1
0.985258 2.392117 0.027058 1
0.988251 2.377834 0.029388 1
1.008008 2.399135 0.024610 1
1.016334 2.395332 0.024815 1
1.017972 2.377239 0.027864 1
1.027903 2.376961 0.027357 1
1.031071 2.362427 0.029691 1
1.040974 2.362091 0.029182 1
1.054325 2.368798 0.027254 1
1.062545 2.364833 0.027456 1
1.065522 2.350250 0.029786 1
1.070167 2.339199 0.031404 1
1.090656 2.359802 0.026643 1
1.093505 2.345176 0.028968 1
1.094474 2.327053 0.032000 1
1.113373 2.343943 0.027951 1
1.121505 2.339772 0.028151 1
1.133281 2.342546 0.026935 1
1.138647 2.333085 0.028194 1
1.138003 2.313406 0.031562 1
1.150159 2.315871 0.030355 1
1.158194 2.311571 0.030552 1
1.174850 2.331668 0.026072 1
1.174218 2.302889 0.030943 1
1.178380 2.291623 0.032548 1
1.187858 2.290881 0.032027 1
1.213233 2.317306 0.025881 1
1.205685 2.285413 0.031710 1
1.235176 2.318485 0.024160 1
1.227441 2.286624 0.029985 1
1.231405 2.275253 0.031585 1
1.247281 2.284248 0.028964 1
1.253197 2.276223 0.029860 1
1.257053 2.264803 0.031456 1
1.264909 2.260131 0.031647 1
1.266619 2.245332 0.033943 1
1.280571 2.250705 0.032027 1
1.294577 2.256008 0.030112 1
1.322787 2.284900 0.023282 1
1.332406 2.283584 0.022764 1
1.313410 2.235099 0.032071 1
1.332114 2.246603 0.028767 1
1.333532 2.231722 0.031055 1
1.336999 2.220166 0.032642 1
1.340403 2.208613 0.034226 1
1.358859 2.220119 0.030916 1
1.362710 2.217609 0.031009 1
1.378604 2.216595 0.029890 1
1.381520 2.205212 0.031462 1
1.388785 2.200362 0.031637 1
1.387555 2.182204 0.034612 1
1.408481 2.196571 0.030609 1
1.411621 2.184888 0.032187 1
1.430443 2.195845 0.028884 1
1.429393 2.177403 0.031863 1
1.432399 2.165695 0.033437 1
1.442191 2.163621 0.032921 1
1.486023 2.209803 0.021958 1
1.484464 2.191557 0.024924 1
1.471216 2.157418 0.031364 1
1.467429 2.135839 0.035027 1
1.484189 2.143112 0.032425 1
1.508070 2.159778 0.027742 1
1.515184 2.154509 0.027912 1
1.522653 2.148937 0.028090 1
1.503895 2.108829 0.035899 1
1.527959 2.125200 0.031219 1
1.528113 2.110221 0.033474 1
1.550287 2.122994 0.029499 1
1.550366 2.107989 0.031753 1
1.547090 2.095564 0.033926 1
1.569126 2.103323 0.030698 1
1.576416 2.097563 0.030871 1
1.598498 2.110200 0.026894 1
1.601218 2.097921 0.028459 1
1.593906 2.073441 0.032787 1
1.608236 2.077020 0.030876 1
1.670321 2.138211 0.015844 1
1.627297 2.071554 0.029828 1
1.652202 2.086720 0.025166 1
1.651806 2.071642 0.027407 1
1.656432 2.062593 0.028266 1
1.663579 2.056529 0.028435 1
1.693873 2.077288 0.022401 1
1.677811 2.044327 0.028771 1
1.687489 2.041153 0.028249 1
1.694915 2.034671 0.028424 1
1.707197 2.034367 0.027214 1
1.729648 2.046067 0.023243 1
1.720571 2.022488 0.027528 1
1.709059 1.995758 0.032505 1
1.715973 1.989511 0.032667 1
1.741874 2.003234 0.028028 1
1.727402 1.973736 0.033685 1
1.752622 1.993363 0.028280 1
1.740714 1.961406 0.033996 1
1.755626 1.963641 0.032097 1
1.765144 1.960086 0.031570 1
1.774999 1.956166 0.031051 1
1.792721 1.961032 0.028468 1
1.796767 1.951666 0.029311 1
1.792166 1.934172 0.032201 1
1.796099 1.924827 0.033041 1
1.813866 1.929469 0.030458 1
1.823334 1.925644 0.029930 1
1.868789 1.958240 0.020500 1
1.853140 1.929280 0.026128 1
1.842939 1.905972 0.030385 1
1.855186 1.904758 0.029171 1
1.850450 1.887040 0.032056 1
1.874038 1.896682 0.028110 1
1.880605 1.889860 0.028262 1
1.887149 1.883015 0.028413 1
1.864961 1.849140 0.035386 1
1.905924 1.874637 0.027349 1
1.897967 1.854300 0.030908 1
1.907285 1.850065 0.030374 1
1.948587 1.875053 0.022344 1
1.951836 1.871515 0.022419 1
1.911793 1.815982 0.034218 1
1.967665 1.854097 0.022782 1
1.973763 1.847306 0.022922 1
1.980157 1.840137 0.023069 1
1.962829 1.812141 0.028655 1
1.969101 1.805009 0.028799 1
1.999190 1.818495 0.023504 1
1.963634 1.775263 0.033161 1
2.011752 1.803956 0.023790 1
2.024212 1.789330 0.024074 1
1.991385 1.748763 0.033045 1
2.018673 1.759148 0.028433 1
2.003460 1.734279 0.033319 1
2.030519 1.744843 0.028701 1
2.055218 1.752016 0.024777 1
2.049003 1.734665 0.027625 1
2.103938 1.767034 0.016913 1
2.057298 1.718073 0.028560 1
2.078709 1.722829 0.025308 1
2.053646 1.690967 0.032212 1
2.057940 1.682308 0.032682 1
2.062198 1.673639 0.033151 2
2.099452 1.696365 0.025774 2
2.108243 1.684946 0.025972 1
2.114069 1.677308 0.026102 1
2.151394 1.693325 0.019473 1
2.110126 1.649806 0.029746 1
2.131677 1.653886 0.026496 1
2.153283 1.657837 0.023247 1
2.142803 1.638814 0.026744 1
2.129309 1.617181 0.030919 1
2.153826 1.623667 0.026989 1
2.159439 1.615870 0.027113 1
2.206844 1.637689 0.018470 1
2.170583 1.600217 0.027360 1
2.156718 1.578818 0.031527 1
2.181618 1.584487 0.027604 1
2.187094 1.576594 0.027725 1
2.192543 1.568681 0.027845 1
2.197963 1.560749 0.027964 1
2.203357 1.552798 0.028083 1
2.208722 1.544829 0.028201 1
2.187765 1.519416 0.033701 1
2.193014 1.511501 0.033816 1
2.224651 1.520809 0.028549 1
2.229642 1.513168 0.028658 1
2.232259 1.509140 0.028715 1
2.240068 1.497028 0.028886 1
2.245238 1.488930 0.028998 1
2.250381 1.480815 0.029110 1
2.289212 1.493134 0.022510 1
2.240712 1.451677 0.033364 1
2.249085 1.445640 0.032801 1
2.270665 1.448176 0.029548 1
2.275665 1.439972 0.029656 1
2.253582 1.415525 0.035129 1
2.285579 1.423512 0.029869 1
2.290493 1.415256 0.029974 1
2.295378 1.406984 0.030079 1
2.300234 1.398694 0.030183 1
2.305061 1.390387 0.030286 1
2.309859 1.382063 0.030388 1
2.314628 1.373723 0.030489 1
2.319368 1.365366 0.030590 1
2.323843 1.357412 0.030684 1
2.328293 1.349443 0.030779 1
2.284785 1.314043 0.040251 1
2.337804 1.332196 0.030979 1
2.342399 1.323759 0.031076 1
2.346736 1.315728 0.031167 1
2.349009 1.311496 0.031214 1
2.355782 1.298775 0.031356 1
2.360483 1.289850 0.031454 1
2.364929 1.281333 0.031547 1
2.369347 1.272802 0.031639 1
2.373734 1.264254 0.031730 1
2.378091 1.255692 0.031820 1
2.382203 1.247543 0.031905 1
2.386717 1.238521 0.031998 1
2.390984 1.229913 0.032085 1
2.395222 1.221291 0.032172 1
2.399220 1.213086 0.032254 1
2.403607 1.204002 0.032344 1
2.461200 1.220699 0.022423 1
2.411870 1.186654 0.032512 1
2.415957 1.177959 0.032595 1
2.423838 1.160963 0.032754 1
2.463753 1.168520 0.026170 1
2.435933 1.134272 0.032996 11
2.468708 1.138223 0.027746 1
2.443709 1.116700 0.033151 1
2.538049 1.147049 0.016581 1
2.485687 1.119085 0.026607 1
2.455143 1.090243 0.033377 1
2.458893 1.081397 0.033451 1
2.462612 1.072538 0.033524 1
2.466300 1.063666 0.033596 1
2.469957 1.054782 0.033667 1
2.473403 1.046330 0.033734 1
2.480564 1.028499 0.033873 11
2.484274 1.019118 0.033944 1
2.487776 1.010171 0.034011 1
2.491246 1.001212 0.034077 1
2.494685 0.992240 0.034142 1
2.498093 0.983257 0.034207 1
2.538437 0.988018 0.027627 1
2.486306 0.958442 0.037655 1
2.508127 0.956237 0.034395 1
2.511409 0.947207 0.034457 1
2.514659 0.938166 0.034517 1
2.554918 0.942684 0.027934 1
2.520906 0.920503 0.034632 1
2.524064 0.911429 0.034690 1
2.527189 0.902344 0.034747 1
2.530283 0.893248 0.034803 1
2.580439 0.904991 0.026204 1
2.584774 0.891994 0.026282 1
2.576731 0.878568 0.028330 1
2.591156 0.872460 0.026396 1
2.545274 0.847608 0.035071 1
2.548032 0.838907 0.035119 1
2.581043 0.839094 0.029865 1
2.553603 0.821020 0.035216 1
2.556553 0.811372 0.035267 1
2.559329 0.802174 0.035315 1
2.562073 0.792966 0.035362 1
2.602520 0.795255 0.028778 1
2.567331 0.774984 0.035451 1
2.569849 0.766211 0.035493 1
2.610448 0.767622 0.028910 1
2.624476 0.761394 0.026966 1
2.577607 0.738451 0.035620 1
2.580128 0.729180 0.035661 1
2.582618 0.719900 0.035701 1
2.585074 0.710611 0.035741 1
2.587499 0.701314 0.035779 1
2.589890 0.692009 0.035816 1
2.592250 0.682695 0.035853 1
2.594577 0.673373 0.035889 1
2.595728 0.668709 0.035906 1
2.598908 0.655640 0.035954 1
2.601251 0.645827 0.035989 1
2.572711 0.629325 0.041316 1
2.605615 0.627114 0.036053 1
2.630838 0.622947 0.032112 1
2.609848 0.608370 0.036113 1
2.611813 0.599456 0.036140 1
2.671706 0.602479 0.026243 1
2.615852 0.580670 0.036196 1
2.617823 0.571266 0.036222 1
2.650588 0.568630 0.030954 1
2.621666 0.552438 0.036272 1
2.642986 0.546342 0.032989 1
2.606100 0.529382 0.039627 1
2.658193 0.530015 0.031049 1
2.629045 0.514233 0.036362 1
2.630784 0.504783 0.036383 1
2.632490 0.495328 0.036402 1
2.614650 0.482942 0.039726 1
2.635721 0.476873 0.036437 1
2.637250 0.467875 0.036453 1
2.638905 0.457923 0.036470 1
2.640447 0.448440 0.036485 1
2.610111 0.438277 0.041782 1
2.619964 0.426338 0.040479 1
2.625297 0.417506 0.039830 1
2.646145 0.411405 0.036535 1
2.616351 0.396954 0.041835 1
2.648938 0.391907 0.036556 1
2.630705 0.379733 0.039871 1
2.612420 0.367690 0.043184 1
2.605822 0.357291 0.044513 1
2.622671 0.349885 0.041875 1
2.639501 0.342366 0.039237 1
2.640640 0.332881 0.039241 1
2.657423 0.325191 0.036601 1
2.619241 0.311754 0.043214 1
2.683029 0.309108 0.032639 1
2.648739 0.295787 0.038590 1
2.661490 0.287458 0.036607 1
2.638833 0.276078 0.040573 1
2.663352 0.268332 0.036605 1
2.632800 0.255926 0.041891 1
2.665079 0.249194 0.036600 1
2.665853 0.240100 0.036596 1
2.627311 0.227378 0.043202 1
2.698852 0.223352 0.031297 1
2.648075 0.214684 0.039887 1
2.629426 0.199044 0.043182 1
2.669429 0.192194 0.036563 1
2.670044 0.182605 0.036554 1
2.670625 0.173015 0.036543 1
2.671173 0.163423 0.036532 1
2.651989 0.152803 0.039826 1
2.703691 0.145764 0.031218 1
2.641088 0.133213 0.041784 1
2.673029 0.125036 0.036480 1
2.673410 0.115436 0.036465 1
2.650085 0.105490 0.040417 1
2.697713 0.097453 0.032465 1
2.705871 0.088473 0.031125 1
2.674573 0.077983 0.036397 1
2.674790 0.068377 0.036377 1
2.651306 0.058354 0.040325 1
2.647510 0.048773 0.040965 1
2.675242 0.039077 0.036312 1
2.714771 0.029747 0.029674 1
2.695094 0.019932 0.032957 1
2.675383 0.010734 0.036242 1
2.643806 0.001227 0.041509 1
2.675313 -0.008482 0.036189 1
2.663440 -0.013186 0.038161 1
2.675115 -0.027216 0.036135 1
2.643409 -0.036289 0.041400 1
2.706332 -0.047073 0.030782 1
2.674550 -0.056515 0.036044 1
2.694000 -0.067146 0.032701 1
2.674010 -0.075723 0.035980 1
2.697362 -0.085657 0.031976 1
2.649703 -0.093553 0.039886 1
2.672970 -0.104047 0.035879 1
2.696196 -0.114704 0.031870 1
2.624815 -0.120962 0.043752 1
2.671612 -0.132839 0.035768 1
2.710481 -0.144607 0.029107 1
2.670511 -0.152504 0.035688 1
2.709295 -0.164549 0.029024 1
2.669334 -0.171203 0.035609 1
2.668714 -0.180309 0.035569 1
2.668029 -0.189892 0.035526 1
2.667310 -0.199473 0.035483 1
2.666559 -0.209052 0.035438 1
2.665773 -0.218628 0.035393 1
2.664954 -0.228200 0.035347 1
2.664102 -0.237770 0.035299 1
2.687233 -0.244716 0.031298 1
2.662298 -0.256901 0.035203 1
2.661297 -0.266940 0.035151 1
2.660310 -0.276497 0.035100 1
2.659289 -0.286050 0.035049 1
2.658235 -0.295600 0.034996 1
2.657148 -0.305146 0.034943 1
2.656084 -0.314211 0.034892 1
2.654932 -0.323750 0.034837 1
2.653746 -0.333284 0.034782 1
2.652528 -0.342814 0.034725 1
2.690381 -0.357509 0.028030 1
2.649990 -0.361862 0.034610 1
2.648672 -0.371379 0.034551 1
2.686369 -0.386467 0.027851 1
2.646005 -0.389923 0.034434 1
2.695302 -0.407019 0.025737 1
2.643140 -0.408924 0.034310 1
2.641657 -0.418416 0.034247 1
2.640141 -0.427904 0.034183 1
2.638592 -0.437386 0.034118 1
2.637010 -0.446862 0.034052 1
2.635395 -0.456333 0.033986 1
2.633747 -0.465799 0.033918 1
2.632911 -0.470529 0.033884 1
2.630352 -0.484712 0.033781 1
2.628605 -0.494159 0.033711 1
2.626825 -0.503601 0.033640 1
2.675455 -0.522255 0.024923 1
2.662059 -0.529104 0.026849 1
2.621477 -0.530945 0.033431 1
2.650491 -0.546642 0.028031 1
2.617628 -0.549771 0.033282 1
2.615654 -0.559173 0.033206 1
2.613647 -0.568569 0.033130 1
2.611607 -0.577958 0.033053 1
2.648045 -0.595861 0.026312 1
2.607430 -0.596714 0.032896 1
2.605184 -0.606549 0.032812 1
2.603012 -0.615907 0.032731 1
2.600919 -0.624791 0.032654 1
2.648659 -0.645605 0.023907 1
2.596529 -0.643005 0.032493 1
2.575084 -0.647609 0.035744 1
2.630037 -0.671707 0.025648 1
2.619872 -0.679678 0.026892 1
2.587016 -0.680734 0.032148 1
2.584708 -0.689565 0.032065 1
2.613992 -0.702246 0.026681 1
2.602603 -0.714276 0.027882 1
2.607665 -0.725701 0.026456 1
2.597475 -0.732965 0.027701 1
2.572076 -0.735911 0.031618 1
2.592216 -0.751617 0.027516 1
2.566797 -0.754387 0.031433 1
2.564245 -0.763150 0.031344 1
2.599352 -0.783526 0.024563 1
2.558776 -0.781570 0.031155 1
2.593740 -0.802189 0.024369 1
2.575803 -0.806885 0.026947 1
2.572932 -0.816139 0.026849 1
2.547454 -0.818294 0.030766 1
2.567093 -0.834618 0.026650 1
2.579142 -0.848673 0.023870 1
2.538626 -0.845731 0.030466 1
2.565584 -0.864726 0.025005 1
2.532582 -0.863971 0.030262 1
2.529666 -0.872620 0.030164 1
2.526411 -0.882168 0.030055 1
2.523277 -0.891250 0.029950 1
2.542453 -0.908112 0.025821 1
2.517076 -0.908928 0.029744 1
2.515467 -0.913454 0.029690 1
2.510591 -0.927015 0.029529 1
2.525827 -0.942790 0.026064 1
2.533584 -0.955956 0.023939 1
2.500628 -0.954060 0.029201 1
2.497244 -0.963052 0.029090 1
2.493828 -0.972032 0.028978 1
2.497917 -0.983377 0.027527 1
2.487078 -0.989507 0.028758 1
2.483570 -0.998452 0.028644 1
2.465367 -1.001578 0.031219 1
2.447172 -1.004590 0.033795 1
2.447268 -1.014872 0.033007 1
2.440022 -1.022188 0.033564 1
2.429109 -1.027964 0.034794 1
2.461871 -1.051854 0.027943 1
2.432886 -1.049580 0.032545 1
2.425725 -1.056358 0.033105 1
2.421985 -1.065088 0.032986 1
2.410975 -1.070677 0.034214 1
2.418026 -1.084085 0.032070 1
2.410773 -1.090765 0.032629 1
2.435737 -1.112250 0.027110 1
2.431801 -1.121014 0.026985 1
2.411849 -1.117292 0.030297 1
2.394951 -1.125825 0.032129 1
2.394548 -1.136098 0.031328 1
2.372859 -1.135972 0.034585 1
2.411460 -1.165059 0.026344 1
2.385965 -1.163606 0.030270 1
2.374737 -1.168795 0.031494 1
2.399220 -1.190620 0.025961 1
2.373741 -1.188906 0.029888 1
2.390984 -1.207447 0.025704 1
2.358452 -1.202062 0.030986 1
2.336568 -1.201750 0.034239 1
2.332321 -1.210168 0.034107 1
2.303442 -1.206071 0.038716 1
2.358822 -1.244938 0.027066 1
2.315901 -1.233522 0.034385 1
2.332517 -1.252801 0.030183 1
2.321113 -1.257536 0.031403 1
2.351500 -1.284364 0.024483 1
2.346964 -1.292833 0.024344 1
2.307700 -1.282580 0.030991 1
2.303170 -1.290896 0.030852 1
2.288242 -1.293513 0.032750 1
2.290575 -1.305575 0.031252 1
2.281380 -1.305880 0.032540 1
2.277891 -1.320142 0.031649 1
2.280091 -1.332239 0.030147 1
2.265119 -1.334596 0.032045 1
2.277728 -1.352184 0.028507 1
2.259555 -1.352077 0.031092 1
2.247738 -1.356654 0.032302 1
2.229367 -1.356756 0.034881 1
2.231358 -1.368825 0.033374 1
2.229910 -1.378900 0.032546 1
2.241918 -1.397126 0.028991 1
2.196579 -1.380635 0.037025 1
2.208510 -1.398863 0.033468 1
2.206929 -1.408904 0.032637 1
2.205306 -1.418952 0.031806 1
2.207230 -1.430701 0.030298 1
2.191938 -1.432745 0.032188 1
2.196857 -1.447010 0.029987 1
2.195327 -1.456671 0.029159 1
2.177209 -1.455640 0.031747 1
2.185027 -1.472499 0.028851 1
2.166400 -1.472126 0.031425 1
2.171331 -1.486081 0.029225 1
2.143398 -1.478231 0.033869 1
2.163726 -1.497442 0.028999 1
2.175116 -1.522796 0.024646 1
2.140445 -1.510668 0.030653 1
2.138369 -1.520631 0.029810 7
2.137871 -1.531718 0.028623 7
2.132744 -1.539055 0.028471 12
2.133498 -1.551674 0.026931 12
2.118380 -1.552552 0.028828 12
2.103283 -1.553344 0.030727 12
2.105813 -1.566692 0.028848 13
2.103763 -1.576231 0.028007 13
2.100082 -1.584614 0.027508 16
2.081512 -1.583259 0.030086 16
2.072766 -1.588442 0.030610 13
2.076653 -1.602996 0.028382 13
2.069713 -1.608948 0.028569 12
2.066907 -1.619180 0.027706 12
2.050229 -1.618304 0.029949 13
2.039839 -1.622125 0.030816 13
2.040364 -1.634319 0.029271 14
2.034609 -1.641701 0.029103 14
2.039978 -1.657194 0.026529 13
2.024860 -1.657256 0.028428 13
2.011311 -1.658458 0.029984 12
2.014557 -1.667011 0.028518 12
2.001142 -1.674233 0.029298 8
1.996778 -1.682719 0.028782 8
1.966739 -1.669650 0.034148 2
1.972736 -1.687143 0.031203 2
1.969830 -1.696802 0.030339 1
2.000156 -1.734227 0.021862 1
1.988325 -1.736037 0.023079 1
1.952140 -1.717790 0.029827 1
2.558085 -2.250983 0.012290 1
2.550174 -2.260165 0.012061 1
2.542630 -2.268863 0.011843 1
2.590983 -2.327913 0.001045 1
2.544111 -2.303230 0.008036 1
2.518215 -2.296618 0.011140 1
2.510550 -2.305210 0.010919 1
2.540792 -2.348600 0.003450 1
2.533893 -2.391469 -0.000596 1
2.509473 -2.385802 0.002230 1
2.463351 -2.359785 0.009244 1
2.483999 -2.395681 0.003424 1
2.446742 -2.377458 0.008769 1
2.438391 -2.386251 0.008530 1
2.431083 -2.428106 0.004476 1
2.405531 -2.420264 0.007592 1
2.397031 -2.428913 0.007350 1
2.388501 -2.437532 0.007107 1
2.379941 -2.446121 0.006863 1
2.426112 -2.500760 -0.003354 1
2.363163 -2.462784 0.006386 1
2.354515 -2.471285 0.006140 1
2.345837 -2.479755 0.005894 1
2.350928 -2.502398 0.002836 1
2.328393 -2.496605 0.005399 1
2.333326 -2.519282 0.002337 1
2.346319 -2.550630 -0.002417 1
2.337364 -2.559071 -0.002670 1
2.293155 -2.529937 0.004401 1
2.283828 -2.538605 0.004138 1
2.274916 -2.546828 0.003886 1
2.292763 -2.584184 -0.002010 1
2.257455 -2.562773 0.003393 1
2.248458 -2.570904 0.003139 1
2.239886 -2.578599 0.002898 1
2.230381 -2.587071 0.002630 1
2.221300 -2.595108 0.002374 1
2.212191 -2.603112 0.002118 1
2.219158 -2.628566 -0.001524 1
2.193889 -2.619025 0.001603 1
2.184697 -2.626934 0.001345 1
2.185781 -2.646839 -0.001183 1
2.166230 -2.642655 0.000827 1
2.161596 -2.646565 0.000697 1
2.148119 -2.657858 0.000319 1
2.138792 -2.665606 0.000058 1
2.129437 -2.673322 -0.000204 1
2.120056 -2.681006 -0.000466 1
2.111119 -2.688274 -0.000716 1
2.101685 -2.695894 -0.000980 1
2.092225 -2.703480 -0.001244 1
2.082739 -2.711033 -0.001509 1
2.073226 -2.718553 -0.001775 1
2.063687 -2.726039 -0.002041 1
2.054122 -2.733493 -0.002307 1
2.043318 -2.739349 -0.002289 1
2.033706 -2.746731 -0.002557 1
2.024069 -2.754079 -0.002825 1
2.014407 -2.761394 -0.003094 1
2.004719 -2.768675 -0.003363 1
1.995005 -2.775922 -0.003633 1
1.985267 -2.783135 -0.003903 1
1.975503 -2.790314 -0.004174 1
1.965714 -2.797460 -0.004446 1
1.955901 -2.804570 -0.004718 1
1.946555 -2.811294 -0.004977 1
1.937187 -2.817986 -0.005237 1
1.932247 -2.821496 -0.005374 1
1.917392 -2.831974 -0.005785 1
1.907458 -2.838915 -0.006060 1
1.897501 -2.845823 -0.006335 1
1.888644 -2.854323 -0.006899 1
1.878632 -2.861165 -0.007176 1
1.868596 -2.867971 -0.007453 1
1.858537 -2.874742 -0.007730 1
1.848455 -2.881478 -0.008009 1
1.838349 -2.888179 -0.008287 1
1.828219 -2.894844 -0.008566 1
1.818575 -2.901144 -0.008832 1
1.808400 -2.907740 -0.009112 1
1.783174 -2.891026 -0.005339 1
1.787471 -2.921151 -0.009688 1
1.777227 -2.927639 -0.009970 1
1.767474 -2.933769 -0.010238 1
1.757700 -2.939866 -0.010506 1
1.728078 -2.916313 -0.005576 1
1.715263 -2.919538 -0.005290 1
1.711733 -2.935591 -0.007301 1
1.699900 -2.938121 -0.006987 1
1.705413 -2.971734 -0.011941 1
1.674697 -2.943961 -0.006402 1
1.679137 -2.964323 -0.009470 1
1.660566 -2.966044 -0.008703 1
1.664127 -2.996014 -0.013071 1
1.633798 -2.967823 -0.007521 1
1.607627 -2.946321 -0.003133 1
1.612965 -2.979689 -0.008091 1
1.621983 -3.020019 -0.014223 1
1.611925 -3.025633 -0.014497 1
1.577716 -2.990297 -0.007777 1
1.571053 -3.002983 -0.009234 1
1.552932 -2.994828 -0.007177 1
1.546731 -3.007170 -0.008622 1
1.543686 -3.026755 -0.011256 1
1.529350 -3.025409 -0.010371 1
1.537783 -3.065688 -0.016518 1
1.512860 -3.042998 -0.012095 1
1.501658 -3.048802 -0.012399 1
1.492784 -3.057807 -0.013278 1
1.453236 -3.006907 -0.004151 1
1.443222 -3.011963 -0.004423 1
1.441021 -3.035187 -0.007671 1
1.432146 -3.044006 -0.008549 1
1.419723 -3.045706 -0.008248 1
1.416543 -3.064861 -0.010885 1
1.405970 -3.056795 -0.009259 1
1.390427 -3.064258 -0.009680 1
1.374574 -3.058648 -0.008197 1
1.365544 -3.067271 -0.009079 1
1.374395 -3.115522 -0.016488 1
1.346817 -3.084686 -0.010860 1
1.322778 -3.060884 -0.006411 1
1.323534 -3.090946 -0.010852 1
1.289906 -3.045342 -0.002838 1
1.309928 -3.118697 -0.014406 1
1.286173 -3.094586 -0.009949 1
1.268965 -3.084836 -0.007864 1
1.262886 -3.100395 -0.009940 1
1.266654 -3.137511 -0.015573 1
1.232364 -3.087612 -0.006939 1
1.230784 -3.114021 -0.010805 1
1.209177 -3.093026 -0.006927 1
1.198337 -3.097495 -0.007219 1
1.187481 -3.101925 -0.007511 1
1.195032 -3.150066 -0.014953 1
1.162575 -3.101284 -0.006588 1
1.160492 -3.127635 -0.010466 1
1.129210 -3.080426 -0.002387 1
1.132800 -3.121457 -0.008662 1
1.127333 -3.123563 -0.008808 1
1.106669 -3.118741 -0.007452 1
1.091540 -3.111756 -0.005946 1
1.085343 -3.126722 -0.008024 1
1.084009 -3.156715 -0.012518 1
1.072947 -3.160746 -0.012815 1
1.052979 -3.138519 -0.008891 1
1.038520 -3.131082 -0.007367 1
1.028322 -3.138874 -0.008277 1
1.021254 -3.153905 -0.010377 1
1.007608 -3.150246 -0.009468 1
0.985556 -3.120166 -0.004325 1
0.986788 -3.161482 -0.010661 1
0.965645 -3.135184 -0.006131 1
0.958394 -3.150062 -0.008235 1
0.949820 -3.161170 -0.009737 1
0.941737 -3.172078 -0.011227 1
0.919107 -3.137784 -0.005462 1
0.911142 -3.152722 -0.007585 1
0.912516 -3.197834 -0.014553 1
0.905977 -3.216378 -0.017274 1
0.880871 -3.174403 -0.010302 1
0.868024 -3.169989 -0.009370 1
0.863113 -3.192051 -0.012684 1
0.854158 -3.182312 -0.011012 1
0.833569 -3.175909 -0.009650 1
0.820266 -3.171464 -0.008730 1
0.814526 -3.193599 -0.012066 1
0.801746 -3.190977 -0.011450 1
0.791125 -3.193871 -0.011732 1
0.779935 -3.196881 -0.012029 1
0.777474 -3.230253 -0.017188 1
0.756067 -3.194991 -0.011389 1
0.747861 -3.209355 -0.013517 1
0.735073 -3.208525 -0.013219 1
0.722864 -3.207506 -0.012906 1
0.712189 -3.210139 -0.013188 1
0.697735 -3.197381 -0.011025 1
0.686902 -3.204039 -0.011948 1
0.674762 -3.202839 -0.011633 1
0.665345 -3.213139 -0.013155 1
0.660308 -3.242670 -0.017744 1
0.641949 -3.214385 -0.013136 1
0.633838 -3.228322 -0.015260 1
0.622529 -3.230782 -0.015559 1
0.612047 -3.237065 -0.016472 1
0.593311 -3.204654 -0.011238 1
0.582893 -3.210841 -0.012149 1
0.576469 -3.208117 -0.011682 1
0.560733 -3.211270 -0.012097 1
0.554098 -3.236735 -0.016091 1
0.539738 -3.223399 -0.013923 1
0.531415 -3.241058 -0.016688 1
0.515691 -3.219854 -0.013283 1
0.505277 -3.229776 -0.014830 1
0.495365 -3.239566 -0.016364 1
0.477834 -3.206517 -0.011097 1
0.466602 -3.208433 -0.011392 1
0.459982 -3.237583 -0.016021 1
0.446621 -3.223751 -0.013826 1
0.435013 -3.223607 -0.013813 1
0.422425 -3.213578 -0.012234 1
0.412989 -3.227014 -0.014390 1
0.398720 -3.209169 -0.011583 1
0.388654 -3.222616 -0.013756 1
0.383017 -3.263329 -0.020268 1
0.364418 -3.214047 -0.012482 1
0.356416 -3.235065 -0.015873 1
0.340325 -3.205299 -0.011203 1
0.331651 -3.226325 -0.014612 1
0.319854 -3.223811 -0.014285 1
0.308159 -3.217265 -0.013318 1
0.302526 -3.217932 -0.013465 1
0.285162 -3.215948 -0.013283 1
0.275226 -3.228969 -0.015451 1
0.266201 -3.245827 -0.018232 1
0.253585 -3.235217 -0.016653 1
0.241450 -3.228489 -0.015697 1
0.228801 -3.221770 -0.014754 1
0.217892 -3.226749 -0.015675 1
0.207878 -3.235576 -0.017209 1
0.214059 3.275554 -0.002819 1
0.225258 3.272551 -0.002225 1
0.236636 3.271476 -0.001934 1
0.248579 3.270305 -0.001628 1
0.264170 3.308463 -0.007385 1
0.271315 3.267953 -0.001047 1
0.282677 3.266718 -0.000757 1
0.294035 3.265443 -0.000467 1
0.304820 3.264194 -0.000191 1
0.316168 3.262842 0.000098 1
0.330534 3.284983 -0.003228 1
0.344598 3.299149 -0.005331 1
0.350751 3.258472 0.000980 1
0.362080 3.256960 0.001269 1
0.380095 3.306380 -0.006273 1
0.389874 3.293026 -0.004178 1
0.399566 3.279644 -0.002085 1
0.406773 3.250598 0.002407 1
0.421751 3.272331 -0.000905 1
0.433753 3.274476 -0.001215 1
0.452818 3.319506 -0.008116 1
0.446298 3.244446 0.003412 1
0.469887 3.280644 -0.002143 1
0.486739 3.309884 -0.006639 1
0.485182 3.237910 0.004400 1
0.514702 3.333108 -0.010237 1
0.508249 3.233804 0.004985 1
0.519490 3.231742 0.005270 1
0.530724 3.229640 0.005555 1
0.549574 3.266311 -0.000122 1
0.562686 3.275851 -0.001636 1
0.578017 3.292979 -0.004324 1
0.580640 3.248068 0.002511 1
0.594786 3.259300 0.000715 1
0.612749 3.287877 -0.003753 1
0.624179 3.285450 -0.003464 1
0.635599 3.282983 -0.003176 1
0.653099 3.307490 -0.007041 1
0.664596 3.304922 -0.006751 1
0.653671 3.205992 0.008357 1
0.675734 3.249619 0.001529 1
0.699034 3.296979 -0.005882 1
0.699253 3.248130 0.001507 1
0.728597 3.318366 -0.009444 1
0.719896 3.234959 0.003258 1
0.745895 3.314105 -0.009008 1
0.730926 3.187326 0.010304 1
0.761062 3.257199 -0.000628 1
0.778481 3.277196 -0.003881 1
0.815614 3.369691 -0.018328 1
0.794430 3.248399 0.000211 1
0.817000 3.242238 0.000778 1
0.822335 3.216108 0.004603 1
0.840089 3.235760 0.001358 1
0.851335 3.232540 0.001640 1
0.862008 3.229444 0.001908 1
0.887990 3.275422 -0.005438 1
0.890771 3.245699 -0.001062 1
0.896807 3.223219 0.002165 1
0.900340 3.193181 0.006559 1
0.945357 3.257912 -0.004002 1
0.940885 3.205368 0.003883 1
0.989518 3.318595 -0.013969 1
0.987436 3.233944 -0.001412 1
1.001209 3.237707 -0.002299 1
1.034935 3.301518 -0.012527 1
1.008516 3.206013 0.002189 1
1.037538 3.233714 -0.002622 1
1.041620 3.211346 0.000554 1
1.046897 3.192712 0.003146 1
1.073340 3.229514 -0.002960 1
1.063387 3.165804 0.006631 1
1.115532 3.273176 -0.010519 1
1.092296 3.176305 0.004276 1
1.118146 3.213145 -0.001845 1
1.148479 3.260943 -0.009700 1
1.124814 3.164099 0.005084 1
1.171693 3.252095 -0.009123 1
1.162719 3.196151 -0.000738 1
1.205550 3.238847 -0.008283 10
1.201381 3.197894 -0.002239 1
1.213048 3.193188 -0.001949 1
1.239266 3.225246 -0.007448 1
1.229123 3.169497 0.000908 1
1.261663 3.215982 -0.006893 1
1.272838 3.211292 -0.006617 1
1.283996 3.206562 -0.006341 1
1.306262 3.196987 -0.005791 1
1.311818 3.194569 -0.005653 1
1.327906 3.187501 -0.005256 1
1.338981 3.182580 -0.004983 1
1.315096 3.102185 0.007334 1
1.360527 3.172871 -0.004452 1
1.371550 3.167836 -0.004180 1
1.382556 3.162762 -0.003909 1
1.404514 3.152499 -0.003369 10
1.415466 3.147311 -0.003099 1
1.426400 3.142084 -0.002830 1
1.437316 3.136818 -0.002562 1
1.448213 3.131515 -0.002295 1
1.459092 3.126174 -0.002027 1
1.469951 3.120795 -0.001761 1
1.480792 3.115378 -0.001495 1
1.491614 3.109923 -0.001230 1
1.502417 3.104430 -0.000965 1
1.513201 3.098900 -0.000701 1
1.523966 3.093332 -0.000437 1
1.535635 3.089477 -0.000459 1
1.545830 3.084114 -0.000209 1
1.557078 3.078147 0.000065 1
1.567769 3.072426 0.000327 1
1.589093 3.060872 0.000847 1
1.599724 3.055039 0.001107 1
1.620396 3.043559 0.001611 10
1.630967 3.037617 0.001868 1
1.641516 3.031638 0.002125 1
1.652045 3.025622 0.002382 1
1.662553 3.019570 0.002637 1
1.673040 3.013481 0.002892 1
1.683505 3.007355 0.003147 1
1.693949 3.001194 0.003400 1
1.704372 2.994995 0.003653 1
1.714772 2.988760 0.003906 1
1.725151 2.982489 0.004158 1
1.735508 2.976182 0.004409 1
1.745327 2.970156 0.004646 1
1.755125 2.964098 0.004884 1
1.765932 2.957365 0.005145 1
1.746999 2.903783 0.013279 1
1.786959 2.944105 0.005654 1
1.797182 2.937582 0.005901 1
1.807382 2.931023 0.006147 1
1.817558 2.924429 0.006393 1
1.822638 2.921119 0.006516 1
1.837843 2.911134 0.006882 1
1.847445 2.904770 0.007114 1
1.867089 2.891606 0.007587 10
1.877128 2.884804 0.007828 1
1.887143 2.877967 0.008069 1
1.897134 2.871094 0.008309 1
1.907599 2.863841 0.008561 1
1.917541 2.856897 0.008799 1
1.927459 2.849919 0.009037 1
1.936858 2.843257 0.009263 1
1.946728 2.836212 0.009499 1
1.956573 2.829132 0.009735 1
1.966884 2.821661 0.009982 1
1.976678 2.814510 0.010216 1
1.986447 2.807326 0.010450 1
1.995705 2.800469 0.010671 1
2.005425 2.793218 0.010903 1
2.015120 2.785933 0.011135 1
2.023587 2.777041 0.011643 1
2.033225 2.769693 0.011873 1
2.043318 2.761941 0.012113 1
2.052903 2.754524 0.012342 1
2.058164 2.750430 0.012467 1
2.071044 2.740340 0.012773 1
2.080554 2.732826 0.012999 1
2.090038 2.725279 0.013225 1
2.099967 2.717320 0.013460 1
2.109867 2.709324 0.013695 1
2.118799 2.702058 0.013907 1
2.127707 2.694762 0.014118 1
2.137058 2.687051 0.014339 1
2.146381 2.679308 0.014560 1
2.155678 2.671531 0.014780 1
2.164947 2.663723 0.014999 1
2.174189 2.655882 0.015217 1
2.183404 2.648008 0.015435 1
2.192591 2.640103 0.015651 1
2.201750 2.632166 0.015867 1
2.220440 2.615794 0.016307 1
2.229062 2.608162 0.016510 1
2.237658 2.600502 0.016712 1
2.246679 2.592407 0.016924 1
2.255671 2.584281 0.017135 1
2.265083 2.575715 0.017356 1
2.274017 2.567525 0.017565 1
2.278919 2.563007 0.017680 1
2.291357 2.551465 0.017971 1
2.300206 2.543183 0.018178 1
2.309027 2.534871 0.018384 1
2.319627 2.527541 0.018326 1
2.328393 2.519160 0.018530 1
2.337130 2.510750 0.018734 1
2.345402 2.502731 0.018927 1
2.354081 2.494261 0.019129 1
2.371351 2.477230 0.019530 10
2.379512 2.469098 0.019720 1
2.388074 2.460510 0.019919 1
2.396605 2.451891 0.020117 1
2.405107 2.443242 0.020314 1
2.413578 2.434564 0.020510 1
2.422019 2.425856 0.020705 1
2.430429 2.417119 0.020899 1
2.438809 2.408353 0.021093 1
2.447159 2.399557 0.021286 1
2.455477 2.390732 0.021478 1
2.463765 2.381879 0.021668 1
2.472022 2.372996 0.021859 1
2.480247 2.364084 0.022048 1
2.484349 2.359618 0.022142 1
2.496605 2.346176 0.022423 1
2.504331 2.337629 0.022601 1
2.512029 2.329057 0.022777 1
2.520101 2.320006 0.022962 1
2.528142 2.310927 0.023146 1
2.536151 2.301821 0.023329 1
2.544128 2.292686 0.023511 1
2.552073 2.283523 0.023693 1
2.559986 2.274333 0.023873 1
2.567867 2.265115 0.024052 1
2.575716 2.255869 0.024231 1
2.583922 2.246132 0.024418 1
2.591704 2.236831 0.024594 1
2.599454 2.227503 0.024770 1
2.606786 2.218616 0.024936 1
2.614856 2.208765 0.025119 1
2.622508 2.199356 0.025292 1
2.629746 2.190392 0.025456 1
2.636955 2.181405 0.025618 1
2.644512 2.171919 0.025789 1
2.652035 2.162406 0.025958 1
2.659525 2.152868 0.026127 1
2.666981 2.143303 0.026294 1
2.670697 2.138511 0.026378 1
2.681794 2.124096 0.026627 1
2.704949 2.126417 0.024101 1
2.696472 2.104786 0.026955 1
2.702535 2.093422 0.027395 1
2.709784 2.083707 0.027557 1
2.732966 2.085708 0.025032 1
2.723822 2.064691 0.027870 1
2.730970 2.054903 0.028029 1
2.737730 2.045580 0.028179 1
2.744811 2.035743 0.028337 1
2.810054 2.067162 0.018837 1
2.758871 2.015995 0.028648 1
2.765850 2.006084 0.028802 1
2.772793 1.996149 0.028956 1
2.779702 1.986190 0.029108 1
2.809484 1.991865 0.025511 1
2.793416 1.966199 0.029410 1
2.800220 1.956168 0.029560 1
2.839947 1.968140 0.024358 1
2.813724 1.936035 0.029856 1
2.820422 1.925933 0.030003 1
2.850317 1.930985 0.026407 1
2.876619 1.934211 0.023339 1
2.896618 1.939811 0.020741 1
2.889967 1.913546 0.023630 1
2.853061 1.875588 0.030714 1
2.859549 1.865349 0.030855 1
2.906682 1.879756 0.024599 1
2.872737 1.844289 0.031141 1
2.879115 1.833982 0.031278 1
2.918116 1.815689 0.028482 1
2.903957 1.793052 0.031813 1
2.918030 1.773201 0.031812 10
3.022334 1.790968 0.018904 1
2.987152 1.756655 0.025417 1
2.948314 1.720664 0.032457 1
3.046267 1.748617 0.019412 1
2.965751 1.689422 0.032825 1
3.049248 1.693604 0.023101 1
3.038190 1.680675 0.025285 1
3.057406 1.669891 0.023875 1
3.049118 1.528428 0.034558 1
3.105281 1.406753 0.035690 10
3.129144 1.351003 0.036161 1
3.133800 1.339803 0.036252 1
3.142766 1.317918 0.036426 10
3.197873 1.286624 0.031509 10
3.238709 1.043909 0.038501 10
3.310349 1.053855 0.029111 1
3.259434 0.974827 0.038855 10
3.381994 0.792575 0.029965 1
3.389854 0.756919 0.030074 10
3.345602 0.610996 0.039816 1
3.398486 0.607752 0.033037 1
3.349604 0.587686 0.039858 1
3.390825 0.581549 0.034648 1
3.404541 0.571328 0.033098 1
3.354693 0.556564 0.039908 1
3.357316 0.539788 0.039932 1
3.457182 0.542515 0.026871 1
3.458924 0.530794 0.026885 1
3.437249 0.514463 0.030038 1
3.462550 0.505481 0.026913 1
3.436746 0.489385 0.030585 1
3.406943 0.472954 0.034780 1
3.443931 0.465352 0.030082 1
3.410080 0.448622 0.034797 1
3.470634 0.443639 0.026960 1
3.373666 0.419611 0.040040 1
3.426287 0.413440 0.033246 1
3.376365 0.396114 0.040048 1
3.417115 0.388311 0.034821 1
3.418409 0.376112 0.034823 1
3.380205 0.359931 0.040053 1
3.381342 0.348465 0.040052 1
3.382554 0.335787 0.040050 1
3.482406 0.332626 0.026973 1
3.382760 0.311456 0.040305 1
3.454871 0.305920 0.030886 1
3.384723 0.287900 0.040294 1
3.409392 0.277629 0.037149 1
3.386124 0.269771 0.040283 1
3.387429 0.251635 0.040269 1
3.388247 0.239540 0.040258 1
3.428602 0.229917 0.035016 1
3.389756 0.215343 0.040234 1
3.410245 0.204340 0.037605 1
3.442580 0.193815 0.033405 1
3.443196 0.181529 0.033389 1
3.416038 0.167992 0.037033 1
3.440337 0.156787 0.033876 1
3.405159 0.143150 0.038565 1
3.425393 0.132292 0.035930 1
3.445613 0.120686 0.033292 1
3.394423 0.107562 0.040072 1
3.454205 0.096903 0.032200 1
3.395011 0.083325 0.040024 1
3.434892 0.071902 0.034765 1
3.395430 0.059085 0.039972 1
3.447132 0.046896 0.033138 1
3.395743 0.022114 0.039883 10
3.395760 0.010599 0.039853 1
3.395736 -0.001523 0.039821 1
3.395622 -0.019706 0.039770 10
3.395421 -0.037282 0.039719 1
3.394998 -0.061522 0.039645 1
3.468050 -0.076020 0.029914 1
3.435646 -0.099777 0.034022 10
3.447148 -0.111834 0.032410 1
3.446697 -0.124133 0.032366 1
3.446203 -0.136432 0.032321 1
3.392326 -0.182756 0.038945 1
3.391593 -0.195470 0.038893 1
3.390850 -0.207576 0.038842 1
3.389323 -0.230570 0.038742 1
3.388459 -0.242668 0.038688 1
3.456743 -0.284856 0.029075 1
3.384578 -0.291028 0.038462 1
3.383502 -0.303109 0.038402 1
3.381224 -0.327259 0.038280 1
3.478595 -0.349878 0.025088 1
3.449705 -0.359405 0.028698 1
3.484353 -0.525997 0.020394 10
3.441742 -0.614192 0.023444 10
3.368270 -0.731089 0.029064 10
3.315296 -0.732133 0.035830 1
3.370748 -0.756836 0.027809 1
3.310025 -0.755797 0.035632 1
3.376760 -0.784141 0.026015 1
3.304452 -0.780013 0.035424 1
3.392583 -0.837642 0.021902 10
3.293371 -0.825970 0.035018 1
3.386421 -0.862444 0.021677 1
3.356303 -0.868276 0.025266 1
3.284271 -0.861803 0.034689 1
3.281358 -0.872944 0.034584 1
3.279810 -0.878804 0.034529 1
3.324874 -0.909772 0.027475 1
3.271918 -0.908062 0.034248 1
3.268690 -0.919745 0.034134 1
3.265421 -0.931418 0.034019 1
3.262111 -0.943079 0.033903 1
3.258761 -0.954728 0.033786 1
3.255541 -0.965784 0.033674 1
3.252111 -0.977410 0.033555 1
3.286623 -1.000390 0.028127 1
3.241579 -1.012216 0.033192 1
3.277742 -1.036142 0.027491 1
3.274067 -1.047845 0.027365 1
3.259017 -1.055927 0.028833 1
3.228858 -1.059056 0.032428 1
3.243950 -1.076731 0.029641 1
3.221308 -1.082108 0.032172 1
3.217473 -1.093613 0.032043 1
3.307703 -1.136212 0.018614 1
3.303476 -1.148608 0.018472 1
3.205727 -1.128050 0.031649 1
3.201731 -1.139501 0.031516 1
3.197899 -1.150367 0.031389 1
3.233227 -1.169339 0.025992 1
3.189712 -1.173200 0.031117 1
3.185559 -1.184595 0.030980 1
3.181366 -1.195975 0.030842 1
3.177134 -1.207341 0.030703 1
3.172862 -1.218692 0.030563 1
3.168551 -1.230027 0.030422 1
3.164418 -1.240782 0.030287 1
3.160029 -1.252089 0.030144 1
3.155602 -1.263380 0.030000 1
3.151134 -1.274655 0.029855 1
3.146627 -1.285915 0.029709 1
3.142081 -1.297158 0.029562 1
3.159514 -1.317380 0.026204 1
3.132872 -1.319598 0.029266 1
3.146504 -1.338416 0.026439 1
3.123742 -1.341414 0.028973 1
3.144783 -1.362860 0.025078 1
3.139968 -1.374097 0.024925 1
3.146029 -1.390038 0.023162 1
3.104794 -1.385413 0.028368 1
3.100147 -1.395956 0.028220 1
3.095217 -1.407037 0.028064 1
3.111944 -1.427843 0.024686 1
3.087750 -1.423625 0.027827 1
3.079943 -1.440726 0.027581 1
3.074857 -1.451736 0.027421 1
3.105920 -1.478917 0.021893 1
3.086091 -1.483824 0.023871 1
3.080855 -1.494855 0.023707 1
3.089880 -1.512715 0.021390 1
3.049118 -1.505970 0.026614 1
3.056276 -1.522948 0.024563 1
3.042280 -1.528959 0.025751 7
3.029783 -1.536317 0.026661 7
3.017274 -1.543606 0.027570 12
3.006521 -1.551720 0.028210 12
2.995750 -1.559777 0.028850 12
2.995539 -1.573207 0.027870 12
2.991751 -1.584832 0.027429 11
2.980893 -1.592783 0.028066 11
2.971770 -1.601600 0.028434 12
2.959122 -1.608516 0.029341 12
2.962187 -1.623779 0.027815 12
2.959950 -1.636260 0.027099 12
2.954183 -1.646850 0.026922 12
2.944904 -1.655513 0.027285 12
2.926933 -1.659335 0.029002 8
2.929210 -1.667462 0.028100 8
2.946289 -1.697749 0.023768 1
2.940307 -1.708291 0.023586 1
2.934289 -1.718812 0.023403 1
2.928537 -1.728787 0.023228 1
2.922752 -1.738743 0.023052 1
2.940261 -1.763738 0.019058 1
2.910157 -1.760161 0.022671 1
2.903957 -1.770576 0.022483 1
2.897722 -1.780970 0.022295 1
2.891450 -1.791342 0.022106 1
2.885141 -1.801691 0.021916 1
2.878797 -1.812019 0.021725 1
2.872417 -1.822324 0.021533 1
2.866001 -1.832607 0.021340 1
2.883364 -1.857106 0.017343 1
2.846538 -1.863321 0.020757 1
2.840307 -1.873004 0.020571 1
2.834045 -1.882666 0.020384 1
2.828745 -1.894404 0.019903 1
2.821744 -1.905040 0.019694 1
2.815375 -1.914641 0.019505 1
2.808975 -1.924221 0.019314 1
2.805594 -1.929254 0.019214 1
2.795056 -1.944820 0.018901 1
2.788213 -1.954832 0.018698 1
2.781335 -1.964820 0.018494 1
2.774422 -1.974784 0.018289 1
2.767822 -1.984227 0.018094 1
2.760492 -1.994639 0.017877 1
2.753475 -2.004530 0.017670 1
2.746424 -2.014397 0.017462 1
2.739338 -2.024238 0.017253 1
2.725781 -2.042869 0.016854 1
2.718236 -2.053127 0.016632 1
2.711015 -2.062870 0.016420 1
2.722820 -2.086795 0.012907 1
2.696837 -2.081796 0.016004 1
2.689150 -2.091947 0.015779 1
2.681794 -2.101588 0.015564 1
2.705836 -2.135322 0.009837 1
2.666981 -2.120794 0.015131 1
2.659525 -2.130357 0.014913 1
2.652410 -2.139419 0.014706 1
2.644889 -2.148931 0.014486 1
2.637334 -2.158418 0.014266 1
2.633544 -2.163151 0.014156 1
2.622126 -2.177311 0.013824 1
2.614472 -2.186718 0.013602 1
2.607171 -2.195629 0.013390 1
2.599067 -2.205451 0.013155 1
2.591316 -2.214777 0.012930 1
2.583532 -2.224076 0.012704 1
2.576107 -2.232884 0.012490 1
2.568260 -2.242130 0.012263 1
3.486922 -3.246526 -0.009082 25
3.526042 -3.350740 -0.020535 1
3.324105 -3.274571 -0.001171 25
3.282453 -3.418108 -0.011401 25
3.220434 -3.378596 -0.004122 1
3.208585 -3.390082 -0.004458 1
3.265686 -3.473137 -0.015391 1
3.172798 -3.424289 -0.005472 1
3.087917 -3.502635 -0.007870 25
3.142713 -3.587060 -0.018867 1
3.063316 -3.524637 -0.008564 1
3.050959 -3.535573 -0.008912 1
3.038563 -3.546465 -0.009260 1
3.001148 -3.578883 -0.010312 1
2.976017 -3.600276 -0.011017 1
2.938679 -3.631510 -0.012064 25
2.971529 -3.697204 -0.020164 1
2.913182 -3.652466 -0.012777 1
2.901020 -3.662357 -0.013117 1
2.888182 -3.672725 -0.013476 1
2.875309 -3.683049 -0.013836 1
2.862399 -3.693328 -0.014196 1
2.849454 -3.703561 -0.014558 1
2.810405 -3.733989 -0.015646 25
2.797318 -3.744041 -0.016011 1
2.784197 -3.754046 -0.016376 1
2.771040 -3.764006 -0.016742 1
2.757849 -3.773920 -0.017109 1
2.744623 -3.783788 -0.017476 1
2.731362 -3.793610 -0.017844 1
2.718068 -3.803385 -0.018213 1
2.704740 -3.813114 -0.018583 1
2.691377 -3.822796 -0.018954 1
2.665896 -3.841063 -0.019660 1
2.659170 -3.845842 -0.019846 1
2.638943 -3.860109 -0.020406 1
2.625417 -3.869561 -0.020781 1
2.611859 -3.878965 -0.021155 1
2.598267 -3.888323 -0.021531 1
2.557298 -3.916109 -0.022662 1
2.543577 -3.925276 -0.023041 1
2.529824 -3.934395 -0.023420 1
2.516039 -3.943465 -0.023800 1
2.502915 -3.952038 -0.024162 1
2.475192 -3.969942 -0.024925 1
2.460588 -3.979264 -0.025326 1
2.433375 -3.996435 -0.026074 25
2.390579 -4.022919 -0.027249 1
2.290400 -3.999629 -0.020999 25
2.264118 -4.097575 -0.030712 25
2.200241 -4.051483 -0.023464 25
2.173173 -4.034726 -0.020706 1
2.158333 -4.042942 -0.021111 1
2.192075 -4.137781 -0.032679 1
2.177583 -4.145670 -0.033074 1
2.163789 -4.153119 -0.033450 1
1.973629 -4.139399 -0.026136 1
1.887744 -4.180722 -0.028463 1
1.846014 -4.169422 -0.026098 1
1.839822 -4.233382 -0.033253 1
1.784031 -4.227766 -0.031266 25
1.809091 -4.325232 -0.043065 1
1.740296 -4.246691 -0.032445 1
1.671930 -4.167728 -0.021814 1
1.695621 -4.265473 -0.033649 1
1.628086 -4.185802 -0.022994 25
1.614163 -4.191430 -0.023369 1
1.599487 -4.197303 -0.023763 1
1.584791 -4.203126 -0.024158 1
1.525805 -4.225902 -0.025742 1
1.453124 -4.252676 -0.027690 25
1.408402 -4.268454 -0.028886 1
1.393459 -4.273609 -0.029286 1
1.348522 -4.288760 -0.030487 1
1.318477 -4.298598 -0.031289 1
1.289871 -4.307751 -0.032052 1
1.274037 -4.312727 -0.032474 1
1.258185 -4.317646 -0.032896 1
1.243070 -4.322276 -0.033299 1
1.227940 -4.326853 -0.033702 1
1.199149 -4.335404 -0.034468 1
1.191563 -4.337622 -0.034670 1
1.168022 -4.344416 -0.035296 1
1.152815 -4.348731 -0.035700 1
1.137593 -4.352993 -0.036105 1
1.122356 -4.357201 -0.036509 1
1.107867 -4.361150 -0.036894 1
1.092602 -4.365255 -0.037299 1
1.078087 -4.369105 -0.037684 1
1.062795 -4.373106 -0.038090 1
1.047488 -4.377054 -0.038496 1
1.031401 -4.381141 -0.038922 1
1.016067 -4.384979 -0.039328 1
1.001487 -4.388575 -0.039714 1
0.986895 -4.392123 -0.040101 1
0.970753 -4.395988 -0.040528 1
0.955368 -4.399613 -0.040935 1
0.939969 -4.403186 -0.041342 1
0.924558 -4.406704 -0.041749 1
0.909135 -4.410169 -0.042157 1
0.848099 -4.423326 -0.043768 25
0.816856 -4.389205 -0.039610 25
0.803175 -4.432450 -0.044953 1
0.777663 -4.384840 -0.039148 1
0.772140 -4.438477 -0.045770 1
0.756607 -4.441409 -0.046179 1
0.741064 -4.444287 -0.046589 1
0.724733 -4.447250 -0.047018 1
0.709170 -4.450016 -0.047428 1
0.678014 -4.455386 -0.048247 1
0.662423 -4.457990 -0.048656 1
0.647603 -4.460413 -0.049046 1
0.623768 -4.411947 -0.043195 1
0.606002 -4.394632 -0.041171 1
0.590623 -4.396985 -0.041574 1
0.578197 -4.418916 -0.044391 1
0.569474 -4.472353 -0.051095 1
0.521650 -4.358778 -0.037404 25
0.513610 -4.407944 -0.043593 1
0.478416 -4.384484 -0.041027 1
0.475463 -4.484877 -0.053557 1
0.444144 -4.416656 -0.045410 25
0.417775 -4.391708 -0.042613 1
0.402407 -4.393404 -0.043014 1
0.357039 -4.398095 -0.044199 1
0.343583 -4.427311 -0.048036 1
0.316178 -4.302265 -0.032812 1
0.467617 4.508670 -0.030215 25
0.499774 4.504664 -0.029394 25
0.515450 4.502626 -0.028995 1
0.608565 4.489372 -0.026624 1
0.624186 4.486954 -0.026226 1
0.639799 4.484482 -0.025829 1
0.647603 4.483226 -0.025631 1
0.686586 4.476739 -0.024641 25
0.717731 4.471306 -0.023850 25
0.856608 4.444330 -0.020333 1
1.116257 4.381620 -0.013789 25
1.497573 4.365005 -0.016171 1
1.700317 4.393706 -0.023049 25
2.059199 4.230454 -0.014204 25
2.088592 4.215445 -0.013484 25
2.169600 4.172724 -0.011503 25
2.205094 4.153367 -0.010636 25
2.261967 4.121522 -0.009250 25
2.276295 4.113336 -0.008901 1
2.304865 4.096813 -0.008207 1
2.319107 4.088477 -0.007860 1
2.375780 4.054638 -0.006485 25
2.416570 4.029611 -0.005496 1
2.690708 3.845943 0.001106 1
2.718068 3.826046 0.001760 1
2.757188 3.797071 0.002695 25
2.810405 3.756638 0.003964 25
4.841423 0.318044 0.023055 1
4.845225 0.249356 0.022973 1
4.847448 0.197809 0.022896 25
4.848604 0.164292 0.022838 25
4.713887 -1.143102 0.015934 1
4.701330 -1.194030 0.015477 25
4.696882 -1.211531 0.015316 1
4.692802 -1.227352 0.015169 1
4.670697 -1.309559 0.014383 1
4.538846 -1.307785 0.026585 1
4.578465 -1.371046 0.020616 25
4.642252 -1.407850 0.013391 1
4.553640 -1.452068 0.019763 1
4.521956 -1.459759 0.022338 1
4.543315 -1.484353 0.019412 1
4.526715 -1.496764 0.020413 1
4.494966 -1.504084 0.022987 5
4.461334 -1.510570 0.025759 5
4.452493 -1.524335 0.025982 12
4.435537 -1.537061 0.026973 12
4.443274 -1.557353 0.025413 14
4.417107 -1.565893 0.027397 14
4.426866 -1.586090 0.025646 12
4.420321 -1.592614 0.025947 12
4.415609 -1.617488 0.025273 12
4.417376 -1.635888 0.024295 12
4.394797 -1.645361 0.025881 7
4.370342 -1.654002 0.027665 7
4.501297 -1.812060 0.008690 25
4.386238 -2.077963 0.005022 1
4.378553 -2.094303 0.004780 1
3.687627 -2.850852 0.009330 25
5.641305 -5.178617 -0.041190 1
5.233346 -5.317160 -0.034656 16
0.552023 7.042748 -0.082794 1
0.576554 7.040518 -0.082166 1
0.607320 7.101680 -0.086791 1
0.658021 7.096619 -0.085494 1
0.682739 7.094018 -0.084863 1
0.707449 7.091331 -0.084231 1
0.732149 7.088558 -0.083600 1
0.751820 7.054175 -0.080392 1
0.778338 7.067075 -0.081068 1
0.804956 7.079875 -0.081742 1
0.826727 7.044977 -0.078481 1
0.850206 7.033884 -0.077206 1
0.873620 7.022713 -0.075933 1
0.901859 7.055060 -0.078257 1
0.924153 7.035825 -0.076336 1
0.948075 7.028351 -0.075389 1
0.976136 7.048390 -0.076704 1
0.998852 7.032859 -0.075112 1
1.023347 7.029068 -0.074489 1
2.488769 6.951100 -0.062638 1
2.500548 6.912688 -0.059644 1
2.520584 6.896651 -0.058471 6
2.546507 6.888955 -0.057996 6
2.561127 6.855587 -0.055439 4
2.579906 6.833344 -0.053791 4
2.597096 6.807343 -0.051846 3
2.647422 6.864651 -0.056673 3
3.655817 6.311830 -0.027533 1
3.658448 6.217324 -0.020738 1
