# .PCD v.7 - Point Cloud Data file format
VERSION .7
FIELDS x y z intensity
SIZE 4 4 4 1
TYPE F F F U
COUNT 1 1 1 1
WIDTH 1574
HEIGHT 1
VIEWPOINT 0 0 0 1 0 0 0
POINTS 1574
DATA ascii
2.676614 0.075148 0.036060 1
2.676811 0.066016 0.036041 1
2.728262 0.057262 0.027422 1
2.728405 0.047471 0.027400 1
2.716685 0.037074 0.029361 1
2.677310 0.027079 0.035952 1
2.677347 0.017945 0.035929 1
2.677355 0.008811 0.035906 1
2.716778 -0.000957 0.029264 1
2.677271 -0.010418 0.035853 1
2.677178 -0.020032 0.035826 1
2.677052 -0.029646 0.035797 1
2.676977 -0.034453 0.035783 1
2.676679 -0.049834 0.035735 1
2.676462 -0.058965 0.035705 1
2.676214 -0.068096 0.035675 1
2.675905 -0.078187 0.035640 1
2.675576 -0.087796 0.035607 1
2.675214 -0.097404 0.035572 1
2.674839 -0.106530 0.035539 1
2.674411 -0.116135 0.035503 1
2.673950 -0.125739 0.035465 1
2.673429 -0.135821 0.035426 1
2.712285 -0.147637 0.028764 1
2.711743 -0.156885 0.028725 1
2.671801 -0.163656 0.035311 1
2.671142 -0.173730 0.035267 1
2.670480 -0.183322 0.035225 1
2.669784 -0.192912 0.035182 1
2.669092 -0.202019 0.035140 1
2.668292 -0.212083 0.035093 1
2.667496 -0.221665 0.035048 1
2.666667 -0.231244 0.035001 1
2.665804 -0.240820 0.034954 1
2.664908 -0.250392 0.034906 1
2.664026 -0.259484 0.034859 1
2.663549 -0.264267 0.034834 1
2.693455 -0.281905 0.029453 1
2.661042 -0.288173 0.034707 1
2.659981 -0.297729 0.034654 1
2.658886 -0.307281 0.034601 1
2.657758 -0.316829 0.034547 1
2.656596 -0.326374 0.034492 1
2.694599 -0.340361 0.027802 1
2.630702 -0.342409 0.038362 1
2.652912 -0.354981 0.034322 1
2.651618 -0.364508 0.034263 1
2.650357 -0.373555 0.034207 1
2.688043 -0.388676 0.027506 1
2.647606 -0.392586 0.034086 1
2.646180 -0.402094 0.034024 1
2.644721 -0.411598 0.033962 1
2.643229 -0.421096 0.033898 1
2.641704 -0.430589 0.033834 1
2.671281 -0.445209 0.028452 1
2.638635 -0.449084 0.033707 1
2.637012 -0.458561 0.033640 1
2.635440 -0.467558 0.033576 1
2.633753 -0.477024 0.033507 1
2.670835 -0.493561 0.026787 1
2.631160 -0.491211 0.033403 1
2.628493 -0.505384 0.033297 1
2.626674 -0.514825 0.033225 1
2.624822 -0.524259 0.033153 1
2.622937 -0.533687 0.033079 1
2.621019 -0.543108 0.033005 1
2.619068 -0.552523 0.032930 1
2.617184 -0.561460 0.032858 1
2.646020 -0.577486 0.027453 1
2.613122 -0.580256 0.032704 1
2.611042 -0.589642 0.032626 1
2.608929 -0.599022 0.032546 1
2.606783 -0.608394 0.032466 1
2.635334 -0.624917 0.027053 1
2.602393 -0.627115 0.032304 1
2.623158 -0.641993 0.028221 1
2.597758 -0.646272 0.032134 1
2.595448 -0.655604 0.032050 1
2.593105 -0.664929 0.031965 1
2.590848 -0.673780 0.031884 1
2.588321 -0.683553 0.031793 1
2.585880 -0.692853 0.031705 1
2.583407 -0.702144 0.031617 1
2.581028 -0.710962 0.031533 1
2.617821 -0.725944 0.024809 1
2.576052 -0.729038 0.031357 1
2.573453 -0.738294 0.031265 1
2.570821 -0.747541 0.031173 1
2.617281 -0.771459 0.022385 1
2.603178 -0.777538 0.024296 1
2.562596 -0.775688 0.030887 1
2.559973 -0.784437 0.030796 1
2.557180 -0.793636 0.030700 1
2.592051 -0.814413 0.023912 1
2.551499 -0.812007 0.030505 1
2.586371 -0.832560 0.023717 1
2.545836 -0.829879 0.030312 1
2.572911 -0.848712 0.024854 1
2.539902 -0.848169 0.030111 1
2.536887 -0.857298 0.030009 1
2.563764 -0.876412 0.024545 1
2.549442 -0.881837 0.026452 1
2.527652 -0.884623 0.029699 1
2.524510 -0.893709 0.029594 1
2.461777 -0.881965 0.040220 1
2.518292 -0.911395 0.029387 1
2.515057 -0.920449 0.029280 1
2.511954 -0.929039 0.029177 1
2.510310 -0.933556 0.029123 1
2.505329 -0.947090 0.028959 1
2.549831 -0.974460 0.020111 1
2.516857 -0.972497 0.025372 1
2.476559 -0.967511 0.031979 1
2.491528 -0.983500 0.028507 1
2.495567 -0.994868 0.027054 1
2.466524 -0.993310 0.031652 1
2.452007 -0.997823 0.033556 1
2.466772 -1.013975 0.030078 1
2.474145 -1.027284 0.027943 1
2.470506 -1.036182 0.027826 1
2.444966 -1.036044 0.031747 1
2.463134 -1.053941 0.027589 1
2.437596 -1.053626 0.031511 1
2.477602 -1.080454 0.023312 1
2.430292 -1.070717 0.031277 1
2.477157 -1.101393 0.021719 1
2.408229 -1.081879 0.033732 1
2.415221 -1.095323 0.031587 1
2.411345 -1.104016 0.031464 1
2.411231 -1.113877 0.030672 1
2.428634 -1.132764 0.026491 1
2.395949 -1.128371 0.031766 1
2.408084 -1.139710 0.028996 1
2.402431 -1.151841 0.028818 1
2.448303 -1.183982 0.019230 1
2.362199 -1.153907 0.034645 1
2.393676 -1.179444 0.027756 1
2.357558 -1.172624 0.033712 1
2.367587 -1.188025 0.030877 1
2.363388 -1.196551 0.030746 1
2.345032 -1.198055 0.033322 1
2.326907 -1.199025 0.035905 1
2.343786 -1.218065 0.031710 1
2.360780 -1.236812 0.027519 1
2.324627 -1.229535 0.033476 1
2.323784 -1.239724 0.032664 1
2.308921 -1.242623 0.034563 1
2.328947 -1.263802 0.029680 1
2.331446 -1.275890 0.028186 1
2.292189 -1.265680 0.034834 1
2.277313 -1.268324 0.036733 1
2.297068 -1.289730 0.031843 1
2.285831 -1.293803 0.033069 1
2.295290 -1.309263 0.030219 1
2.280108 -1.312188 0.032109 1
2.275243 -1.320819 0.031961 1
2.282978 -1.331151 0.029843 1
2.286895 -1.348124 0.027609 1
2.278483 -1.354811 0.028138 1
2.249844 -1.349166 0.032757 1
2.241681 -1.355289 0.033294 1
2.223320 -1.355361 0.035873 1
2.252412 -1.383535 0.028916 1
2.244151 -1.389631 0.029450 1
2.235875 -1.395687 0.029984 1
2.237684 -1.407853 0.028472 1
2.232718 -1.415924 0.028323 1
2.221020 -1.419830 0.029537 1
2.212919 -1.425358 0.030077 1
2.204806 -1.430848 0.030616 1
2.199507 -1.439202 0.030458 1
2.197755 -1.449260 0.029623 1
2.212537 -1.469978 0.025369 1
2.197430 -1.471533 0.027265 1
2.192242 -1.479463 0.027111 1
2.170563 -1.476548 0.030376 1
2.162072 -1.482208 0.030905 1
2.166680 -1.496580 0.028696 1
2.171215 -1.511002 0.026485 1
2.156368 -1.511818 0.028390 1
2.153708 -1.515714 0.028311 1
2.139458 -1.522520 0.029452 1
2.127345 -1.526145 0.030656 1
2.144587 -1.549619 0.025696 1
2.132680 -1.552831 0.026907 1
2.114619 -1.551041 0.029499 1
2.115295 -1.563642 0.027956 1
2.116186 -1.575885 0.026420 1
2.107442 -1.581220 0.026944 1
2.089416 -1.579169 0.029537 1
2.106083 -1.603050 0.024561 1
2.094102 -1.605973 0.025771 1
2.104243 -1.625315 0.022165 1
2.089065 -1.625822 0.024062 1
2.095911 -1.642879 0.021140 1
2.108933 -1.664778 0.016838 1
2.084605 -1.657631 0.020809 1
2.072824 -1.659973 0.022026 1
2.060758 -1.662629 0.023234 1
2.054904 -1.670081 0.023063 1
2.045931 -1.675072 0.023582 1
2.049288 -1.689826 0.021339 1
2.067647 -1.717305 0.015634 1
2.061602 -1.724780 0.015458 1
2.027642 -1.704094 0.022270 1
2.610800 -2.344367 -0.002555 1
2.565283 -2.353937 0.000626 10
2.479426 -2.342442 0.009705 10
2.485178 -2.480420 -0.006157 10
2.348877 -2.476794 0.005980 10
2.336694 -2.488617 0.005634 1
2.327955 -2.497025 0.005387 1
2.310832 -2.513332 0.004902 10
2.284718 -2.537781 0.004163 1
2.267070 -2.591446 -0.000815 1
2.230834 -2.586669 0.002643 1
2.212647 -2.602713 0.002131 1
2.237412 -2.649424 -0.005489 1
2.194807 -2.618233 0.001629 1
2.185617 -2.626145 0.001371 1
2.176400 -2.634024 0.001112 1
2.167156 -2.641872 0.000853 1
2.157884 -2.649687 0.000593 1
2.148585 -2.657470 0.000332 1
2.134585 -2.669083 -0.000060 10
2.120525 -2.680622 -0.000453 1
2.111119 -2.688274 -0.000716 1
2.101685 -2.695894 -0.000980 1
2.082739 -2.711033 -0.001509 1
2.073226 -2.718553 -0.001775 1
2.064165 -2.725666 -0.002027 1
2.054601 -2.733121 -0.002294 1
2.045491 -2.740172 -0.002548 1
2.035396 -2.747930 -0.002829 1
2.016088 -2.762605 -0.003366 10
2.006881 -2.769529 -0.003622 1
1.997164 -2.776783 -0.003892 1
1.987423 -2.784004 -0.004163 1
1.977656 -2.791191 -0.004434 1
1.967864 -2.798343 -0.004706 1
1.958048 -2.805461 -0.004978 1
1.948206 -2.812545 -0.005251 1
1.938340 -2.819595 -0.005524 1
1.928944 -2.826260 -0.005784 1
1.919030 -2.833242 -0.006059 1
1.909092 -2.840189 -0.006334 1
1.904114 -2.843650 -0.006472 1
1.889143 -2.853980 -0.006885 1
1.879133 -2.860823 -0.007162 1
1.869099 -2.867631 -0.007439 1
1.859041 -2.874404 -0.007717 1
1.848959 -2.881142 -0.007995 1
1.838349 -2.888179 -0.008287 1
1.828219 -2.894844 -0.008566 1
1.818575 -2.901144 -0.008832 1
1.808909 -2.907411 -0.009098 1
1.798713 -2.913973 -0.009379 1
1.788494 -2.920500 -0.009660 1
1.778252 -2.926991 -0.009942 1
1.767987 -2.933447 -0.010224 1
1.757700 -2.939866 -0.010506 1
1.747391 -2.946250 -0.010789 1
1.737060 -2.952597 -0.011073 1
1.726706 -2.958909 -0.011357 1
1.716330 -2.965183 -0.011641 1
1.705933 -2.971422 -0.011926 1
1.681303 -2.953846 -0.008135 1
1.657332 -2.935833 -0.004326 1
1.675135 -2.989615 -0.012770 1
1.664652 -2.995710 -0.013056 1
1.659403 -2.998744 -0.013200 1
1.627855 -2.980340 -0.008959 1
1.633078 -3.013775 -0.013920 1
1.599668 -2.978092 -0.007178 1
1.598904 -3.001180 -0.010388 1
1.583136 -2.996346 -0.008905 1
1.572631 -3.002120 -0.009191 1
1.548805 -2.983562 -0.005377 1
1.551560 -3.013558 -0.009766 1
1.550905 -3.036357 -0.012972 1
1.539728 -3.042301 -0.013276 1
1.519274 -3.030717 -0.010645 1
1.509181 -3.035992 -0.010919 1
1.495416 -3.034214 -0.010018 1
1.493320 -3.057533 -0.013263 1
1.478997 -3.055949 -0.012377 1
1.470074 -3.064887 -0.013257 1
1.434970 -3.020520 -0.005285 1
1.430913 -3.040202 -0.007945 1
1.434280 -3.073818 -0.012954 1
1.426987 -3.086177 -0.014426 1
1.416710 -3.091145 -0.014705 1
1.402442 -3.089208 -0.013816 1
1.386502 -3.083640 -0.012336 1
1.379402 -3.082615 -0.011891 1
1.358151 -3.079449 -0.010554 1
1.349023 -3.088025 -0.011438 1
1.328813 -3.071175 -0.008160 1
1.318049 -3.076062 -0.008451 1
1.307806 -3.080669 -0.008728 1
1.306169 -3.107383 -0.012596 1
1.280840 -3.079648 -0.007544 1
1.255721 -3.051775 -0.002486 1
1.259235 -3.089048 -0.008127 1
1.267204 -3.137277 -0.015559 1
1.242771 -3.108979 -0.010482 1
1.227250 -3.102637 -0.008989 1
1.222491 -3.121760 -0.011666 1
1.211550 -3.126275 -0.011960 1
1.206607 -3.145385 -0.014642 1
1.188131 -3.131526 -0.011953 1
1.183067 -3.150595 -0.014637 1
1.155912 -3.114560 -0.008359 1
1.151354 -3.133344 -0.011030 1
1.144693 -3.148661 -0.013120 1
1.152770 -3.200641 -0.021185 1
1.109015 -3.119968 -0.007707 1
1.102835 -3.134975 -0.009784 1
1.102928 -3.151829 -0.012330 1
1.074247 -3.128703 -0.008003 1
1.070095 -3.151264 -0.011299 1
1.056353 -3.147812 -0.010393 1
1.041863 -3.140386 -0.008870 1
1.035383 -3.155256 -0.010954 1
1.023015 -3.155387 -0.010648 1
1.034600 -3.222507 -0.021165 1
1.002173 -3.166725 -0.011842 1
0.992350 -3.174214 -0.012741 1
0.982487 -3.181674 -0.013642 1
0.970649 -3.181415 -0.013321 1
0.958944 -3.185231 -0.013633 1
0.947783 -3.188826 -0.013931 1
0.928160 -3.166024 -0.009997 1
0.923595 -3.188184 -0.013302 1
0.903600 -3.165413 -0.009378 1
0.900682 -3.195258 -0.013913 1
0.886023 -3.187304 -0.012393 1
0.875414 -3.190479 -0.012675 1
0.865365 -3.197571 -0.013580 1
0.853606 -3.196883 -0.013256 1
0.848458 -3.223052 -0.017213 1
0.824099 -3.180652 -0.010220 1
0.823379 -3.201389 -0.013422 1
0.807674 -3.205748 -0.013840 1
0.798541 -3.216438 -0.015356 1
0.786237 -3.215657 -0.015045 1
0.769856 -3.199555 -0.012297 1
0.763695 -3.221601 -0.015643 1
0.747988 -3.205242 -0.012877 1
0.747163 -3.246244 -0.019265 1
0.728023 -3.218443 -0.014679 1
0.716748 -3.221231 -0.014978 1
0.706408 -3.227819 -0.015888 1
0.693802 -3.222714 -0.014948 1
0.682513 -3.225383 -0.015247 1
0.674832 -3.243404 -0.017996 1
0.662011 -3.242284 -0.017699 1
0.643637 -3.214008 -0.013092 1
0.635266 -3.232055 -0.015859 1
0.627342 -3.249961 -0.018615 1
0.615690 -3.248413 -0.018286 1
0.602409 -3.239094 -0.016727 1
0.587821 -3.225969 -0.014565 1
0.581301 -3.251496 -0.018556 1
0.571478 -3.261519 -0.020088 1
0.560625 -3.263650 -0.020374 1
0.549564 -3.237612 -0.016210 1
0.537753 -3.268017 -0.020977 1
0.522657 -3.250720 -0.018192 1
0.511271 -3.252791 -0.018491 1
0.503390 -3.274267 -0.021881 1
0.489854 -3.264597 -0.020327 1
0.478522 -3.270544 -0.021262 1
0.463761 -3.252980 -0.018467 1
0.453662 -3.262643 -0.020005 1
0.446614 -3.287785 -0.024009 1
0.431993 -3.270077 -0.021211 1
0.420504 -3.267840 -0.020876 1
0.407869 -3.261742 -0.019934 1
0.396445 -3.263412 -0.020234 1
0.385576 -3.272944 -0.021791 1
0.371901 -3.258887 -0.019604 1
0.359409 -3.252603 -0.018659 1
0.351744 -3.277527 -0.022678 1
0.338214 -3.263330 -0.020486 1
0.327783 -3.272597 -0.022032 1
0.314380 -3.258303 -0.019837 1
0.301083 -3.243956 -0.017639 1
0.293498 -3.272660 -0.022292 1
0.282164 -3.269943 -0.021952 1
0.277316 -3.278416 -0.023351 1
0.259256 -3.272366 -0.022550 1
0.246986 -3.265657 -0.021597 1
0.236331 -3.274629 -0.023148 1
0.225616 -3.283566 -0.024700 1
0.213753 -3.280666 -0.024373 1
0.213966 3.219986 0.005796 1
0.220358 3.175718 0.012731 1
0.252766 3.271871 -0.001829 10
0.255603 3.192082 0.010554 1
0.276081 3.269428 -0.001233 1
0.276072 3.169979 0.014155 1
0.298243 3.266950 -0.000667 1
0.294601 3.147942 0.017706 1
0.314018 3.209327 0.008353 1
0.332303 3.262843 0.000202 1
0.343647 3.261395 0.000492 1
0.341024 3.162032 0.015812 1
0.354763 3.180133 0.013085 1
0.377080 3.256891 0.001344 1
0.378021 3.184864 0.012446 1
0.380827 3.128511 0.021135 1
0.398950 3.173792 0.014210 1
0.406895 3.152579 0.017490 1
0.425429 3.197719 0.010575 1
0.444928 3.246670 0.003070 1
0.443045 3.166834 0.015331 1
0.467495 3.242948 0.003643 1
0.463628 3.187444 0.012161 1
0.483599 3.200042 0.010206 1
0.501295 3.237069 0.004501 1
0.504728 3.196253 0.010742 1
0.523231 3.233058 0.005057 1
0.534469 3.230943 0.005342 1
0.538037 3.189985 0.011587 1
0.556924 3.226596 0.005911 1
0.557032 3.170113 0.014529 1
0.579348 3.222092 0.006478 1
0.590548 3.219781 0.006762 1
0.601740 3.217431 0.007045 1
0.612923 3.215042 0.007327 1
0.624099 3.212614 0.007610 1
0.635265 3.210147 0.007892 1
0.646423 3.207642 0.008174 1
0.657573 3.205097 0.008455 1
0.668713 3.202513 0.008736 1
0.679844 3.199890 0.009017 1
0.690966 3.197229 0.009297 1
0.702078 3.194528 0.009577 1
0.713182 3.191789 0.009857 1
0.724275 3.189011 0.010136 1
0.721429 3.132588 0.018678 1
0.740897 3.184772 0.010555 1
0.756943 3.180591 0.010958 1
0.767998 3.177661 0.011236 1
0.779041 3.174691 0.011514 1
0.790075 3.171684 0.011791 1
0.801098 3.168638 0.012068 1
0.812110 3.165553 0.012344 1
0.823111 3.162430 0.012620 1
0.834651 3.159109 0.012910 1
0.845630 3.155907 0.013185 1
0.856597 3.152667 0.013460 1
0.867553 3.149389 0.013734 1
0.899806 3.139495 0.014542 10
0.921614 3.132598 0.015087 10
0.938663 3.147894 0.012438 1
0.954234 3.121969 0.015902 1
0.965083 3.118349 0.016173 1
0.988769 3.152121 0.010614 1
0.986741 3.110998 0.016713 1
0.997551 3.107265 0.016983 1
1.002951 3.105385 0.017117 1
1.018593 3.099878 0.017507 1
1.029364 3.096034 0.017775 1
1.040121 3.092153 0.018043 1
1.050865 3.088234 0.018310 1
1.061596 3.084278 0.018577 1
1.115107 3.127558 0.010684 10
1.118775 3.104945 0.013849 1
1.115036 3.063936 0.019905 1
1.125681 3.059755 0.020169 1
1.136311 3.055538 0.020433 1
1.146927 3.051283 0.020696 1
1.172567 3.083604 0.015183 1
1.206031 3.134063 0.006791 1
1.178683 3.038298 0.021482 1
1.204660 3.070350 0.015978 1
1.227766 3.094978 0.011632 1
1.249492 3.115848 0.007866 1
1.241354 3.067648 0.015041 1
1.270680 3.076461 0.012692 10
1.268422 3.042837 0.017553 1
1.273114 2.997355 0.023815 1
1.324921 3.082516 0.009727 1
1.293401 2.988095 0.024315 1
1.303780 2.983292 0.024570 1
1.330546 3.014485 0.019084 1
1.324488 2.973578 0.025080 1
1.367620 3.010011 0.018152 10
1.398985 3.047608 0.011550 1
1.375957 2.948663 0.026344 1
1.418232 3.007231 0.016323 1
1.451209 3.021655 0.012831 10
1.439396 2.974349 0.019913 1
1.438761 2.947964 0.023584 1
1.436121 2.918114 0.027819 1
1.504017 2.994251 0.014124 1
1.534639 2.977814 0.014872 10
1.530227 2.898898 0.025818 1
1.564191 2.934345 0.019277 1
1.562611 2.907960 0.022923 1
1.596392 2.943413 0.016377 1
1.641060 2.949615 0.013166 1
1.637154 2.919765 0.017368 1
1.616088 2.817055 0.032204 1
1.665171 2.875287 0.021732 1
1.687636 2.889406 0.018593 1
1.697669 2.883229 0.018836 1
1.702366 2.847645 0.023246 10
1.712252 2.841417 0.023485 1
1.762058 2.875421 0.016098 1
1.810946 2.928719 0.006233 1
1.766791 2.839335 0.020507 1
1.810639 2.862650 0.014816 1
1.791392 2.823138 0.021100 1
1.821124 2.836612 0.017522 1
1.815363 2.807056 0.021678 1
1.836313 2.816762 0.019115 1
1.846579 2.809731 0.019362 1
1.845010 2.786751 0.022391 1
1.854684 2.780025 0.022623 1
1.873960 2.766472 0.023085 10
1.899729 2.782170 0.019411 1
1.914028 2.781673 0.018527 1
1.937190 2.794269 0.015403 1
1.911750 2.739311 0.023991 1
1.947148 2.767397 0.018093 1
1.956753 2.760315 0.018323 1
1.956830 2.740522 0.020777 1
1.975889 2.746051 0.018780 1
2.028650 2.775678 0.011457 10
2.038283 2.768312 0.011687 1
2.047891 2.760913 0.011916 1
2.013054 2.697696 0.022117 1
2.015059 2.681050 0.024004 1
2.031751 2.683040 0.022562 1
2.036409 2.679355 0.022673 1
2.095539 2.723415 0.013049 1
2.042597 2.638903 0.027108 1
2.071343 2.656405 0.022889 1
2.123342 2.700903 0.013708 1
2.132714 2.693208 0.013930 1
2.142059 2.685479 0.014151 1
2.087666 2.601887 0.028176 1
2.160668 2.669924 0.014592 1
2.115971 2.598773 0.026395 1
2.178707 2.654633 0.015018 1
2.187457 2.647139 0.015224 1
2.160694 2.596977 0.023165 1
2.151873 2.567902 0.027242 1
2.215382 2.622885 0.015882 1
2.197716 2.585648 0.021588 1
2.199208 2.568436 0.023459 1
2.200161 2.551645 0.025317 1
2.224986 2.561286 0.022228 1
2.260597 2.582484 0.016944 1
2.220825 2.522229 0.027026 1
2.234521 2.520410 0.026123 1
2.286496 2.558693 0.017551 1
2.268249 2.521543 0.023242 1
2.299797 2.546284 0.017863 1
2.313914 2.532971 0.018192 1
2.322699 2.524611 0.018397 1
2.331454 2.516220 0.018602 1
2.301068 2.468453 0.026455 1
2.303656 2.454891 0.027738 1
2.334853 2.468719 0.023573 1
2.365751 2.482779 0.019400 1
2.345916 2.446642 0.025053 1
2.382084 2.466525 0.019780 1
2.390636 2.457927 0.019978 1
2.399159 2.449299 0.020176 1
2.407651 2.440642 0.020373 1
2.416113 2.431955 0.020568 1
2.424966 2.422801 0.020773 1
2.393198 2.375786 0.028593 1
2.412949 2.378043 0.026605 1
2.450074 2.396472 0.021353 1
2.458381 2.387637 0.021544 1
2.466245 2.379217 0.021726 1
2.474904 2.369880 0.021925 1
2.445086 2.326209 0.029177 1
2.491303 2.352009 0.022302 1
2.499048 2.343480 0.022480 1
2.479526 2.317796 0.026916 1
2.485640 2.299114 0.028276 1
2.499550 2.295399 0.027374 1
2.530949 2.307743 0.023210 1
2.539345 2.298170 0.023402 1
2.547310 2.289024 0.023584 1
2.555242 2.279850 0.023765 1
2.562748 2.271110 0.023936 1
2.570617 2.261882 0.024115 1
2.578455 2.252627 0.024293 1
2.586260 2.243345 0.024471 1
2.594033 2.234035 0.024647 1
2.601773 2.224699 0.024823 1
2.609480 2.215335 0.024997 1
2.617155 2.205945 0.025171 1
2.624797 2.196528 0.025344 1
2.632406 2.187084 0.025516 1
2.639982 2.177614 0.025687 1
2.619512 2.146033 0.030709 1
2.655035 2.158594 0.026026 1
2.662138 2.149523 0.026185 1
2.669212 2.140429 0.026344 1
2.676625 2.130830 0.026511 1
2.684004 2.121206 0.026676 1
2.687681 2.116384 0.026759 1
2.682808 2.089988 0.029693 1
2.705940 2.092179 0.027167 1
2.713185 2.082453 0.027329 1
2.720395 2.072701 0.027490 1
2.727572 2.062924 0.027649 1
2.735070 2.052632 0.027816 1
2.742176 2.042804 0.027974 1
2.748896 2.033445 0.028123 1
2.755584 2.024063 0.028271 1
2.762590 2.014164 0.028426 1
2.769562 2.004240 0.028581 1
2.763462 1.985267 0.030877 1
2.783402 1.984320 0.028886 1
2.790269 1.974324 0.029037 1
2.797102 1.964303 0.029188 1
2.803900 1.954260 0.029337 1
2.794172 1.933196 0.032160 1
2.800861 1.923162 0.032307 1
2.807515 1.913105 0.032452 1
2.847343 1.924672 0.027252 1
2.837030 1.904196 0.030062 1
2.843618 1.894013 0.030205 1
2.850170 1.883807 0.030348 1
2.853432 1.878695 0.030419 1
2.863167 1.863327 0.030630 1
2.869933 1.852539 0.030777 1
2.876341 1.842241 0.030915 1
2.882712 1.831921 0.031053 1
2.888731 1.822097 0.031183 1
2.895032 1.811734 0.031318 1
2.901297 1.801349 0.031453 1
2.907836 1.790421 0.031593 1
2.964674 1.795549 0.024938 10
2.932075 1.749100 0.032111 10
2.937819 1.739112 0.032234 1
2.964527 1.740303 0.029171 1
2.963630 1.725792 0.030362 1
2.969594 1.715168 0.030488 1
2.961643 1.696852 0.032739 1
2.973332 1.675598 0.032985 1
2.979121 1.664940 0.033107 1
2.984874 1.654263 0.033227 1
2.996266 1.632848 0.033466 1
2.999090 1.627481 0.033525 1
3.007508 1.611354 0.033700 1
3.013073 1.600577 0.033815 1
3.018600 1.589781 0.033930 1
3.029541 1.568132 0.034156 1
3.148435 1.303857 0.036536 1
3.152926 1.292590 0.036622 1
3.157377 1.281308 0.036708 1
3.170711 1.246803 0.036962 10
3.175003 1.235459 0.037043 1
3.248437 1.018990 0.038374 10
3.284507 0.891180 0.038971 1
3.299348 0.832380 0.039201 10
3.303600 0.814691 0.039264 10
3.323343 0.726516 0.039543 1
3.339799 0.643226 0.039751 10
3.341983 0.631295 0.039776 1
3.344020 0.619954 0.039799 1
3.346019 0.608607 0.039821 1
3.348083 0.596655 0.039843 1
3.350105 0.584695 0.039864 1
3.391321 0.578522 0.034653 1
3.354120 0.560157 0.039903 1
3.356014 0.548177 0.039921 1
3.357867 0.536191 0.039937 1
3.456810 0.544982 0.026868 1
3.361273 0.513399 0.039965 1
3.363089 0.500794 0.039979 1
3.364777 0.488783 0.039992 1
3.366422 0.476766 0.040003 1
3.368026 0.464744 0.040013 1
3.369588 0.452716 0.040021 1
3.372585 0.428644 0.040036 10
3.375414 0.404551 0.040046 10
3.379280 0.368981 0.040053 1
3.380508 0.356914 0.040053 1
3.381693 0.344843 0.040052 1
3.384944 0.309211 0.040042 10
3.385963 0.297125 0.040037 1
3.388766 0.260846 0.040015 10
3.391190 0.224540 0.039982 1
3.391913 0.212433 0.039969 1
3.392594 0.200323 0.039955 1
3.393233 0.188211 0.039940 1
3.396807 0.091855 0.039780 10
3.397055 0.080336 0.039756 1
3.397275 0.068209 0.039730 1
3.397635 -0.016084 0.039519 1
3.395498 -0.113695 0.039208 1
3.392790 -0.174278 0.038979 10
3.389904 -0.222100 0.038780 10
3.389068 -0.234200 0.038726 1
3.388191 -0.246297 0.038672 1
3.384259 -0.294652 0.038444 10
3.380927 -0.330277 0.038265 1
3.380326 -0.336311 0.038233 1
3.373020 -0.402617 0.037871 1
3.342738 -0.604700 0.036559 10
3.413550 -0.756099 0.022344 1
3.297332 -0.818203 0.034827 10
3.342995 -0.880160 0.026456 10
3.371912 -0.925670 0.020824 1
3.266671 -0.934288 0.033731 10
3.256418 -0.969830 0.033373 1
3.371177 -1.028971 0.016153 1
3.246143 -1.004101 0.033018 1
3.242580 -1.015694 0.032896 1
3.238976 -1.027275 0.032772 1
3.235515 -1.038265 0.032654 1
3.231833 -1.049821 0.032529 1
3.228110 -1.061363 0.032402 1
3.224348 -1.072893 0.032275 1
3.220544 -1.084410 0.032146 1
3.284377 -1.118547 0.022439 1
3.208894 -1.118879 0.031755 10
3.242394 -1.143307 0.026297 1
3.200927 -1.141789 0.031489 1
3.197087 -1.152652 0.031362 1
3.193006 -1.164073 0.031226 1
3.189092 -1.174910 0.031097 1
3.187017 -1.180608 0.031028 1
3.180734 -1.197681 0.030821 1
3.176283 -1.209612 0.030675 1
3.216510 -1.237755 0.024129 1
3.167684 -1.232293 0.030394 1
3.163325 -1.243611 0.030251 1
3.159147 -1.254348 0.030115 1
3.154934 -1.265072 0.029978 1
3.150460 -1.276345 0.029833 1
3.145948 -1.287602 0.029687 1
3.163441 -1.307773 0.026331 1
3.136805 -1.310069 0.029392 1
3.132175 -1.321278 0.029243 1
3.142139 -1.338577 0.026951 1
3.122797 -1.343648 0.028942 1
3.136527 -1.362007 0.026119 1
3.149928 -1.381034 0.023286 1
3.155961 -1.397017 0.021522 1
3.103819 -1.387634 0.028337 1
3.098918 -1.398728 0.028181 1
3.093979 -1.409804 0.028024 1
3.089250 -1.420311 0.027875 1
3.120073 -1.448300 0.022338 1
3.078929 -1.442929 0.027549 1
3.076132 -1.448985 0.027461 1
3.068961 -1.464375 0.027235 1
3.081722 -1.483791 0.024384 1
3.072906 -1.493105 0.024758 1
3.074786 -1.507518 0.023517 1
3.048059 -1.508152 0.026581 1
3.060548 -1.527743 0.023722 1
3.080049 -1.550941 0.019784 1
3.053280 -1.551370 0.022847 1
3.026820 -1.551091 0.025919 1
3.042575 -1.572638 0.022514 1
3.037308 -1.582973 0.022351 1
3.010295 -1.583505 0.025408 1
3.064530 -1.625280 0.016058 1
3.009627 -1.610526 0.023442 1
3.044874 -1.670848 0.014805 1
3.036539 -1.694494 0.013902 1
2.953075 -1.689739 0.023651 10
3.008974 -1.735846 0.013708 1
3.029760 -1.755429 0.009812 1
2.935405 -1.720847 0.023113 1
2.990826 -1.767524 0.013156 1
2.984601 -1.778220 0.012967 1
2.910626 -1.763254 0.022362 1
2.948676 -1.800036 0.015111 1
2.929549 -1.831615 0.014535 1
2.879212 -1.815119 0.021415 1
2.853758 -1.855700 0.020651 10
2.880622 -1.887247 0.015003 1
2.834054 -1.886284 0.020061 1
2.860586 -1.918109 0.014404 1
2.820740 -1.906558 0.019664 1
2.814030 -1.916660 0.019465 1
2.807285 -1.926738 0.019264 1
2.800505 -1.936793 0.019062 1
2.794032 -1.946323 0.018870 1
2.780645 -1.965817 0.018473 1
2.773382 -1.976276 0.018258 1
2.738272 -2.025712 0.017222 1
2.731147 -2.035526 0.017012 1
2.724347 -2.044825 0.016812 1
2.796949 -2.113276 0.002860 1
2.709929 -2.064329 0.016388 1
2.736547 -2.114680 0.008807 1
2.680687 -2.103032 0.015532 1
2.666609 -2.121272 0.015120 1
2.644135 -2.149881 0.014464 10
2.636577 -2.159365 0.014244 1
2.647152 -2.184162 0.010697 1
2.639474 -2.193655 0.010474 1
2.693713 -2.246261 -0.000156 1
3.488393 -3.247865 -0.009291 1
3.337560 -3.263461 -0.001038 25
3.326112 -3.275357 -0.001365 1
3.291520 -3.310802 -0.002352 25
3.268253 -3.334229 -0.003014 25
3.257144 -3.345300 -0.003330 1
3.244823 -3.357494 -0.003680 1
3.232458 -3.369642 -0.004032 1
3.225963 -3.375988 -0.004216 1
3.209376 -3.392083 -0.004687 1
3.197479 -3.403530 -0.005024 1
3.174168 -3.425731 -0.005685 25
3.162756 -3.436490 -0.006008 1
3.150705 -3.447773 -0.006348 1
3.138615 -3.459015 -0.006690 1
3.126486 -3.470214 -0.007033 1
3.114318 -3.481371 -0.007377 1
3.101499 -3.493040 -0.007738 1
3.089251 -3.504110 -0.008084 1
3.076965 -3.515136 -0.008430 1
3.065257 -3.525572 -0.008760 1
3.052896 -3.536515 -0.009108 1
3.016210 -3.568544 -0.010140 1
2.991151 -3.590042 -0.010843 1
2.978565 -3.600726 -0.011196 1
2.934223 -3.637771 -0.012439 25
2.889433 -3.674272 -0.013692 1
2.863639 -3.694882 -0.014412 1
2.838352 -3.714804 -0.015118 1
2.720578 -3.804010 -0.018394 25
2.707248 -3.813748 -0.018764 1
2.600076 -3.889493 -0.021731 1
2.476964 -3.971168 -0.025126 25
2.435133 -3.997679 -0.026276 1
2.285555 -3.972473 -0.017884 25
2.322964 -4.065800 -0.029352 1
1.870973 -4.221370 -0.032660 25
1.756676 -4.241829 -0.032253 1
1.702565 -4.156939 -0.021238 1
1.659563 -4.175032 -0.022396 1
1.644944 -4.181064 -0.022790 1
1.543512 -4.221292 -0.025516 1
1.468676 -4.249179 -0.027522 25
1.396353 -4.274715 -0.029458 1
1.336386 -4.294852 -0.031060 1
1.320599 -4.299999 -0.031481 1
1.290476 -4.309643 -0.032285 25
1.276144 -4.314150 -0.032667 1
1.245167 -4.323713 -0.033492 1
1.215639 -4.332604 -0.034279 1
1.200473 -4.337085 -0.034682 1
1.186050 -4.341294 -0.035066 1
1.154882 -4.350211 -0.035894 1
1.125175 -4.358487 -0.036684 1
1.109919 -4.362652 -0.037089 1
1.094648 -4.366764 -0.037494 1
1.079364 -4.370823 -0.037900 1
1.064065 -4.374828 -0.038305 1
1.049518 -4.378583 -0.038691 1
1.034959 -4.382291 -0.039077 1
1.019621 -4.386141 -0.039483 1
1.004269 -4.389937 -0.039890 1
0.988904 -4.393681 -0.040297 1
0.958905 -4.400825 -0.041090 25
0.911888 -4.411589 -0.042333 1
0.895676 -4.415179 -0.042762 1
0.865533 -4.421688 -0.043557 25
0.850832 -4.424785 -0.043945 1
0.819850 -4.431144 -0.044762 1
0.804342 -4.434243 -0.045171 1
0.711856 -4.451559 -0.047606 25
0.696278 -4.454281 -0.048016 1
0.679910 -4.457080 -0.048446 1
0.647793 -4.361799 -0.036835 1
0.648706 -4.462245 -0.049266 1
0.622458 -4.394063 -0.040988 1
0.618249 -4.467072 -0.050065 1
0.595502 -4.418334 -0.044186 1
0.587759 -4.471690 -0.050865 1
0.560510 -4.395415 -0.041617 1
0.555672 -4.476322 -0.051706 1
0.524337 -4.480619 -0.052527 25
0.480973 -4.386162 -0.041209 25
0.478065 -4.486558 -0.053738 1
0.462366 -4.488463 -0.054149 1
0.437728 -4.415406 -0.045329 1
0.408811 -4.422659 -0.046583 1
0.408941 -4.494529 -0.055545 1
0.385350 -4.497004 -0.056161 1
0.344153 -4.401335 -0.044784 1
0.322378 -4.502998 -0.057804 1
0.329163 4.325788 -0.010132 25
0.343463 4.324418 -0.009767 1
0.359263 4.322849 -0.009362 1
0.363671 4.222554 0.002680 1
0.419398 4.316342 -0.007826 25
0.449431 4.312774 -0.007059 25
0.455294 4.239985 0.001679 1
0.479437 4.308996 -0.006294 1
0.484055 4.236264 0.002413 1
0.523647 4.303041 -0.005167 1
0.538619 4.300919 -0.004786 1
0.553584 4.298745 -0.004405 1
0.568541 4.296518 -0.004024 1
0.583490 4.294240 -0.003644 1
0.598431 4.291909 -0.003264 1
0.650659 4.283340 -0.001937 25
0.702035 4.274271 -0.000634 1
0.716906 4.271526 -0.000256 1
0.746618 4.265881 0.000496 25
0.776290 4.260029 0.001248 25
0.820720 4.250862 0.002372 1
0.835509 4.247703 0.002745 1
0.865052 4.241230 0.003492 25
0.879806 4.237917 0.003864 1
0.894549 4.234552 0.004236 1
0.923999 4.227667 0.004979 25
0.953400 4.220577 0.005720 25
0.968082 4.216955 0.006090 1
1.025950 4.202147 0.007547 1
1.040567 4.198272 0.007914 1
1.069760 4.190369 0.008648 25
1.143222 4.169508 0.010491 1
1.157724 4.165223 0.010855 1
1.186684 4.156502 0.011580 25
1.200419 4.152289 0.011924 1
1.214861 4.147805 0.012285 1
1.243698 4.138685 0.013006 25
1.258092 4.134050 0.013366 1
1.272471 4.129365 0.013725 1
1.286832 4.124629 0.014084 1
1.315506 4.115008 0.014800 1
1.329817 4.110122 0.015157 1
1.371935 4.095418 0.016206 1
1.386178 4.090336 0.016561 1
1.400403 4.085204 0.016915 1
1.471254 4.058798 0.018676 25
1.521451 4.145979 0.008011 1
1.527597 4.036786 0.020075 25
1.568541 4.097474 0.012514 1
1.667061 3.978333 0.023525 25
1.721455 4.062972 0.012961 1
1.777129 4.037793 0.014333 1
1.802962 4.056509 0.011636 1
1.848787 3.973080 0.019429 1
2.016303 4.031204 0.008304 1
2.072207 4.001591 0.009671 1
2.101390 3.985732 0.010384 1
2.182748 3.940037 0.012366 1
2.224432 3.915760 0.013380 25
2.237363 3.908108 0.013694 1
2.305670 3.866713 0.015350 25
2.345231 3.841977 0.016307 1
3.952730 2.489941 0.029918 25
4.003740 2.405016 0.031014 25
4.068170 2.291603 0.032382 25
4.083984 2.262612 0.032714 25
4.122629 2.189658 0.033522 1
4.710535 -1.165299 0.015546 25
4.637921 -1.429003 0.012979 25
4.537763 -1.416140 0.022616 1
4.551754 -1.438164 0.020482 1
4.507065 -1.440922 0.024440 3
4.490594 -1.453278 0.025445 3
4.479774 -1.467373 0.025860 14
4.465128 -1.480174 0.026668 14
4.456118 -1.494766 0.026884 12
4.462159 -1.514370 0.025526 12
4.460577 -1.531479 0.024953 10
4.470229 -1.552467 0.023197 10
4.457223 -1.565721 0.023801 12
4.453571 -1.582194 0.023420 12
4.440759 -1.594549 0.024032 3
4.513826 -1.638485 0.015564 3
4.556992 -1.671301 0.010254 1
4.508537 -1.799200 0.008667 1
4.462950 -1.910664 0.007198 25
0.627000 6.298038 -0.018639 2
0.691676 6.290462 -0.016987 16
0.713582 6.287743 -0.016429 2
0.974541 6.249341 -0.009787 2
1.276831 6.190788 -0.002130 2
1.298823 6.187971 -0.001743 2
1.323921 6.198682 -0.002462 10
1.342347 6.180161 -0.000814 10
1.362949 6.171289 0.000044 6
1.390008 6.189494 -0.001302 6
1.410145 6.178525 -0.000287 8
1.436913 6.194591 -0.001471 8
1.460903 6.198940 -0.001712 8
1.479046 6.180010 -0.000072 8
1.504547 6.189987 -0.000782 8
1.515325 6.187218 -0.000511 8
1.543485 6.167519 0.001211 10
1.569101 6.177230 0.000504 10
1.592706 6.179142 0.000421 10
1.618469 6.188653 -0.000283 10
1.637862 6.175019 0.000879 8
1.666987 6.195850 -0.000755 8
1.687454 6.185894 0.000097 6
1.708949 6.175559 0.000974 6
1.731013 6.171201 0.001358 8
1.757644 6.182047 0.000505 8
1.775694 6.164157 0.001971 6
1.799494 6.165279 0.001891 6
1.830530 6.193302 -0.000372 12
1.846109 6.167585 0.001707 12
1.873627 6.179839 0.000706 6
1.902477 6.195771 -0.000599 6
1.920337 6.177450 0.000860 6
1.939968 6.164761 0.001858 6
1.961428 6.157685 0.002393 8
1.988604 6.167539 0.001552 8
2.013939 6.171616 0.001171 8
2.032168 6.154857 0.002470 8
2.064771 6.179464 0.000413 12
2.077512 6.181362 0.000224 12
2.108033 6.168503 0.001153 10
2.133567 6.172096 0.000776 10
2.155735 6.166218 0.001159 10
2.179958 6.165873 0.001086 10
2.210475 6.182252 -0.000349 6
2.231291 6.172367 0.000337 6
2.256324 6.173593 0.000115 6
2.278528 6.167274 0.000498 6
2.301440 6.162735 0.000729 4
2.321433 6.150684 0.001563 4
2.352402 6.166377 0.000137 10
2.378317 6.168969 -0.000232 10
2.399789 6.160363 0.000300 6
2.424250 6.159067 0.000231 6
2.448732 6.157674 0.000162 5
2.473235 6.156186 0.000094 5
2.499307 6.158278 -0.000273 3
2.522302 6.152921 -0.000042 3
2.550012 6.158474 -0.000706 3
2.574620 6.156589 -0.000773 3
2.592849 6.139990 0.000352 5
2.619860 6.143406 -0.000162 5
2.649365 6.152173 -0.001120 3
2.658444 6.143767 -0.000559 3
2.703707 6.158418 -0.002141 3
2.726803 6.152303 -0.001909 3
2.754681 6.159266 -0.002740 3
2.759243 6.113202 0.000745 3
2.791351 6.129029 -0.000825 1
2.818885 6.129286 -0.001159 1
2.839353 6.117345 -0.000488 3
2.873675 6.134062 -0.002173 3
2.889771 6.112974 -0.000766 1
2.907519 6.095428 0.000344 1
2.957135 6.142135 -0.003831 1
2.974934 6.124378 -0.002720 1
3.070051 6.259652 -0.014207 1
3.058133 6.185213 -0.008433 1
3.054875 6.128662 -0.004131 1
3.100070 6.163738 -0.007405 1
3.190532 6.229068 -0.013615 16
3.186698 6.118227 -0.005286 16
3.206925 6.107374 -0.004792 1
3.490266 6.062094 -0.006308 16
3.532407 6.037052 -0.005285 16
3.538941 6.000534 -0.002771 1
3.522395 5.926585 0.002885 1
3.543015 5.913989 0.003385 1
3.576206 5.921664 0.002170 1
3.576753 5.879067 0.005212 1
3.592955 5.859528 0.006277 1
3.645403 5.897220 0.002499 1
3.643352 5.848898 0.005981 1
3.673424 5.850973 0.005195 3
3.697037 5.842869 0.005260 3
3.720640 5.834672 0.005326 5
3.743134 5.824715 0.005532 5
3.788784 5.849570 0.002766 7
3.789004 5.827878 0.004284 7
3.822845 5.814858 0.004427 10
3.845314 5.804514 0.004632 10
3.875645 5.805610 0.003849 12
3.903644 5.800942 0.003514 12
3.931791 5.798485 0.003014 10
3.951961 5.784461 0.003498 10
3.977831 5.778518 0.003279 12
4.009485 5.780597 0.002359 12
4.036559 5.776036 0.002000 12
4.061316 5.768120 0.001922 12
4.085066 5.760828 0.001819 11
4.115703 5.760762 0.001041 11
4.149940 5.765372 -0.000155 8
4.177127 5.760200 -0.000512 8
4.215079 5.769290 -0.002123 6
4.229145 5.746309 -0.000948 6
4.258776 5.743965 -0.001584 4
4.282387 5.733557 -0.001524 4
4.309629 5.727797 -0.001882 3
4.353994 5.743995 -0.004180 3
4.364381 5.718265 -0.002759 1
4.406461 5.730968 -0.004777 1
4.441253 5.734061 -0.005962 1
4.471089 5.751164 -0.007937 1
4.502067 5.726482 -0.007201 1
4.643947 5.739736 -0.012219 1
4.574966 5.537521 0.002906 16
4.627819 5.560783 -0.000201 1
4.653973 5.554252 -0.000589 1
4.667112 5.532491 0.000391 1
4.676848 5.503016 0.001961 1
4.692997 5.481054 0.002844 3
4.733514 5.490674 0.000951 3
4.770176 5.495606 -0.000530 3
4.800868 5.489718 -0.001147 3
4.822622 5.475631 -0.000971 4
4.838982 5.455542 -0.000252 4
4.882145 5.464899 -0.002251 4
4.902894 5.451370 -0.002099 4
4.934440 5.449489 -0.003032 3
4.942514 5.420280 -0.001505 3
4.977727 5.420208 -0.002688 1
5.036356 5.463722 -0.007337 1
5.061219 5.429304 -0.006087 1
5.118728 5.451704 -0.009425 1
7.520029 -1.329337 0.018124 2
7.464222 -1.346667 0.021171 2
7.479073 -1.376572 0.019733 6
7.457012 -1.386124 0.020881 6
7.455477 -1.426662 0.020212 5
7.440616 -1.451039 0.020636 5
9.443172 -10.632857 -0.030109 2
9.357349 -10.607616 -0.028281 4
9.308328 -10.626991 -0.028656 4
9.267194 -10.655167 -0.029479 6
9.218101 -10.674143 -0.029854 6
9.181319 -10.703384 -0.030777 6
9.124335 -10.712886 -0.030703 6
9.080371 -10.737324 -0.031380 2
9.047976 -10.775310 -0.032735 2
8.988146 -10.934841 -0.039096 4
8.944842 -10.921370 -0.038190 4
8.886230 -10.966889 -0.039719 17
8.635784 -11.204650 -0.048383 2
8.463556 -11.383809 -0.055291 6
8.337464 -11.380470 -0.054456 4
8.278733 -11.383987 -0.054308 4
8.243628 -11.419530 -0.055727 4
8.152520 -11.546667 -0.061031 9
7.949395 -11.683763 -0.066429 21
7.965982 -11.795880 -0.071634 21
7.914646 -11.808976 -0.072052 14
7.888958 -11.860003 -0.074315 14
6.926228 -10.994819 -0.031377 14
6.886711 -11.017498 -0.032353 14
6.869434 -11.075577 -0.035045 10
6.557399 -12.005577 -0.079258 6
6.506799 -12.113002 -0.084511 2
6.483430 -12.171064 -0.087361 2
6.438293 -12.183930 -0.088037 8
6.459132 -12.331265 -0.095214 8
6.393401 -12.316216 -0.094569 19
6.397790 -12.424395 -0.099870 19
6.379490 -12.490147 -0.103133 17
5.496489 -10.881574 -0.025614 17
5.472030 -10.927670 -0.027937 2
5.383453 -10.847048 -0.024151 2
5.298702 -11.060533 -0.034962 15
5.688424 -11.961825 -0.078664 2
5.425007 -11.518628 -0.057400 2
5.070361 -10.923863 -0.028881 9
5.008837 -10.941595 -0.029994 19
5.009925 -11.044545 -0.035156 19
4.956627 -11.025003 -0.034388 19
4.874379 -10.946041 -0.030757 19
4.818381 -10.918649 -0.029619 42
4.819709 -11.029616 -0.035215 42
4.737653 -10.947897 -0.031467 40
4.684197 -10.929834 -0.030812 40
4.658673 -10.975724 -0.033267 44
4.617946 -10.986669 -0.034033 44
4.579901 -10.998491 -0.034838 20
4.538359 -11.007303 -0.035516 20
4.481463 -10.979065 -0.034399 20
4.430148 -10.963496 -0.033904 20
4.388052 -10.969904 -0.034485 26
4.344469 -10.972446 -0.034884 26
4.306114 -10.987805 -0.035915 36
4.253739 -10.967731 -0.035227 36
4.194722 -10.924358 -0.033392 42
4.134862 -10.883312 -0.031690 42
4.118062 -10.947571 -0.035119 42
4.052825 -10.891171 -0.032678 42
4.037064 -10.959027 -0.036300 24
3.985704 -10.880114 -0.032603 24
3.916553 -10.880122 -0.033134 18
3.891506 -10.929659 -0.035900 18
3.830294 -10.879525 -0.033790 12
3.813614 -10.946993 -0.037434 12
3.801178 -11.027658 -0.041736 30
3.754742 -11.018483 -0.041655 30
3.701220 -10.982016 -0.040220 38
3.657048 -10.984435 -0.040740 38
3.611001 -10.974676 -0.040647 38
3.559386 -10.947670 -0.039711 38
3.511163 -10.923608 -0.038905 64
3.478489 -10.959476 -0.041099 64
3.435905 -10.958499 -0.041464 32
3.393371 -10.957358 -0.041827 32
3.347416 -10.938302 -0.041289 38
3.302542 -10.935506 -0.041604 38
3.260814 -10.935767 -0.042054 34
3.220281 -10.939695 -0.042693 34
3.175383 -10.921849 -0.042236 16
3.150774 -10.979116 -0.045534 16
3.187517 -11.241011 -0.058987 20
3.140198 -11.231771 -0.059034 20
3.101490 -11.244845 -0.060173 50
3.039283 -11.106699 -0.053565 50
2.995569 -11.160295 -0.056929 18
2.919279 -11.034098 -0.051136 18
2.863609 -10.980817 -0.048979 28
2.830351 -11.010317 -0.050963 28
2.773694 -10.950810 -0.048502 40
2.723877 -10.907967 -0.046849 40
2.685695 -10.909444 -0.047421 28
2.654851 -10.948080 -0.049890 28
2.628079 -11.004088 -0.053241 60
2.571222 -10.937754 -0.050453 60
2.520483 -10.886246 -0.048383 33
2.488861 -10.922459 -0.050761 33
2.455662 -10.952745 -0.052849 45
2.409691 -10.936630 -0.052634 45
2.366656 -10.923797 -0.052560 52
2.314943 -10.880007 -0.050955 52
2.288370 -10.940989 -0.054628 46
2.238272 -10.884301 -0.052318 46
2.212826 -10.942738 -0.055851 48
2.169738 -10.927181 -0.055667 48
2.126389 -10.909501 -0.055380 41
2.091000 -10.930832 -0.057083 41
2.047419 -10.900709 -0.056141 43
2.031802 -10.922045 -0.057542 43
1.978989 -10.956480 -0.060254 45
1.932344 -10.918407 -0.058951 45
1.889556 -10.899797 -0.058646 43
1.855317 -10.928221 -0.060757 43
1.819189 -10.946698 -0.062367 45
1.767613 -10.886620 -0.059982 45
1.726943 -10.877223 -0.060171 26
1.693443 -10.911045 -0.062591 26
1.656594 -10.912904 -0.063338 35
1.617846 -10.914934 -0.064135 35
1.589769 -10.973798 -0.067842 22
1.549950 -10.969664 -0.068336 22
1.504418 -10.925856 -0.066781 20
1.469671 -10.969144 -0.069781 20
1.431071 -10.972489 -0.070682 18
1.391398 -10.967782 -0.071172 18
1.349782 -10.932978 -0.070061 16
1.314120 -10.957695 -0.072095 16
1.269913 -10.914908 -0.070612 16
1.227701 -10.885827 -0.069846 16
1.189201 -10.886339 -0.070633 13
1.153068 -10.890471 -0.071577 13
1.116921 -10.894484 -0.072522 11
1.098756 -10.904489 -0.073436 11
1.040780 -10.902537 -0.074510 11
1.001496 -10.894441 -0.074876 11
0.963049 -10.894156 -0.075659 11
0.925358 -10.901689 -0.076862 11
0.886914 -10.901134 -0.077644 11
0.579655 7.291047 0.153135 14
0.602268 7.272907 0.154510 14
0.629280 7.300424 0.153709 74
0.655170 7.289822 0.154769 74
0.679513 7.277276 0.155888 50
0.733494 7.289515 0.156373 1
0.756231 7.274868 0.157550 1
0.780782 7.276019 0.157978 1
0.810826 7.300571 0.157353 1
0.841799 7.341015 0.155955 1
1.324964 10.840174 -0.007523 1
1.362181 10.845367 -0.007071 15
1.399977 10.840280 -0.006108 15
1.438314 10.839017 -0.005330 15
1.477232 10.841573 -0.004737 15
1.512964 10.822249 -0.003131 15
1.551578 10.822561 -0.002447 15
1.590521 10.824709 -0.001854 15
1.629498 10.826716 -0.001261 15
1.668510 10.828584 -0.000667 15
1.705264 10.816514 0.000566 15
1.743292 10.812199 0.001432 15
1.763823 10.818851 0.001456 15
1.825385 10.826443 0.002125 15
1.860517 10.816144 0.003215 15
1.895241 10.803766 0.004394 15
1.936203 10.814491 0.004538 15
1.973513 10.805437 0.005583 15
2.012312 10.804099 0.006267 15
2.053071 10.812420 0.006505 16
2.089166 10.797087 0.007816 16
2.127997 10.795333 0.008500 15
2.170935 10.812995 0.008295 15
2.207366 10.799221 0.009514 15
2.252186 10.824380 0.008958 15
2.286465 10.800575 0.010619 15
2.326719 10.803960 0.011040 15
2.366582 10.805246 0.011549 15
2.406033 10.804440 0.012148 15
2.447336 10.811269 0.012395 15
2.483616 10.796562 0.013608 15
2.523588 10.797269 0.014119 15
2.564550 10.801709 0.014456 15
2.604123 10.800179 0.015056 16
2.641264 10.788818 0.016090 16
2.683333 10.796682 0.016255 16
2.702147 10.791849 0.016729 16
2.758701 10.785374 0.017754 15
2.799901 10.788921 0.018095 15
2.839589 10.786528 0.018695 15
2.878233 10.780135 0.019468 15
2.916868 10.773604 0.020239 15
2.960392 10.784238 0.020240 15
2.999619 10.779333 0.020926 13
3.045749 10.791010 0.020892 13
3.082781 10.778129 0.021920 16
3.126047 10.786182 0.022012 16
3.169407 10.794065 0.022106 15
3.201166 10.763561 0.023894 15
3.250387 10.796535 0.022843 15
3.289795 10.790576 0.023532 15
3.329807 10.786378 0.024136 16
3.356997 10.742080 0.026502 16
3.408629 10.773737 0.025511 18
3.455528 10.789979 0.025195 18
3.491225 10.771896 0.026384 16
3.533216 10.772634 0.026738 16
3.572034 10.763751 0.027508 14
3.582851 10.673486 0.031844 14
3.656846 10.766323 0.028135 16
3.679569 10.771107 0.028107 16
3.735973 10.757605 0.029214 16
3.779540 10.761153 0.029407 16
3.826594 10.773918 0.029190 16
3.866885 10.767730 0.029796 16
3.899521 10.740788 0.031302 18
3.941858 10.739938 0.031660 18
3.986365 10.744527 0.031775 16
4.034534 10.758265 0.031485 16
4.077789 10.758755 0.031766 14
4.118183 10.751631 0.032373 14
4.161520 10.751788 0.032655 14
4.204166 10.749918 0.033019 14
4.250593 10.757146 0.032981 16
4.294858 10.758630 0.033186 16
4.338424 10.758087 0.033473 14
4.375130 10.740766 0.034480 14
4.423382 10.750954 0.034288 16
4.474881 10.768295 0.033779 16
4.515538 10.759690 0.034388 16
4.555397 10.749099 0.035076 16
4.599236 10.747516 0.035367 14
4.643122 10.745758 0.035659 14
4.691927 10.754780 0.035477 14
4.718822 10.764685 0.035151 14
4.779168 10.748530 0.036144 16
4.823259 10.746054 0.036439 16
4.868870 10.751520 0.036376 16
4.917290 10.757743 0.036282 16
4.958837 10.753785 0.036612 16
5.008442 10.756926 0.036645 16
5.051085 10.749927 0.037100 16
5.094611 10.744560 0.037478 16
5.139037 10.740817 0.037778 14
5.187908 10.745862 0.037693 14
5.225334 10.727422 0.038612 14
5.274321 10.732085 0.038528 14
5.319802 10.729401 0.038754 14
5.377056 10.754196 0.037785 14
5.420849 10.752057 0.037969 17
5.462887 10.741678 0.038504 17
5.505845 10.732909 0.038963 14
5.561852 10.744209 0.038555 14
5.603014 10.727002 0.039364 14
5.657374 10.743348 0.038717 14
5.696717 10.731311 0.039283 14
5.745513 10.727633 0.039487 14
5.800132 10.734252 0.039240 14
5.841942 10.761449 0.038088 14
5.898361 10.743914 0.038872 14
5.940585 10.727169 0.039605 14
5.994706 10.735654 0.039245 17
6.043999 10.735217 0.039261 17
6.094485 10.740837 0.039010 17
6.141791 10.731973 0.039371 17
6.189266 10.727448 0.039539 19
6.240851 10.729606 0.039411 19
6.287591 10.727492 0.039461 21
6.345322 10.734945 0.039088 21
6.347537 10.654319 0.042494 36
6.418519 10.604106 0.044511 4
6.519624 10.685029 0.040948 4
6.571891 10.607737 0.044085 19
6.619523 10.601351 0.044252 14
6.740323 10.709319 0.039488 14
6.797076 10.715717 0.039087 14
6.857219 10.726881 0.038471 14
6.908778 10.724369 0.038435 14
6.950514 10.706601 0.039048 14
7.007678 10.711992 0.038655 14
7.052919 10.739543 0.037383 14
7.122735 10.726539 0.037687 14
7.175786 10.724506 0.037586 14
7.224401 10.715631 0.037772 14
7.277176 10.708558 0.037860 14
7.336106 10.714029 0.037408 17
7.400889 10.727410 0.036604 17
7.455499 10.725761 0.036440 14
7.499780 10.709189 0.036912 14
7.548686 10.698944 0.037102 12
7.611626 10.707952 0.036448 12
7.663467 10.705058 0.036314 14
7.726670 10.713490 0.035665 14
7.773443 10.699072 0.035998 14
7.839251 10.710151 0.035215 14
7.898058 10.711290 0.034852 12
7.952164 10.705759 0.034770 12
8.013570 10.709540 0.034272 14
8.065400 10.700310 0.034331 14
8.129443 10.706697 0.033698 12
8.186289 10.703283 0.033483 12
8.238889 10.697901 0.033362 12
8.298343 10.697117 0.033011 12
8.365331 10.705455 0.032251 14
8.403853 10.715761 0.031598 14
8.494147 10.710267 0.031194 12
8.551529 10.705166 0.030988 12
8.612159 10.707512 0.030466 12
8.667166 10.698770 0.030399 12
8.734938 10.705192 0.029653 14
8.795196 10.702046 0.029317 14
8.858105 10.701676 0.028848 12
8.921119 10.700996 0.028380 12
8.986824 10.703055 0.027779 14
9.050787 10.706378 0.027137 14
9.117477 10.712425 0.026363 14
9.177571 10.702830 0.026215 14
9.250864 10.707995 0.025400 12
9.302109 10.695028 0.025433 12
9.371915 10.702796 0.024535 12
11.217519 8.704030 0.067824 9
11.285920 8.693669 0.067051 2
11.336365 7.086783 0.109800 2
11.374612 7.055277 0.109868 2
11.510544 7.085975 0.106550 40
11.536871 7.046523 0.107022 40
11.631622 7.048137 0.105181 2
11.263321 1.463692 0.197689 9
11.319905 1.430516 0.196342 2
11.273184 1.384478 0.197737 2
11.294890 1.266409 0.197570 2
11.303179 1.227126 0.197472 2
11.303171 1.188965 0.197581 2
11.311192 1.149627 0.197476 2
11.359890 0.316308 0.196762 2
11.372879 0.276659 0.196365 2
11.373697 0.238684 0.196287 2
11.354433 0.198379 0.196731 2
11.333944 0.038679 0.196935 9
10.243836 -2.221150 0.207459 9
10.097342 -2.226729 0.211094 1
10.038740 -2.250914 0.212239 1
9.874813 -2.250830 0.216381 19
9.761662 -2.261309 0.219084 19
9.430294 -2.290058 0.226991 1
9.328605 -2.302022 0.229358 1
9.200203 -2.304880 0.232525 1
9.068021 -2.305891 0.235809 1
8.298448 -2.358932 0.254005 9
8.220934 -2.368365 0.255747 1
8.143041 -2.378722 0.257477 1
8.011897 -2.371334 0.260809 1
7.907732 -2.371047 0.263354 1
7.591757 -2.392645 0.270630 9
7.480822 -2.385510 0.273437 2
7.441951 -2.402137 0.274064 2
7.357415 -2.403730 0.276064 1
7.367941 -2.435912 0.275205 1
7.321410 -2.449309 0.276062 1
7.161162 -2.424237 0.280364 1
7.057972 -2.417363 0.282951 3
7.032440 -2.436426 0.283184 3
6.946430 -2.434349 0.285260 1
6.937856 -2.458868 0.284974 1
6.891952 -2.468756 0.285856 1
6.743365 -2.468454 0.289348 1
6.701466 -2.466665 0.290364 1
6.658413 -2.491035 0.290863 1
6.622995 -2.505902 0.291375 1
6.569304 -2.512298 0.292484 1
6.534321 -2.525496 0.293012 1
6.488140 -2.534155 0.293890 1
6.461047 -2.548657 0.294199 1
6.400455 -2.549805 0.295562 1
6.428624 -2.587218 0.294098 1
6.987304 -2.895967 0.274532 1
6.977119 -2.920625 0.274204 1
7.059046 -2.983858 0.270920 1
7.107473 -3.033682 0.268690 1
6.998054 -3.015130 0.271566 1
6.987453 -3.039824 0.271227 1
6.974932 -3.063684 0.270946 3
6.995277 -3.101964 0.269592 3
7.028234 -3.146095 0.267815 1
7.028123 -3.175794 0.267106 1
7.064893 -3.220743 0.265216 1
7.411338 -3.410299 0.253043 1
6.968953 -3.238371 0.266879 1
6.458292 -3.018608 0.283369 1
6.385486 -3.023398 0.284826 1
6.382089 -3.049373 0.284252 1
6.365959 -3.069338 0.284097 6
6.349768 -3.089226 0.283940 6
7.029459 -3.446965 0.260357 1
7.010169 -3.468248 0.260222 1
7.025077 -3.537294 0.258123 9
7.034709 -3.571615 0.257025 1
6.957980 -3.563885 0.258833 1
6.930072 -3.579019 0.259014 2
6.913320 -3.602860 0.258728 2
6.914855 -3.634636 0.257847 2
6.926874 -3.672039 0.256594 2
6.921049 -3.700220 0.255951 2
6.901002 -3.720876 0.255798 2
6.910823 -3.757541 0.254594 2
6.885333 -3.775251 0.254622 2
6.772120 -3.744850 0.257745 1
6.700117 -3.734733 0.259471 1
6.645729 -3.733893 0.260581 1
6.631964 -3.758525 0.260161 1
6.597228 -3.771298 0.260487 1
6.586481 -3.782139 0.260390 1
6.537336 -3.795601 0.260970 1
6.488748 -3.799799 0.261798 1
6.468506 -3.818680 0.261644 1
6.448213 -3.837465 0.261489 1
6.431306 -3.858196 0.261208 3
6.404041 -3.872700 0.261303 3
10.619545 -7.068303 0.085739 2
10.491622 -7.036897 0.089008 2
10.513441 -7.104928 0.086462 2
10.544849 -7.179913 0.083517 2
10.514344 -7.210592 0.083067 2
10.346599 -7.123039 0.088805 2
10.274187 -7.150702 0.089165 2
12.559318 -11.076349 0.504144 3
12.448581 -11.056895 0.503010 3
12.434251 -11.118326 0.501955 10
18.414402 -17.985723 0.480347 25
10.956098 -10.883471 0.486028 25
10.912341 -10.916312 0.484951 9
8.995305 -10.960276 0.457338 2
8.936688 -10.928289 0.456990 2
8.904609 -11.006365 0.455258 11
8.900118 -11.079627 0.454008 11
6.942325 -11.039807 0.424095 10
6.899452 -11.057508 0.423081 10
6.867161 -11.091992 0.421947 10
