# .PCD v.7 - Point Cloud Data file format
VERSION .7
FIELDS x y z intensity
SIZE 4 4 4 1
TYPE F F F U
COUNT 1 1 1 1
WIDTH 1530
HEIGHT 1
VIEWPOINT 0 0 0 1 0 0 0
POINTS 1530
DATA ascii
-5.842230 11.784738 1.053295 6
-5.793801 11.768075 1.053099 4
-16.918550 43.967697 1.330832 29
-16.717672 43.872143 1.329803 29
-16.602676 44.025639 1.330921 29
-5.430247 11.676283 1.051902 6
-5.311498 11.697353 1.051930 6
-5.247599 11.616700 1.051190 6
-5.206977 11.616635 1.051140 6
-5.174484 11.643222 1.051318 2
-15.447909 46.232670 1.347615 29
-5.007793 11.625544 1.050969 16
-4.974685 11.643289 1.051075 10
-4.943142 11.681235 1.051347 8
-4.924911 11.761000 1.051979 14
-4.899663 11.809371 1.052345 10
-4.807707 11.767756 1.051892 32
-4.763009 11.750536 1.051696 26
-4.737367 11.806745 1.052126 20
-4.699591 11.816374 1.052158 16
-4.661782 11.825871 1.052190 24
-4.604857 11.757548 1.051560 28
-4.572897 11.790041 1.051788 24
-4.531473 11.783532 1.051684 28
-4.486472 11.761290 1.051446 40
-4.457855 11.809016 1.051803 18
-4.448704 11.926014 1.052751 8
-4.393035 11.856570 1.052114 18
-4.328418 11.743903 1.051110 16
-4.276471 11.685649 1.050569 14
-4.177981 11.588024 1.049648 31
-4.153058 11.654469 1.050163 20
-4.107375 11.610717 1.049748 11
-4.095673 11.755836 1.050924 8
-10.649370 46.453465 1.343564 29
-10.328839 46.452553 1.343165 59
-10.167247 46.465744 1.343075 29
-9.120902 42.316742 1.307762 59
-9.000686 42.483452 1.308982 59
-8.644102 42.120998 1.305574 59
-8.518978 42.214039 1.306184 29
-8.321749 42.855953 1.311209 59
-8.188481 42.964947 1.311940 59
-7.962233 42.436195 1.307326 29
-7.632353 42.183865 1.304853 59
-7.492243 42.231167 1.305070 29
-7.482395 43.277470 1.313641 29
-7.476902 44.415455 1.322969 29
-7.101507 43.788795 1.317370 29
-6.965044 43.917725 1.318261 29
-6.720801 43.100281 1.311257 29
-6.682941 44.183060 1.320093 29
-6.561599 44.405319 1.321768 29
-6.406349 44.385307 1.321414 29
-6.117713 44.566601 1.322549 29
-5.959716 44.517120 1.321950 59
-5.825001 44.726051 1.323499 29
-6.055136 49.250908 1.360899 29
-5.423834 45.297287 1.327695 59
-5.563295 49.362320 1.361212 29
-5.395833 49.394554 1.361272 29
-5.224688 49.374329 1.360897 29
-4.994102 48.551693 1.353867 29
-4.727242 46.624615 1.337732 29
-4.718050 49.409859 1.360569 29
-4.501122 48.368286 1.351760 29
-4.052340 45.855709 1.330600 29
-3.893716 45.998947 1.331581 29
-2.348936 11.802640 1.049174 3
-2.310466 11.723916 1.048481 1
-2.270546 11.641112 1.047753 5
-2.232014 11.662172 1.047879 7
-2.194758 11.663057 1.047840 3
-2.781367 55.705986 1.409851 29
-2.010508 49.220352 1.355706 29
-1.859260 49.088276 1.354438 29
-1.515366 49.054329 1.353740 59
-1.354161 48.536549 1.349295 29
-1.179791 49.574108 1.357593 59
-1.002746 49.518936 1.356925 59
-0.833070 49.527298 1.356786 59
-0.660441 49.643024 1.357524 29
-0.321309 55.243450 1.403051 29
-0.157664 54.473862 1.396538 29
0.003306 53.775745 1.390615 29
0.148173 53.249760 1.386123 29
0.404023 50.748226 1.365290 29
0.574239 50.671764 1.364455 29
-1.545073 8.626483 1.022137 0
-1.531448 8.377337 1.020076 0
-1.482219 8.338242 1.019696 1
-1.459217 8.316665 1.019490 2
-1.432785 8.326841 1.019542 2
-1.408680 8.305014 1.019333 1
-1.382834 8.307033 1.019318 1
-1.354996 8.332878 1.019496 0
-1.328683 8.338692 1.019512 0
-1.304815 8.316524 1.019301 0
-1.276089 8.362104 1.019639 0
-0.954004 11.437337 1.044473 1
-1.218678 8.416852 1.020018 0
-1.247031 7.889034 1.015723 0
-1.231454 7.806959 1.015031 0
-1.196558 7.690431 1.014032 4
-1.172240 7.695671 1.014046 2
-1.148837 7.692880 1.013994 3
-1.121488 7.721762 1.014198 1
-1.103384 7.695289 1.013958 2
-1.078421 7.704155 1.014001 1
-1.054888 7.692952 1.013880 1
-1.030397 7.697676 1.013889 1
-1.006988 7.694391 1.013833 1
-0.984744 7.683107 1.013714 1
-0.958433 7.699443 1.013815 2
-0.935018 7.695906 1.013758 1
-0.914020 7.684567 1.013639 2
-0.891920 7.672976 1.013517 1
-0.867432 7.669016 1.013455 1
-0.845138 7.673442 1.013464 1
-0.819798 7.681339 1.013498 1
-0.794800 7.672972 1.013398 1
-0.771479 7.668864 1.013336 1
-0.746743 7.672546 1.013336 1
-0.724300 7.676569 1.013342 1
-0.700542 7.668065 1.013243 1
-0.675728 7.671484 1.013241 1
-0.651644 7.670886 1.013206 1
-0.626382 7.669969 1.013168 1
-0.603441 7.669430 1.013136 1
-0.580943 7.660737 1.013037 1
-0.555195 7.667625 1.013062 1
-0.533567 7.654859 1.012931 1
-0.510311 7.649839 1.012861 0
-0.484778 7.660618 1.012918 1
-0.459460 7.659069 1.012875 0
-0.438516 7.654322 1.012810 0
-0.415004 7.644805 1.012703 0
-0.389028 7.651052 1.012723 0
-0.366718 7.641638 1.012618 0
-0.341834 7.647978 1.012640 0
-0.317442 7.642003 1.012561 0
-0.292286 7.643989 1.012547 0
-0.267273 7.650053 1.012566 0
-0.242874 7.643804 1.012485 0
-0.211553 7.668726 1.012651 0
-0.187363 7.670624 1.012637 0
-0.170289 7.641221 1.012375 0
-0.146030 7.638792 1.012325 0
-0.120794 7.644307 1.012340 0
-0.098576 7.629818 1.012194 0
-0.076567 7.623610 1.012116 0
-0.046733 7.635881 1.012180 0
-0.000381 7.622364 1.012013 0
0.025052 7.623147 1.011988 0
0.049355 7.620006 1.011932 0
0.066639 7.598011 1.011731 0
0.092066 7.598536 1.011704 0
0.118721 7.602781 1.011706 0
0.140579 7.591673 1.011589 0
0.166063 7.591916 1.011559 0
0.190335 7.588258 1.011500 0
0.217311 7.600466 1.011567 0
0.236580 7.581441 1.011387 0
0.264432 7.580539 1.011346 0
0.283547 7.561378 1.011165 0
0.306472 7.553507 1.011073 0
0.344043 7.591274 1.011337 0
0.369914 7.594913 1.011335 0
0.392762 7.582563 1.011206 0
0.420040 7.589776 1.011232 0
0.432103 7.551365 1.010902 0
0.470207 7.584260 1.011125 0
0.489022 7.564492 1.010940 0
0.520672 7.582541 1.011049 0
0.542248 7.570103 1.010921 0
0.583293 7.601513 1.011128 0
0.593315 7.559042 1.010768 0
0.638162 7.605936 1.011098 0
0.651565 7.579149 1.010862 0
0.674550 7.569993 1.010758 0
0.697503 7.560758 1.010655 0
0.726475 7.566253 1.010664 0
0.754760 7.563284 1.010605 0
0.773860 7.551031 1.010481 0
0.798297 7.545135 1.010403 0
0.825855 7.546512 1.010381 0
0.887460 7.563608 1.010446 0
0.924362 7.582444 1.010555 0
0.949439 7.580162 1.010506 0
0.948002 7.515164 1.009974 0
0.972403 7.508621 1.009891 0
1.003409 7.516557 1.009918 0
1.035030 7.528513 1.009978 0
1.056756 7.509706 1.009797 0
1.114428 7.579943 1.010303 0
1.111291 7.510733 1.009739 0
1.164941 7.565001 1.010118 0
1.179812 7.540174 1.009897 0
1.202658 7.529175 1.009778 0
1.234236 7.536070 1.009796 0
1.267667 7.546412 1.009840 0
1.333234 7.621085 1.010373 0
1.300820 7.498688 1.009408 0
1.379448 7.597934 1.010126 0
1.417027 7.614746 1.010218 0
1.429158 7.581575 1.009931 0
1.465037 7.594561 1.009994 0
1.485067 7.579623 1.009847 0
1.480065 7.514484 1.009319 0
1.514087 7.523627 1.009352 0
1.529312 7.497361 1.009118 0
1.557714 7.495697 1.009070 0
1.621759 7.556503 1.009490 0
1.638876 7.533446 1.009280 0
1.678615 7.497690 1.008939 0
1.725703 7.530890 1.009153 0
1.747676 7.513861 1.008987 0
1.778380 7.514762 1.008957 0
1.801134 7.501673 1.008821 0
1.836792 7.513365 1.008874 0
1.849419 7.482822 1.008608 0
1.884278 7.490144 1.008625 0
1.915138 7.490428 1.008590 0
1.943776 7.491940 1.008567 0
1.968714 7.476903 1.008414 0
1.993418 7.466565 1.008299 0
2.022290 7.462947 1.008234 0
2.082802 7.510198 1.008547 0
2.107657 7.499439 1.008429 0
2.141013 7.502125 1.008410 0
2.161452 7.489209 1.008279 0
2.189554 7.480801 1.008176 0
2.226216 7.490546 1.008211 0
2.255414 7.485960 1.008138 0
2.282442 7.477902 1.008039 0
2.309466 7.469735 1.007939 0
2.338696 7.464790 1.007862 0
2.399080 7.506265 1.008129 0
2.437449 7.514227 1.008147 0
2.469186 7.512074 1.008091 0
2.503219 7.513081 1.008057 0
2.518018 7.488364 1.007836 0
2.622795 7.590979 1.008550 1
2.657272 7.591331 1.008511 1
2.673376 7.565366 1.008278 1
2.691670 7.542630 1.008070 1
2.733129 7.552382 1.008099 1
2.765361 7.548942 1.008031 1
2.811722 7.564780 1.008104 1
2.799233 7.499650 1.007585 1
2.859879 7.534530 1.007797 1
5.823584 11.481810 1.036557 2
5.801529 11.368562 1.035655 2
5.860558 11.379281 1.035671 2
5.945111 11.415667 1.035866 2
38.839806 54.410534 1.348373 41
6.044533 11.395102 1.035576 2
6.062838 11.269597 1.034524 5
6.072169 11.211486 1.034036 7
6.065600 11.130069 1.033376 7
6.172541 11.188151 1.033722 2
6.408473 11.409189 1.035247 2
6.444792 11.379915 1.034962 2
6.539824 11.426423 1.035228 2
6.583813 11.405969 1.035006 2
6.627763 11.385335 1.034783 2
6.681906 11.376820 1.034647 2
6.725819 11.355790 1.034421 2
6.873095 11.383290 1.034467 2
6.935331 11.382784 1.034386 2
6.997671 11.381968 1.034304 2
7.057491 11.377824 1.034196 2
7.122657 11.379411 1.034130 2
7.198515 11.392677 1.034146 5
7.245387 11.372619 1.033924 5
7.318019 11.377593 1.033876 5
7.376486 11.373539 1.033772 5
7.436839 11.367572 1.033649 9
7.502653 11.367221 1.033566 6
7.568580 11.366537 1.033479 6
7.632805 11.367192 1.033406 9
7.663520 11.327790 1.033046 9
7.666720 11.259118 1.032478 15
7.686033 11.208002 1.032035 6
7.886051 11.343595 1.032903 6
7.923097 11.313777 1.032613 6
8.028478 11.351211 1.032792 9
8.106378 11.359333 1.032763 9
8.170474 11.352736 1.032631 9
8.243066 11.354368 1.032555 9
8.315791 11.355620 1.032477 6
8.374520 11.342336 1.032296 9
8.447460 11.342873 1.032211 9
8.514837 11.337403 1.032084 9
8.584402 11.340873 1.032028 9
8.655587 11.331013 1.031860 9
8.725384 11.333780 1.031797 9
8.814062 11.339785 1.031738 9
8.879067 11.329724 1.031576 9
8.953944 11.332244 1.031505 9
9.034781 11.339864 1.031469 9
9.116481 11.340463 1.031374 9
9.184796 11.331666 1.031219 10
9.253185 11.322517 1.031060 10
9.340498 11.333892 1.031047 10
9.423896 11.337431 1.030974 10
9.518171 11.346551 1.030933 10
9.584044 11.333116 1.030743 10
9.648160 11.321372 1.030568 6
9.667963 11.262868 1.030064 6
9.710985 11.232169 1.029760 6
9.899251 11.320692 1.030256 10
9.980619 11.318486 1.030138 10
10.049978 11.305413 1.029946 7
10.122435 11.294577 1.029769 7
10.337971 11.330971 1.029804 10
10.444613 11.346945 1.029805 10
10.526881 11.341876 1.029663 7
10.605653 11.340746 1.029557 11
10.702344 11.342728 1.029455 11
10.791199 11.341324 1.029335 7
10.888233 11.342204 1.029224 7
10.977390 11.339772 1.029095 11
11.066687 11.336844 1.028962 11
11.178105 11.350757 1.028940 11
11.261434 11.341823 1.028765 11
11.357491 11.342253 1.028651 12
11.453263 11.349265 1.028592 12
11.551461 11.346269 1.028447 12
11.658934 11.357132 1.028405 12
11.719181 11.324026 1.028060 8
11.806372 11.314615 1.027876 8
11.970662 11.362052 1.028064 12
12.066090 11.360985 1.027939 12
12.174956 11.361568 1.027811 12
12.275739 11.359267 1.027669 13
12.389642 11.365765 1.027583 13
12.494014 11.364594 1.027446 8
12.484532 11.281585 1.026776 13
12.713050 11.367373 1.027201 13
12.807766 11.364917 1.027065 13
12.939041 11.379657 1.027026 13
13.055966 11.379604 1.026882 13
13.179354 11.390909 1.026824 13
13.293393 11.387170 1.026654 14
13.410604 11.392581 1.026555 14
13.525008 11.387463 1.026374 14
13.647752 11.391021 1.026253 14
13.697309 11.345304 1.025817 9
13.857088 11.371800 1.025839 10
14.015426 11.400094 1.025878 15
14.159150 11.413774 1.025815 10
14.282966 11.413615 1.025662 15
14.406975 11.412719 1.025503 15
14.548081 11.421766 1.025405 15
14.672505 11.419330 1.025233 15
14.820887 11.430943 1.025147 10
14.955935 11.433243 1.025001 16
15.092791 11.439791 1.024887 11
15.233523 11.439545 1.024714 16
15.372657 11.441432 1.024559 11
15.566935 11.475330 1.024600 11
15.634387 11.432463 1.024166 11
15.670732 11.370985 1.023617 17
15.984799 11.475929 1.024094 12
16.156258 11.491463 1.024012 18
16.296831 11.487982 1.023812 18
16.479296 11.507427 1.023748 18
16.648191 11.517848 1.023627 12
16.820869 11.529174 1.023509 19
16.985022 11.538838 1.023388 13
17.153128 11.540857 1.023199 13
17.337202 11.554755 1.023088 13
17.431883 11.523164 1.022714 6
12.682712 8.877472 1.006813 3
12.590355 8.247618 1.001759 3
12.586916 8.182602 1.001230 3
12.652947 7.594070 0.996321 3
12.654007 7.533216 0.995821 3
12.741436 7.513924 0.995555 3
12.779897 7.466434 0.995119 3
12.828088 7.426119 0.994729 3
12.860369 7.381799 0.994326 3
13.108359 7.361265 0.993855 3
15.517717 7.469041 0.991795 4
20.714325 9.037181 0.998310 8
20.655468 8.927519 0.997482 8
20.652807 8.838038 0.996752 8
20.676281 8.757762 0.996064 8
20.707045 8.679988 0.995389 8
20.724836 8.602236 0.994729 8
20.756382 8.520303 0.994019 8
20.754622 8.436212 0.993331 16
20.799501 8.363044 0.992676 8
20.915255 8.224484 0.991398 8
21.001457 8.163679 0.990794 8
29.439810 9.739291 0.993409 17
29.370346 9.478819 0.991357 50
29.382866 9.370748 0.990455 49
29.401770 9.252761 0.989464 33
29.417383 9.145700 0.988567 33
29.439314 9.028662 0.987580 49
29.445023 8.925082 0.986724 33
29.477776 8.810894 0.985747 49
29.495768 8.704698 0.984854 49
29.521271 8.582926 0.983824 49
29.537186 8.482140 0.982977 83
29.543673 8.367592 0.982030 12
29.567869 8.245680 0.981000 11
29.598310 8.148370 0.980165 99
29.636047 8.035270 0.979191 49
29.676075 7.928368 0.978265 49
33.112419 8.425788 0.978147 22
37.546021 9.228971 0.979319 29
140.668518 26.088530 0.991629 65
140.771027 25.593245 0.987441 11
97.319855 17.034733 0.970321 10
97.402908 16.692465 0.967412 43
97.664360 16.021704 0.961590 13
97.688522 15.669788 0.958674 105
125.655235 18.449127 0.947304 94
69.959946 9.553643 0.942380 50
90.408974 10.047485 0.921447 63
32.332237 3.388211 0.937776 139
32.387493 3.283669 0.936851 123
32.381672 2.922303 0.933893 40
-28.323488 1.150778 0.993529 19
-28.626751 1.245715 0.994678 10
-29.361631 1.348421 0.996419 10
-30.320080 1.459971 0.998505 11
-137.242340 4.176644 1.151425 63
-136.970474 4.641803 1.154909 63
-128.302673 6.615258 1.160507 63
-142.755920 7.702022 1.187081 63
-72.483635 4.598770 1.075767 47
-72.006042 5.322441 1.081120 46
-56.479603 4.553184 1.055840 29
-56.283264 4.730824 1.057057 29
-56.133446 5.290915 1.061469 29
-56.022427 5.472052 1.062819 29
-56.062244 5.665553 1.064455 29
-56.122135 5.851726 1.066056 29
-56.068104 6.046851 1.067590 29
-56.272179 6.429501 1.070979 29
-105.843140 11.797186 1.175575 63
-105.802750 12.141177 1.178348 63
-105.918236 12.520774 1.181603 63
-93.317215 11.429886 1.157259 63
-92.970352 11.712203 1.159151 63
-92.847054 12.035556 1.161653 63
-92.756340 12.346280 1.164091 63
-92.799454 12.673855 1.166831 63
-74.613678 10.850850 1.129657 52
-74.223312 11.556767 1.134971 51
-74.138512 11.801830 1.136878 51
-74.116142 12.056132 1.138936 51
-74.197594 12.313927 1.141151 51
-74.254341 12.594455 1.143521 52
-63.567806 11.099798 1.118204 33
-62.638416 11.154029 1.117513 32
-61.526211 11.181606 1.116380 30
-60.203560 11.154210 1.114540 29
-18.693373 4.033719 1.005413 4
-18.316887 4.024259 1.004875 3
-17.913162 4.007006 1.004240 3
-17.678656 4.019524 1.004056 3
-17.217127 3.983078 1.003194 3
-16.986927 3.992427 1.002989 3
-16.795523 4.010769 1.002906 3
-16.566076 4.014527 1.002656 3
-16.387125 4.030028 1.002565 3
-16.192602 4.040963 1.002417 3
-16.088068 4.070174 1.002529 3
-16.061609 4.116007 1.002872 3
-15.878917 4.126521 1.002735 3
-15.715819 4.140262 1.002649 3
-15.685259 4.183725 1.002968 3
-15.662349 4.228854 1.003310 3
-15.652104 4.271884 1.003651 3
-15.671657 4.327224 1.004129 3
-15.663807 4.376024 1.004519 3
-15.639664 4.423306 1.004878 3
-15.623719 4.470047 1.005242 3
-15.608230 4.514337 1.005586 3
-15.564266 4.556221 1.005876 3
-15.559465 4.605741 1.006276 3
-15.550622 4.654230 1.006663 3
-15.546113 4.701385 1.007044 3
-15.529220 4.747717 1.007404 3
-15.538460 4.803915 1.007876 3
-15.521216 4.850193 1.008235 3
-15.528240 4.898312 1.008638 3
-15.532330 4.955989 1.009116 3
-15.542817 5.005411 1.009534 3
-15.550998 5.062054 1.010009 3
-15.609426 5.131536 1.010651 3
-15.621650 5.187377 1.011124 3
-15.671844 5.255236 1.011742 3
-15.755311 5.336717 1.012512 3
-15.789594 5.400643 1.013078 3
-15.779475 5.445294 1.013432 3
-15.793472 5.505844 1.013946 3
-15.797412 5.557961 1.014378 3
-26.835518 9.303055 1.058586 9
-26.741928 9.368055 1.059005 9
-26.678469 9.442859 1.059541 9
-26.671492 9.536933 1.060304 9
-26.633953 9.620496 1.060944 9
-26.586340 9.695602 1.061502 9
-26.665030 9.820552 1.062623 9
-26.649101 9.912170 1.063355 9
-26.656950 10.007710 1.064148 9
-26.687519 10.121722 1.065121 9
-20.103704 7.834673 1.038316 10
-19.593817 7.712725 1.036693 4
-19.414646 7.710795 1.036458 4
-19.310246 7.736746 1.036543 4
-19.122778 7.732909 1.036283 4
-18.790556 7.670296 1.035363 4
-18.713984 7.711087 1.035604 4
-18.493940 7.689909 1.035162 4
-18.322374 7.686974 1.034928 4
-18.099281 7.661531 1.034447 4
-18.027908 7.697793 1.034657 4
-17.847073 7.684251 1.034325 4
-17.638411 7.664099 1.033905 4
-17.483885 7.659212 1.033676 4
-17.295376 7.641732 1.033302 3
-17.165804 7.648690 1.033201 3
-17.040031 7.656442 1.033111 3
-16.913067 7.656549 1.032956 3
-16.860523 7.695570 1.033212 3
-16.792145 7.730278 1.033414 3
-16.746710 7.772004 1.033700 3
-16.672127 7.800053 1.033839 3
-16.602345 7.826802 1.033973 3
-16.549442 7.864231 1.034216 3
-16.516924 7.914220 1.034586 3
-16.507088 7.971912 1.035047 3
-16.469452 8.013142 1.035340 3
-16.423281 8.053213 1.035612 3
-16.427242 8.117798 1.036147 3
-16.425018 8.176411 1.036625 3
-16.374811 8.214313 1.036874 3
-16.349504 8.264584 1.037256 3
-16.359655 8.332938 1.037829 3
-16.341049 8.386815 1.038248 3
-16.336445 8.448019 1.038745 3
-16.301924 8.496950 1.039104 3
-16.379541 8.598601 1.040033 3
-16.405861 8.677073 1.040708 3
-16.375414 8.725558 1.041069 3
-16.382139 8.797382 1.041666 3
-16.467148 8.909004 1.042686 3
-16.494770 8.983452 1.043330 3
-22.926296 12.808124 1.082563 16
-22.930122 12.906927 1.083378 16
-22.834246 12.953869 1.083646 24
-16.327684 8.445946 1.132803 1
-16.385298 8.543083 1.134229 1
-16.384930 8.603946 1.134890 1
-16.392225 8.675564 1.135719 1
-16.441578 8.828836 1.137711 1
-16.505404 8.929162 1.139216 3
-16.598837 9.049938 1.141135 3
-24.233366 13.451724 1.237788 12
-23.961964 13.395858 1.235464 23
-23.784220 13.401278 1.234407 11
-22.906599 12.994285 1.224394 7
-23.567616 13.473506 1.233852 7
-24.322701 14.124079 1.245807 28
-24.678308 14.434459 1.251484 12
-69.444710 41.245480 1.829415 62
-24.525610 14.557693 1.251914 4
-68.758125 41.486813 1.827859 61
-24.836519 14.962999 1.258385 4
-77.262627 47.709877 1.950349 55
-24.617702 15.157255 1.259223 4
-24.574873 15.240522 1.259900 4
-75.310555 47.569580 1.936770 56
-74.669098 47.519192 1.932272 57
-74.114326 47.502159 1.928688 57
-24.388821 15.553591 1.262311 4
-20.167517 12.903153 1.206443 2
-72.295761 47.362038 1.916017 59
-71.577065 47.237659 1.910236 60
-71.039589 47.228973 1.906881 60
-70.489769 47.208157 1.903319 61
-69.904541 47.159344 1.899227 61
-61.076180 41.462704 1.780660 55
-68.750824 47.060246 1.891146 62
-68.198723 47.021484 1.887387 63
-67.755836 47.055138 1.885123 63
-67.277573 47.060898 1.882331 63
-58.956039 41.475124 1.768105 53
-58.931454 41.757622 1.771229 53
-65.722450 46.954514 1.871839 62
-64.754326 46.926228 1.865775 61
-64.268364 46.905487 1.862663 61
-63.921417 46.984428 1.861538 60
-63.350452 46.893845 1.857122 60
-62.851170 46.852779 1.853710 59
-62.311497 46.777367 1.849666 59
-61.960602 46.842033 1.848373 59
-61.473705 46.799904 1.845038 58
-60.984676 46.752487 1.841633 58
-59.357059 45.796124 1.820919 56
-59.423527 46.171726 1.825732 56
-59.698151 46.714706 1.833730 57
-59.278641 46.708961 1.831241 56
-11.333138 8.519965 1.103107 1
-11.159412 8.486676 1.101715 4
-11.077534 8.473067 1.101085 9
-10.992780 8.456429 1.100403 7
-10.920549 8.449529 1.099909 6
-10.845413 8.439646 1.099364 7
-10.777867 8.432951 1.098902 7
-10.709166 8.427418 1.098447 7
-10.639314 8.423011 1.098000 7
-10.578263 8.420410 1.097625 10
-10.506968 8.411114 1.097113 7
-10.447888 8.411942 1.096792 6
-10.388907 8.412447 1.096468 7
-10.321049 8.404671 1.095996 6
-10.265281 8.407168 1.095716 5
-10.209598 8.409368 1.095433 3
-10.089625 8.404787 1.094714 1
-10.084322 8.499263 1.095832 2
-10.187930 8.704939 1.098901 18
-10.190027 8.761072 1.099596 19
-10.190301 8.813121 1.100233 21
-9.335334 8.201650 1.088128 1
-9.315813 8.232963 1.088407 1
-9.308795 8.274209 1.088876 0
-9.118464 8.389142 1.089284 0
-9.001654 8.368253 1.088412 13
-8.940265 8.360388 1.087994 12
-8.899339 8.366016 1.087851 12
-8.850260 8.362687 1.087554 12
-8.815027 8.379095 1.087576 9
-8.782352 8.392962 1.087580 4
-8.793743 8.512644 1.089134 0
-8.830387 8.603560 1.090459 0
-8.798332 8.675242 1.091194 1
-8.776757 8.705060 1.091458 1
-8.764325 8.742653 1.091868 0
-8.751625 8.785634 1.092345 0
-8.766238 8.857692 1.093325 1
-8.746549 8.890503 1.093640 1
-8.770839 8.975006 1.094828 1
-8.748091 9.004835 1.095091 1
-8.727793 9.037664 1.095406 1
-8.727857 9.095010 1.096132 1
-8.777541 9.209765 1.097831 1
-8.748804 9.233513 1.097991 1
-8.722516 9.260256 1.098202 1
-8.726377 9.324178 1.099033 1
-8.724853 9.381999 1.099761 1
-8.765494 9.492995 1.101372 1
-8.775582 9.566801 1.102362 1
-8.800915 9.720034 1.104440 3
-33.840908 41.968666 1.636897 20
-33.866482 42.313179 1.641428 41
-34.023758 42.817913 1.648644 44
-33.796154 43.111771 1.651334 45
-33.629711 43.197052 1.651644 22
-33.291027 43.050735 1.648170 43
-33.067604 43.365162 1.651174 21
-33.312866 44.013302 1.660673 23
-32.899731 44.075191 1.659560 23
-32.739849 44.169903 1.660049 23
-31.235418 42.348900 1.629579 32
-31.090857 42.450836 1.630239 49
-30.975681 42.594917 1.631582 33
-30.832539 42.699234 1.632286 16
-30.279060 42.206390 1.623382 29
-30.358601 42.617260 1.629082 15
-30.163227 42.658131 1.628737 46
-29.855331 42.499134 1.625289 29
-29.973677 43.007088 1.632437 31
-29.862139 43.157986 1.633911 16
-31.413076 45.824276 1.675579 49
-31.196491 45.817844 1.674541 24
-30.987207 45.872681 1.674340 24
-30.758245 45.844158 1.672966 24
-30.513369 45.806110 1.671402 23
-30.356031 45.887028 1.671780 23
-30.112623 45.865444 1.670446 23
-29.919243 45.887257 1.669900 22
-29.692957 45.872295 1.668734 22
-29.502657 45.914272 1.668473 22
-29.274986 45.893959 1.667238 21
-8.658194 12.092825 1.134634 1
-8.529347 12.048755 1.133511 6
-8.498730 12.080815 1.133806 11
-8.431703 12.055237 1.133189 12
-8.332908 11.978546 1.131765 7
-8.238572 11.899091 1.130324 11
-8.149443 12.009574 1.131423 12
-26.807880 45.961227 1.657917 18
-26.608450 45.970524 1.657239 18
-26.422626 46.003574 1.656934 18
-26.214367 45.975311 1.655727 17
-25.828131 46.027561 1.654893 17
-25.632107 46.017960 1.653994 17
-25.428553 46.011650 1.653112 16
-25.243694 46.039997 1.652770 16
-25.026093 46.003536 1.651438 16
-24.845261 46.037422 1.651193 16
-24.651880 46.045589 1.650558 15
-24.421204 45.977810 1.648767 15
-24.240952 46.009338 1.648504 30
-24.044901 46.007843 1.647740 29
-23.863987 46.016090 1.647169 29
-23.688477 46.034443 1.646756 14
-23.505217 46.055889 1.646359 14
-23.293661 46.036957 1.645318 14
-22.908903 46.014317 1.643592 14
-22.691313 45.956409 1.642015 14
-22.509281 45.973930 1.641587 14
-22.277906 45.881416 1.639500 14
-22.151834 45.999638 1.640641 14
-21.968855 46.033134 1.640436 14
-21.790548 46.055115 1.640096 14
-21.607536 46.065399 1.639585 14
-21.423048 46.049526 1.638718 28
-21.243605 46.065708 1.638306 28
-6.498906 11.703024 1.121057 2
-6.441363 11.670857 1.120420 1
-6.348873 11.765353 1.121385 2
-19.797121 46.107330 1.633905 27
-19.617647 46.113449 1.633387 27
-19.439793 46.122597 1.632919 27
-19.252069 46.104908 1.632056 27
-19.080286 46.127602 1.631800 41
-18.905743 46.142151 1.631427 27
-18.717386 46.118542 1.630492 27
-18.524284 46.104568 1.629676 13
-16.753061 41.697205 1.563762 12
-18.026653 46.182301 1.629148 13
-17.868727 46.212692 1.629065 13
-17.503078 46.204342 1.627806 13
-17.330986 46.216667 1.627441 13
-17.152872 46.183987 1.626444 27
-16.075729 43.495026 1.586261 12
-15.178880 41.263954 1.552914 23
-15.478619 42.642864 1.572752 12
-16.462925 46.212708 1.624744 13
-5.392607 11.956192 1.120945 2
-15.330459 44.233734 1.594177 25
-15.191097 44.318394 1.594934 25
-15.618284 46.282787 1.623217 13
-15.422421 46.203693 1.621562 13
-15.087470 46.231277 1.620984 26
-14.932758 46.288361 1.621333 26
-13.704942 42.520954 1.565912 36
-13.980186 44.038940 1.587628 12
-13.464754 44.531261 1.593013 12
-13.511609 45.978020 1.613145 26
-12.894000 44.166649 1.586442 12
-12.694054 44.039562 1.584155 24
-12.512349 43.981510 1.582876 37
-4.534162 11.786263 1.116224 25
-4.490973 11.771820 1.115913 29
-4.453319 11.780589 1.115939 34
-4.410313 11.765827 1.115626 23
-4.355217 11.696253 1.114523 27
-4.318686 11.708455 1.114601 18
-4.288022 11.747896 1.115074 8
-4.259608 11.798990 1.115714 5
-4.159261 11.876984 1.116556 3
-10.974643 46.431873 1.613071 26
-4.077080 11.860665 1.116136 3
-10.201385 44.109112 1.578960 24
-10.484245 46.449097 1.612171 13
-9.874815 44.027920 1.577081 24
-9.236613 42.171913 1.549801 23
-9.097580 42.224651 1.550226 34
-8.959453 42.240208 1.550139 34
-8.855383 42.505070 1.553603 23
-8.793175 43.038155 1.560899 11
-8.485368 42.095139 1.547091 22
-8.232409 42.316547 1.549644 23
-8.102176 42.433147 1.551000 23
-7.929980 42.264332 1.548288 34
-7.913806 43.191849 1.561201 35
-7.628587 42.209911 1.546916 22
-7.651410 43.474205 1.564615 35
-7.326088 43.169807 1.559721 23
-7.168502 43.165375 1.559353 47
-6.999326 43.000629 1.556725 34
-6.855414 43.041801 1.557027 34
-6.712173 43.090431 1.557437 23
-6.695317 44.227146 1.573297 24
-6.537220 44.248188 1.573299 24
-6.260244 44.533829 1.576792 24
-6.110494 44.492111 1.575941 24
-5.949549 44.491100 1.575644 24
-6.212633 49.210033 1.642132 13
-5.563289 45.291294 1.586176 24
-5.726695 49.390839 1.643835 13
-5.551031 49.428253 1.644067 13
-5.181288 46.599854 1.603860 12
-5.052314 47.061764 1.610119 13
-4.865309 46.661152 1.604209 12
-4.712385 46.646584 1.603764 12
-4.716749 49.390755 1.642205 13
-4.197501 45.937893 1.593043 25
-4.049537 45.969036 1.593258 25
-3.895080 46.035999 1.593967 25
-3.728225 45.998829 1.593202 25
-3.578959 46.224567 1.596150 25
-3.428416 46.213699 1.595784 38
-3.171214 43.044411 1.551012 23
-3.083694 45.391403 1.583782 24
-3.145276 55.323715 1.723060 27
-2.964312 55.803398 1.729541 28
-2.776693 56.058521 1.732869 29
-2.525266 50.085915 1.648834 14
-2.179519 49.436741 1.639297 13
-1.842052 49.117130 1.634403 27
-1.681360 49.304455 1.636836 13
-1.343687 49.329334 1.636790 27
-1.164863 49.426731 1.637951 27
-1.002576 49.507805 1.638906 27
-0.808877 50.551785 1.653325 28
-0.636615 50.519482 1.652687 28
-0.455868 50.774418 1.656068 28
-0.280062 50.828831 1.656649 28
-0.126162 50.283089 1.648845 14
0.167402 53.261631 1.690287 21
0.409273 50.848885 1.656250 14
-1.559347 8.843022 1.069637 0
-1.550660 8.498119 1.064798 0
-1.509057 8.319429 1.062258 3
-1.483732 8.313820 1.062158 3
-1.458715 8.304132 1.062001 6
-1.433185 8.302339 1.061956 2
-1.384382 8.302672 1.061922 2
-1.356891 8.324535 1.062207 1
-1.330353 8.318292 1.062100 2
-1.303349 8.331985 1.062273 2
-1.270689 8.405314 1.063276 0
-1.231747 8.538222 1.065109 0
-1.241194 7.715047 1.053602 1
-1.194712 7.705892 1.053447 2
-1.151892 7.676703 1.053016 7
-1.126221 7.673552 1.052958 9
-1.102385 7.674568 1.052961 7
-1.079699 7.675653 1.052965 7
-1.057532 7.672698 1.052914 6
-1.031943 7.677269 1.052967 6
-1.008604 7.673990 1.052911 4
-0.985276 7.670629 1.052855 4
-0.960203 7.670967 1.052851 3
-0.938052 7.667615 1.052796 3
-0.915366 7.660057 1.052683 3
-0.890822 7.664268 1.052734 3
-0.865590 7.672338 1.052839 2
-0.841609 7.672421 1.052834 2
-0.820127 7.664734 1.052721 2
-0.794772 7.672536 1.052824 2
-0.773316 7.664698 1.052710 2
-0.747429 7.668174 1.052754 2
-0.722667 7.671767 1.052799 2
-0.700833 7.659547 1.052626 2
-0.677966 7.659264 1.052619 2
-0.653529 7.654521 1.052550 2
-0.626356 7.669531 1.052756 2
-0.604211 7.665072 1.052693 1
-0.580564 7.656142 1.052567 1
-0.555653 7.659114 1.052608 1
-0.532706 7.658332 1.052597 1
-0.509436 7.653310 1.052527 1
-0.483590 7.659922 1.052619 1
-0.463233 7.647185 1.052444 1
-0.437950 7.645555 1.052423 1
-0.414981 7.644367 1.052408 1
-0.387844 7.650338 1.052494 1
-0.363670 7.648700 1.052474 1
-0.339489 7.646974 1.052453 1
-0.315300 7.645160 1.052432 1
-0.294024 7.631620 1.052249 1
-0.267077 7.645441 1.052445 1
-0.240855 7.651109 1.052530 1
-0.212547 7.664414 1.052720 1
-0.168070 7.644330 1.052455 7
-0.147064 7.634493 1.052325 8
-0.122907 7.636155 1.052356 2
-0.098638 7.633554 1.052328 2
-0.072047 7.630206 1.052291 2
-0.048878 7.623576 1.052209 2
-0.024611 7.620704 1.052179 2
0.003035 7.633429 1.052366 1
0.030787 7.646043 1.052551 2
0.051691 7.627219 1.052302 1
0.073691 7.620512 1.052220 0
0.096825 7.613374 1.052133 0
0.123533 7.617601 1.052205 0
0.159998 7.652213 1.052700 0
0.169826 7.607074 1.052085 0
0.196629 7.611009 1.052154 0
0.224545 7.610276 1.052161 0
0.251442 7.613992 1.052228 0
0.275956 7.614202 1.052246 0
0.308246 7.637034 1.052580 0
0.330131 7.625296 1.052434 0
0.357235 7.628591 1.052498 0
0.388383 7.643092 1.052718 0
0.406029 7.615607 1.052355 0
0.427989 7.607726 1.052263 0
0.448335 7.591835 1.052061 0
0.471367 7.583389 1.051964 0
0.530457 7.668123 1.053168 0
0.556821 7.671057 1.053230 0
0.544277 7.564608 1.051767 0
0.607714 7.664524 1.053184 0
0.681898 7.648425 1.053031 0
0.686117 7.595074 1.052309 1
0.744274 7.606060 1.052514 1
0.765453 7.588711 1.052299 1
0.790012 7.582850 1.052245 1
0.818069 7.588439 1.052349 1
0.848911 7.597107 1.052499 1
0.873537 7.590938 1.052441 0
0.907696 7.606696 1.052692 0
0.932381 7.600311 1.052632 0
0.961904 7.604809 1.052726 0
0.981720 7.587265 1.052511 0
1.006374 7.580604 1.052450 0
1.042598 7.599342 1.052745 0
1.055650 7.567007 1.052325 0
1.105990 7.618684 1.053082 0
1.135879 7.622439 1.053170 0
1.159013 7.611593 1.053052 0
1.190695 7.618728 1.053188 0
1.212086 7.604084 1.053019 0
1.239794 7.599615 1.052995 0
1.259338 7.581218 1.052774 0
1.305921 7.620739 1.053366 0
1.324863 7.597981 1.053087 0
1.341383 7.576325 1.052819 0
1.374529 7.582027 1.052942 0
1.397521 7.570348 1.052818 0
1.422303 7.562145 1.052744 0
1.449606 7.561544 1.052775 0
1.478089 7.560235 1.052799 0
1.499138 7.544657 1.052622 0
1.573455 7.632022 1.053899 0
1.589792 7.609694 1.053626 0
1.615186 7.596016 1.053483 0
1.653553 7.611585 1.053750 0
1.665077 7.577906 1.053320 0
1.695815 7.579203 1.053386 0
1.732464 7.590837 1.053600 0
1.744513 7.561136 1.053225 0
1.770237 7.555771 1.053196 0
1.804221 7.559408 1.053301 0
1.835987 7.564209 1.053417 0
1.921288 7.658078 1.054804 0
1.944542 7.644490 1.054664 0
1.959605 7.617051 1.054328 0
1.974523 7.589587 1.053991 0
2.005778 7.589527 1.054045 0
2.047441 7.606435 1.054343 0
2.060094 7.575337 1.053956 0
2.099826 7.588518 1.054201 0
2.115366 7.564821 1.053918 0
2.208222 7.662499 1.055373 0
2.225098 7.637755 1.055080 0
2.248279 7.623107 1.054931 0
2.275718 7.615118 1.054879 0
2.307485 7.613742 1.054922 0
2.295735 7.545131 1.054001 0
2.375524 7.617261 1.055100 0
2.433854 7.655519 1.055714 0
2.465948 7.653469 1.055751 0
2.500306 7.654600 1.055835 0
2.573914 7.711156 1.056720 0
2.572117 7.610830 1.055411 0
2.592931 7.591678 1.055206 0
2.670724 7.654578 1.056185 0
2.671024 7.605608 1.055550 0
2.707922 7.609015 1.055672 0
2.727531 7.590239 1.055471 0
2.752871 7.577090 1.055355 0
2.786341 7.572751 1.055372 0
2.823396 7.575561 1.055489 0
2.931383 7.675029 1.057010 0
5.758964 11.314665 1.110195 12
38.635632 54.506367 1.739843 50
26.979000 38.864365 1.512387 13
26.854897 38.430305 1.506537 13
26.943766 38.275761 1.504765 13
27.740828 39.028996 1.516271 13
28.058878 39.160892 1.518708 13
29.689486 40.946476 1.545382 17
27.513966 37.934250 1.501755 13
28.153839 38.467197 1.510088 13
28.363995 38.446732 1.510338 13
27.906836 37.632896 1.498873 13
28.052338 37.550064 1.498179 13
28.839872 38.243484 1.508926 13
28.992769 38.163414 1.508292 13
28.070084 36.813038 1.488879 13
28.845171 37.478165 1.499247 13
30.283340 38.912296 1.521018 14
30.249033 38.605083 1.517052 14
30.368406 38.465584 1.515599 14
28.680271 36.271431 1.483598 13
29.163994 36.576736 1.488697 13
29.449299 36.650974 1.490375 13
29.900055 36.909176 1.494802 13
29.713501 36.448742 1.488533 13
30.321259 36.876202 1.495505 13
30.655794 36.994526 1.497880 13
30.172070 36.212650 1.486803 13
30.307644 36.126530 1.486094 13
53.747421 61.247978 1.863237 61
31.590755 37.015606 1.500677 14
49.754215 56.150967 1.788804 59
49.608570 55.574039 1.781227 58
49.691288 55.280693 1.777813 58
76.064621 82.458992 2.188657 63
50.400040 55.299770 1.780033 59
50.534668 55.041512 1.777215 59
76.259125 80.968384 2.170751 63
50.820957 54.582542 1.772356 58
62.932770 66.444992 1.953396 51
74.707649 77.783875 2.127018 63
55.781250 58.403893 1.833725 62
55.884560 58.106449 1.830368 62
56.053677 57.894718 1.828262 62
56.098530 57.522667 1.823830 62
55.894711 56.951645 1.816233 63
56.087910 56.728149 1.814071 63
56.154766 56.403748 1.810305 63
56.472748 56.318813 1.810219 63
57.050182 56.476189 1.813874 62
57.275681 56.299904 1.812408 62
58.216320 56.786285 1.821177 61
58.678505 56.822445 1.823024 61
58.854481 56.612965 1.821021 61
60.797081 58.008675 1.843907 59
61.280994 57.627541 1.840793 58
11.472990 12.600219 1.142029 3
11.541769 12.581666 1.142025 5
11.287970 12.287675 1.137692 1
91.800804 80.356110 2.210511 63
11.764516 12.529546 1.142116 1
70.303024 60.446964 1.903371 50
70.914825 60.546181 1.906553 49
72.033844 60.582676 1.910669 48
72.759995 60.738701 1.914921 48
11.657314 11.801167 1.133110 1
75.493576 62.042988 1.939438 45
76.482986 62.402233 1.946989 44
76.916725 62.321014 1.947490 43
11.831737 11.636797 1.131758 1
81.217705 64.715454 1.990170 63
81.699150 64.645164 1.990981 63
82.666077 64.892502 1.997176 63
83.101540 64.779510 1.997345 63
83.780807 64.799263 1.999908 63
87.454948 67.049866 2.038827 63
90.303993 68.658173 2.067417 63
88.710716 66.545174 2.037314 63
88.796036 66.125671 2.032746 63
90.052292 66.541870 2.041972 63
104.662849 76.391106 2.207303 63
12.559185 11.181777 1.128973 1
12.552013 11.101310 1.128020 1
99.696205 71.293579 2.130916 63
99.901443 70.911163 2.127249 63
62.081108 44.295364 1.686346 60
178.140945 99.580360 2.742107 63
178.544266 99.024612 2.737567 16
12.739025 7.940425 1.093562 1
12.736645 7.879761 1.092905 1
12.660221 7.778684 1.091518 1
12.680199 7.725939 1.091038 1
12.702458 7.677356 1.090612 1
15.524758 7.332236 1.098770 2
15.530639 7.268816 1.098149 2
20.999180 9.141566 1.140425 3
21.007668 9.045410 1.139486 3
21.137686 9.000580 1.139587 3
21.017950 8.869308 1.137750 3
21.041529 8.787771 1.137029 3
29.296375 9.803619 1.182866 19
29.325436 9.699925 1.181980 33
29.341726 9.580971 1.180891 39
29.356085 9.467479 1.179850 39
29.384029 9.363588 1.178963 19
29.441593 9.255783 1.178172 19
29.453350 9.147590 1.177177 13
29.481638 9.037891 1.176242 19
29.526443 8.926514 1.175367 19
29.529303 8.816273 1.174319 19
29.496813 8.697534 1.173036 39
29.515755 8.585810 1.172050 66
29.520039 8.464854 1.170913 19
29.585791 8.254004 1.169196 78
29.620010 8.140106 1.168267 28
29.746099 7.942127 1.166953 33
29.759827 7.707618 1.164804 6
39.878532 9.698078 1.228704 11
97.457092 17.051996 1.555622 63
97.483704 16.682533 1.552372 63
97.543114 16.353914 1.549650 63
97.754364 16.030367 1.547668 63
136.156830 18.873249 1.747418 3
136.330475 18.429672 1.744241 63
90.415695 10.369305 1.463745 50
12.184310 1.733184 1.031138 1
10.269971 1.205141 1.017916 1
10.342641 1.163466 1.017904 1
10.319152 1.122411 1.017457 1
10.255781 1.036444 1.016457 2
10.255871 0.993804 1.016107 2
10.239603 0.908632 1.015335 12
10.243224 0.863879 1.014987 21
10.258739 0.823196 1.014727 3
10.270082 0.780341 1.014431 2
10.253281 0.737983 1.014012 2
10.264324 0.695065 1.013716 2
10.263222 0.652398 1.013367 1
10.261971 0.609734 1.013019 1
10.284556 0.566246 1.012774 1
10.326971 0.521833 1.012613 1
-28.671247 1.058387 1.148449 4
-28.712984 1.343333 1.151093 43
-163.078979 4.243050 2.120193 63
-197.132980 5.578124 2.370805 63
-188.427139 6.024760 2.313313 63
-202.488388 7.139995 2.421523 63
-214.719452 9.002154 2.523161 63
-56.829536 4.573458 1.376031 28
-56.565281 4.747662 1.375672 28
-56.523205 4.945745 1.377083 28
-56.469170 5.133146 1.378322 27
-56.314808 5.312291 1.378789 27
-56.287418 5.501000 1.380234 27
-56.299225 5.693021 1.381986 27
-56.386898 5.882497 1.384252 27
-56.402225 6.065922 1.385961 27
-56.566380 6.283175 1.389014 28
-94.734795 11.292351 1.700411 50
-94.356491 11.576965 1.700285 50
-93.615181 12.124584 1.699965 51
-93.577728 12.428455 1.702412 51
-74.521606 11.093002 1.557350 100
-74.347290 11.326431 1.558238 56
-74.360092 11.573357 1.560558 56
-74.385986 11.835487 1.563112 56
-74.163864 12.072948 1.563719 56
-74.730469 12.667452 1.573078 57
-63.333443 11.058447 1.479068 45
-62.252533 11.097368 1.471906 44
-61.353470 11.159921 1.466229 43
-60.722637 11.263164 1.462795 42
-60.501335 11.435195 1.462843 41
-60.342514 11.617268 1.463422 41
-18.607519 4.077387 1.104077 1
-18.235594 4.064274 1.101376 1
-16.645809 3.817108 1.088060 1
-16.663324 3.873742 1.088709 1
-16.601664 3.917417 1.088690 1
-16.578022 4.072227 1.089977 1
-16.516329 4.112329 1.089928 1
-16.481892 4.158004 1.090122 1
-16.416632 4.194025 1.090012 1
-16.210253 4.200512 1.088650 1
-16.198387 4.252719 1.089064 1
-16.284882 4.322574 1.090324 1
-16.176430 4.347077 1.089811 1
-16.261261 4.422496 1.091115 1
-16.346952 4.493561 1.092384 1
-16.139874 4.498235 1.091007 1
-16.224522 4.572064 1.092297 1
-16.308826 4.646527 1.093592 1
-16.373423 4.716615 1.094711 1
-16.220387 4.732861 1.093820 1
-16.269739 4.796581 1.094775 1
-16.257034 4.844011 1.095149 1
-16.242809 4.896386 1.095561 1
-16.229773 4.943727 1.095934 1
-16.407717 5.050106 1.098186 1
-16.201109 5.045734 1.096735 1
-16.248350 5.113163 1.097718 1
-16.268419 5.173114 1.098444 1
-16.349606 5.251427 1.099766 1
-16.220451 5.264666 1.099020 1
-16.454218 5.389937 1.101844 1
-16.209370 5.369991 1.099987 1
-16.557604 5.530067 1.103934 1
-16.414967 5.543877 1.103106 1
-16.415026 5.596643 1.103631 1
-16.554108 5.699958 1.105602 1
-16.567991 5.760806 1.106304 1
-28.531391 9.966584 1.229119 4
-28.382555 10.019183 1.228648 4
-28.587427 10.198321 1.231833 4
-28.691036 10.338746 1.233948 4
-27.598600 10.057250 1.223772 4
-28.602509 10.517050 1.235163 4
-27.571480 10.345474 1.226521 4
-27.578283 10.454527 1.227680 4
-37.136162 14.118363 1.328905 9
-20.032154 7.806812 1.150267 2
-19.955919 7.849906 1.150202 2
-19.619518 7.788829 1.147337 2
-19.365740 7.757486 1.145328 2
-19.185646 7.756778 1.144126 2
-18.930241 7.728348 1.142139 2
-18.739559 7.720536 1.140796 2
-18.675180 7.762543 1.140806 2
-18.386078 7.708905 1.138339 1
-17.867153 7.561556 1.133381 1
-17.758060 7.584376 1.132900 1
-17.749683 7.645694 1.133486 1
-17.731203 7.699583 1.133929 1
-17.590080 7.704075 1.133049 1
-17.463797 7.714031 1.132326 1
-17.353468 7.726918 1.131739 1
-17.300585 7.767677 1.131822 1
-17.218382 7.795117 1.131575 1
-17.106997 7.808929 1.130994 1
-17.057608 7.850177 1.131110 1
-17.015387 7.894498 1.131305 1
-16.957308 7.934505 1.131353 1
-16.937817 7.985892 1.131774 1
-16.924156 8.043246 1.132298 1
-16.888605 8.090283 1.132571 1
-16.851658 8.139757 1.132861 1
-16.809864 8.180384 1.133027 1
-16.800310 8.236607 1.133570 1
-16.800037 8.300737 1.134258 1
-16.770842 8.350713 1.134609 1
-16.748629 8.404160 1.135044 1
-16.736931 8.462955 1.135605 1
-16.737940 8.531610 1.136355 1
-16.798204 8.624491 1.137749 1
-65.584641 46.970058 2.328916 61
-65.165047 47.003555 2.324953 60
-64.555725 46.895145 2.316846 59
-64.108780 46.901867 2.312211 59
-63.712276 46.926289 2.308388 58
-63.116245 46.815403 2.300417 57
-62.775486 46.909103 2.298255 57
-62.204151 46.808792 2.290727 56
-61.816875 46.828377 2.286969 55
-61.336632 46.790321 2.281367 55
-60.832119 46.729851 2.275178 54
-60.328758 46.666416 2.268967 53
-60.029293 46.743389 2.267044 53
-59.529148 46.692329 2.261078 52
-59.172443 46.735653 2.258065 52
-58.626137 46.624035 2.250707 51
-58.269432 46.645454 2.247374 51
-11.120339 8.526451 1.171130 2
-11.032380 8.507346 1.169934 3
-10.947738 8.490282 1.168806 3
-10.875572 8.483012 1.167960 3
-10.804873 8.473786 1.167099 1
-10.751295 8.481270 1.166676 1
-10.679562 8.472843 1.165821 1
-10.569781 8.483646 1.164891 1
-10.534544 8.505746 1.164889 1
-10.945778 8.916261 1.175511 1
-11.073530 9.085693 1.179479 1
-11.349243 9.389439 1.187057 1
-10.164797 8.433634 1.160074 3
-10.118091 8.443345 1.159770 2
-10.077303 8.458238 1.159610 1
-10.922688 9.352321 1.182273 7
-10.896354 9.386293 1.182566 4
-10.896036 9.444922 1.183512 7
-10.892522 9.500893 1.184386 7
-10.890222 9.555383 1.185250 6
-10.986835 9.708755 1.188675 2
-9.396745 8.223285 1.149214 0
-9.328588 8.207222 1.148301 0
-9.317583 8.246942 1.148846 0
-9.371654 8.351494 1.151074 0
-10.742783 9.774463 1.187425 1
-9.300346 8.383190 1.150921 0
-10.734581 9.889673 1.189245 1
-10.143875 9.348712 1.174773 1
-9.155601 8.390833 1.149689 0
-9.100649 8.388380 1.149136 0
-8.999009 8.380551 1.148063 5
-8.953927 8.384738 1.147716 6
-8.906164 8.385785 1.147294 7
-9.957667 9.625388 1.177653 1
-10.114272 9.856366 1.182952 1
-8.888511 8.576547 1.150327 0
-8.880788 8.621423 1.151012 0
-8.854103 8.645535 1.151177 0
-8.808672 8.648685 1.150821 0
-8.930598 8.840012 1.155148 0
-8.886005 8.842089 1.154784 0
-8.886154 8.900519 1.155776 0
-8.834879 8.897485 1.155269 0
-8.798159 8.908132 1.155125 0
-8.793903 8.959276 1.155959 0
-8.867157 9.101837 1.159034 0
-8.846541 9.135060 1.159421 0
-8.818063 9.159049 1.159583 0
-8.809987 9.207515 1.160343 0
-8.880706 9.351530 1.163427 0
-8.968277 9.517766 1.167040 1
-8.935933 9.539079 1.167128 1
-8.906044 9.563377 1.167291 1
-8.917687 9.636216 1.168648 1
-8.889956 9.663575 1.168885 1
-36.920227 45.682583 2.030015 27
-36.626179 45.642990 2.026862 27
-34.463192 43.159977 1.965574 25
-34.344933 43.311291 1.967229 25
-34.274403 43.525982 1.970394 25
-35.710266 45.739498 2.020947 27
-35.465141 45.738586 2.018917 27
-35.206123 45.717251 2.016423 27
-34.999901 45.765450 2.015589 26
-34.762108 45.736786 2.013154 26
-32.809868 43.398792 1.956200 24
-34.313789 45.810654 2.010838 26
-34.049961 45.773777 2.008071 26
-33.809967 45.768200 2.006055 26
-33.603596 45.791904 2.004833 26
-33.351933 45.783131 2.002685 26
-33.131413 45.800510 2.001254 26
-30.125605 41.767330 1.905963 22
-32.674118 45.790649 1.997494 25
-32.472527 45.831463 1.996651 25
-32.232971 45.815071 1.994501 25
-32.002815 45.810844 1.992649 25
-31.808496 45.858833 1.992013 25
-31.544909 45.784039 1.988656 25
-31.368612 45.856934 1.988620 50
-31.124565 45.825222 1.986199 25
-30.920143 45.852833 1.985151 25
-30.707254 45.866093 1.983789 25
-30.453861 45.814289 1.980959 25
-30.265194 45.862740 1.980428 25
-30.053194 45.873131 1.979043 24
-29.852018 45.899578 1.978036 24
-29.615332 45.867290 1.975713 24
-29.431368 45.919197 1.975309 24
-29.205433 45.883549 1.973017 24
-29.005215 45.906433 1.971982 24
-28.784658 45.894135 1.970168 24
-28.595102 45.932449 1.969506 24
-28.367096 45.904488 1.967368 24
-28.173862 45.934208 1.966538 24
-27.952703 45.914669 1.964617 24
-8.131266 11.742573 1.200100 1
-27.527514 45.882046 1.961036 23
-27.301819 45.867500 1.959198 23
-27.148897 45.962666 1.959885 23
-26.952894 45.980400 1.958859 23
-26.735975 45.940449 1.956637 23
-26.546284 45.967003 1.955831 23
-26.310966 45.908401 1.953154 23
-26.131275 45.950863 1.952724 23
-25.981689 46.049080 1.953533 23
-25.745733 45.984161 1.950756 23
-25.523521 45.942944 1.948517 23
-25.360907 46.014275 1.948764 23
-25.166939 46.024586 1.947680 23
-24.951349 45.991360 1.945654 23
-24.780279 46.024548 1.945158 23
-24.563675 45.986000 1.943041 23
-24.369013 45.989452 1.941853 22
-24.201155 46.045883 1.941832 22
-24.024387 46.083733 1.941414 22
-23.819704 46.063320 1.939739 22
-23.646620 46.106911 1.939466 22
-23.384060 45.962101 1.935117 22
-23.068140 45.700283 1.928253 22
-22.959373 45.875118 1.930858 22
-22.748718 45.832043 1.928757 22
-22.648312 46.006119 1.931413 22
-21.326782 43.540962 1.877073 19
-20.646118 42.409252 1.851684 17
-20.524250 42.525345 1.853139 17
-20.369415 42.567955 1.853020 17
-21.727688 46.060009 1.926912 21
-21.286364 45.454117 1.912881 20
-21.363478 46.061283 1.924801 21
-21.204441 46.125061 1.925083 21
-20.993763 46.088444 1.923175 21
-19.941742 44.014458 1.877868 18
-6.357479 11.721728 1.188449 4
-6.305681 11.691027 1.187575 8
-6.242288 11.755295 1.188444 3
-19.734867 46.109589 1.916502 20
-19.571430 46.156456 1.916500 20
-17.420914 41.053902 1.807568 14
-17.328033 41.230915 1.810444 14
-17.618647 42.425323 1.834799 16
-17.518717 42.599598 1.837597 32
-18.648552 46.100624 1.910491 20
-16.492458 40.697964 1.795831 27
-16.398670 40.872543 1.798685 28
-16.236425 40.858696 1.797581 14
-17.966263 46.185993 1.908588 20
-16.598192 42.762791 1.835948 16
-16.475838 42.881653 1.837612 16
-17.441628 46.178173 1.905788 20
-15.704441 41.569111 1.808533 14
-16.140421 43.342335 1.844800 33
-15.272508 41.216068 1.799615 14
-15.834415 43.409897 1.844607 16
-15.600142 43.191696 1.839272 16
-16.418753 46.263916 1.902447 19
-14.770861 41.592533 1.804465 14
-15.124533 43.174908 1.836690 16
-15.925823 46.326324 1.901332 19
-14.490546 42.177605 1.814463 14
-15.278700 45.323483 1.878951 18
-15.362593 46.145691 1.895251 19
-14.369331 43.340679 1.836429 16
-14.630303 44.797504 1.865835 17
-14.160048 43.730087 1.843046 16
-13.509024 42.546524 1.817222 14
-13.548934 43.290565 1.831849 15
-13.212361 42.631969 1.817607 14
-13.324806 43.579021 1.836503 15
-13.100464 43.939919 1.842588 32
-12.960359 44.017292 1.843517 32
-12.838412 44.167892 1.845954 32
-12.664483 44.112453 1.844169 32
-12.549970 44.297176 1.847314 33
-12.330379 44.017143 1.840977 32
-12.191185 44.099773 1.842044 32
-12.072467 44.271530 1.844937 16
-11.949986 44.431286 1.847588 16
-11.457555 42.960270 1.816945 14
-11.231891 42.637939 1.809788 14
-4.296142 11.659062 1.177547 0
-11.744763 46.435341 1.886036 18
-11.573973 46.451336 1.885725 18
-11.411135 46.465042 1.885406 18
-11.245048 46.421692 1.883963 18
-11.084023 46.442066 1.883794 18
-10.919874 46.446175 1.883301 18
-10.765265 46.456009 1.882960 18
-10.188995 44.330948 1.839259 16
-9.835883 44.111958 1.833771 31
-9.330778 42.159077 1.793711 26
-9.193227 42.220009 1.794462 40
-9.077013 42.406609 1.797760 13
-8.917183 43.195934 1.812794 29
-8.680025 42.663269 1.801569 27
-8.517057 42.575867 1.799349 41
-8.375491 42.622219 1.799836 27
-8.243206 42.731365 1.801594 27
-8.212576 43.536472 1.817381 14
-8.053218 43.482826 1.815862 14
-7.907049 43.519684 1.816172 29
-7.577858 43.318340 1.811277 28
-7.481283 43.734318 1.819228 14
-7.106268 43.023724 1.804187 42
-6.956187 43.013638 1.803595 28
-6.810364 43.038769 1.803716 28
-6.655539 42.983906 1.802238 13
-6.758608 45.306103 1.848422 16
-6.401142 44.865044 1.838826 32
-6.211168 44.582508 1.832783 31
-6.059705 44.605049 1.832876 46
-5.897339 44.423244 1.828905 46
-6.490704 52.882252 1.997741 24
-5.501056 43.249489 1.804776 14
-5.360223 43.345310 1.806368 14
-6.241145 56.758827 2.073986 27
-5.865857 54.308529 2.024650 25
-5.680249 54.329823 2.024691 25
-4.980959 46.597000 1.870018 17
-4.820470 46.587311 1.869509 17
-4.666620 46.552635 1.868525 17
-4.327501 46.171055 1.860324 34
-4.160379 45.987316 1.856377 51
-4.042273 46.853672 1.873351 18
-3.913121 47.599869 1.887929 18
-3.528298 41.823814 1.772696 24
-3.818002 54.211052 2.018927 25
-3.251188 42.089596 1.777518 12
-3.107251 42.077866 1.777060 12
-3.082075 46.923222 1.873168 18
-2.929054 46.894711 1.872374 18
-2.916233 55.266865 2.038500 25
-2.728703 56.089767 2.054567 26
-2.309227 49.883114 1.930823 21
-1.967641 48.644615 1.905811 40
-1.800448 48.892303 1.910526 40
-1.633681 48.823475 1.908965 40
-1.466402 48.850040 1.909305 40
-1.294243 49.215923 1.916380 41
-1.124917 49.269291 1.917263 41
-0.960927 49.454182 1.920768 20
-0.763885 50.605843 1.943432 22
-0.448450 55.754395 2.045305 26
-0.270587 55.016994 2.030517 25
-0.108939 54.235394 2.014874 25
-0.051229 51.107841 1.952780 22
0.114255 50.873119 1.947998 22
0.294333 50.997417 1.950334 22
0.460168 50.809494 1.946494 22
0.767816 53.368767 1.997055 24
-1.542099 8.508924 1.108853 0
-1.528118 8.299823 1.104699 0
-1.480207 8.268782 1.104060 2
-1.452695 8.278944 1.104249 1
-1.376385 8.273233 1.104109 11
-1.323463 8.292888 1.104485 1
-1.301770 8.262856 1.103886 1
-1.269488 8.320120 1.105015 1
-1.246175 8.064702 1.099957 1
-1.223159 8.034196 1.099353 0
-1.224368 7.793019 1.094582 0
-1.190159 7.672503 1.092201 6
-1.165420 7.681690 1.092386 5
-1.142549 7.674907 1.092256 4
-1.119216 7.672013 1.092204 3
-1.094355 7.680937 1.092386 3
-1.071001 7.677875 1.092333 3
-1.049281 7.662844 1.092043 3
-1.026047 7.667709 1.092148 3
