# .PCD v.7 - Point Cloud Data file format
VERSION .7
FIELDS x y z intensity
SIZE 4 4 4 1
TYPE F F F U
COUNT 1 1 1 1
WIDTH 1610
HEIGHT 1
VIEWPOINT 0 0 0 1 0 0 0
POINTS 1610
DATA ascii
-3.736065 2.034560 0.012208 1
-3.735562 2.042602 0.010582 2
-3.722545 2.043197 0.015643 2
-3.718885 2.049339 0.015689 1
-3.727816 2.062703 0.009047 2
-3.720801 2.067274 0.010767 2
-3.707777 2.067687 0.015826 1
-3.713481 2.079226 0.010856 2
-3.700454 2.079551 0.015914 1
-3.702815 2.089494 0.012618 1
-3.698994 2.095566 0.012663 2
-4.902905 2.681771 0.028536 1
-4.886701 2.686737 0.031792 1
-4.887745 2.700320 0.029748 1
-4.881485 2.711035 0.029828 1
-4.875787 2.720710 0.029900 1
-4.872762 2.733361 0.028922 1
-4.866991 2.743007 0.028994 1
-4.874067 2.761153 0.024838 1
-4.858025 2.765265 0.028087 1
-4.841990 2.769286 0.031336 1
-4.839064 2.781369 0.030353 1
-4.839356 2.795503 0.028313 1
-4.829803 2.803478 0.029445 1
-4.816974 2.809335 0.031634 1
-4.808021 2.816216 0.032758 1
-4.811376 2.832423 0.029660 1
-4.798489 2.838151 0.031848 1
-4.798498 2.852276 0.029807 1
-4.798443 2.866423 0.027766 1
-4.781944 2.870392 0.031013 1
-4.778922 2.881885 0.030026 1
-4.778388 2.896523 0.027988 1
-4.772075 2.905855 0.028057 1
-4.759036 2.911288 0.030243 1
-4.749166 2.918848 0.031371 1
-4.742443 2.928568 0.031442 1
-4.735686 2.938265 0.031514 1
-4.728895 2.947937 0.031585 1
-4.728355 2.962064 0.029543 1
-4.718691 2.968980 0.030667 1
-4.721175 2.985373 0.027569 1
-4.711101 2.992724 0.028695 1
-4.701008 3.000029 0.029821 1
-4.697105 3.011873 0.028835 1
-4.686963 3.019107 0.029961 1
-4.676803 3.026296 0.031086 1
-4.685102 3.047386 0.025877 1
-4.668717 3.049875 0.029112 1
-4.670726 3.066352 0.026015 1
-4.657379 3.071084 0.028194 1
-4.653172 3.082850 0.027207 1
-4.648915 3.094612 0.026220 1
-4.632855 3.096349 0.029450 1
-4.625514 3.105661 0.029517 1
-4.618139 3.114949 0.029584 1
-4.607727 3.121790 0.030706 1
-4.618278 3.145597 0.024444 1
-4.601799 3.147537 0.027675 1
-4.609179 3.168996 0.022469 1
-4.592669 3.170841 0.025699 1
-4.576179 3.172598 0.028928 1
-4.577434 3.189159 0.025830 1
-4.572714 3.200771 0.024841 1
-4.567945 3.212376 0.023852 1
-4.557658 3.218495 0.024968 1
-4.549891 3.227545 0.025033 1
-4.542091 3.236567 0.025098 1
-4.525554 3.237934 0.028324 1
-4.520612 3.249424 0.027333 1
-4.521390 3.266034 0.024236 1
-4.504830 3.267237 0.027460 1
-4.505492 3.283852 0.024362 1
-4.497497 3.292719 0.024425 1
-4.483773 3.296352 0.026595 1
-4.484252 3.312983 0.023497 1
-4.470495 3.316530 0.025666 1
-4.463198 3.324401 0.025722 1
-4.457466 3.336198 0.024733 1
-4.449697 3.344463 0.024791 1
-4.441080 3.353568 0.024856 1
-4.432841 3.362210 0.024916 1
-4.430123 3.376185 0.022871 1
-4.424572 3.387479 0.021879 1
-4.411120 3.390235 0.024041 1
-4.396840 3.393778 0.026210 1
-4.385724 3.399546 0.027322 1
-4.383203 3.413030 0.025273 1
-4.377053 3.424629 0.024282 1
-4.363149 3.427551 0.026446 1
-4.357352 3.438678 0.025451 1
-4.348817 3.447027 0.025510 1
-4.341111 3.454516 0.025562 1
-4.335192 3.465593 0.024567 1
-4.331021 3.480280 0.022526 1
-4.319690 3.485733 0.023635 1
-4.306577 3.487505 0.025790 1
-4.297436 3.496085 0.025849 1
-4.291323 3.507056 0.024853 1
-4.282550 3.515174 0.024909 1
-4.271586 3.520009 0.026014 1
-4.270104 3.537036 0.022917 1
-4.259531 3.541410 0.024018 1
-4.245047 3.544064 0.026179 1
-4.243834 3.560676 0.023079 1
-4.225108 3.556657 0.027336 1
-4.223343 3.573646 0.024238 1
-4.212255 3.578222 0.025341 1
-4.205305 3.589376 0.024345 1
-4.193732 3.594264 0.025450 1
-4.187158 3.604979 0.024451 1
-4.180535 3.615680 0.023452 1
-4.154010 3.602722 0.030862 1
-4.162205 3.631110 0.023557 1
-4.153461 3.638394 0.023606 1
-4.139327 3.640069 0.025759 1
-4.130553 3.647277 0.025807 1
-4.125688 3.661206 0.023759 1
-4.119265 3.671375 0.022756 1
-4.104632 3.673237 0.024910 1
-4.092880 3.677680 0.026011 1
-4.086371 3.687765 0.025007 1
-4.079347 3.698206 0.024006 1
-4.067539 3.702536 0.025105 1
-4.062800 3.715984 0.023053 1
-4.043912 3.711046 0.027303 1
-4.039100 3.724444 0.025250 1
-4.027244 3.728600 0.026348 1
-4.022807 3.741613 0.024293 1
-4.016002 3.751530 0.023287 1
-3.992134 3.740417 0.029637 1
-3.996244 3.766163 0.023383 1
-3.983812 3.770483 0.024482 1
-3.976868 3.780303 0.023476 1
-3.967629 3.786972 0.023519 1
-3.950675 3.784875 0.026716 1
-3.940934 3.791803 0.026761 1
-3.928952 3.795537 0.027855 1
-3.926284 3.811547 0.024749 1
-3.918153 3.821905 0.023745 1
-3.901730 3.819172 0.026938 1
-3.894043 3.829118 0.025932 1
-3.891628 3.844767 0.022822 1
-3.876380 3.845748 0.024968 1
-3.864288 3.849204 0.026060 1
-3.853191 3.851949 0.027147 1
-3.844335 3.862420 0.026144 1
-3.837433 3.871556 0.025132 1
-3.820601 3.868688 0.028323 1
-3.820989 3.891406 0.023118 1
-3.804659 3.888112 0.026306 1
-3.792497 3.891265 0.027396 1
-3.784436 3.900911 0.026387 1
-3.778368 3.913813 0.024328 1
-3.774259 3.929993 0.021221 1
-3.752428 3.916240 0.027552 1
-3.744234 3.925773 0.026541 1
-3.739983 3.941896 0.023434 1
-3.727713 3.944774 0.024520 1
-3.715960 3.947297 0.025605 1
-3.693898 3.933449 0.031935 1
-3.694809 3.959778 0.025682 1
-3.686394 3.969151 0.024670 1
-3.678456 3.978202 0.023656 1
-3.666129 3.980826 0.024741 1
-3.651904 3.980040 0.026874 1
-3.645785 3.992362 0.024811 1
-3.635322 3.998224 0.024846 1
-3.626704 4.007428 0.023833 1
-3.615662 4.013512 0.023869 1
-3.601441 4.012485 0.026000 1
-3.585942 4.007712 0.029177 1
-3.586340 4.033793 0.022921 1
-3.573925 4.036036 0.024003 1
-3.552537 4.021144 0.030325 1
-3.549108 4.040374 0.026165 1
-3.542554 4.052482 0.024099 1
-3.532415 4.057709 0.024130 1
-3.519976 4.059734 0.025210 1
-3.507006 4.061979 0.026291 1
-3.498561 4.070541 0.025272 1
-3.486113 4.072430 0.026351 1
-3.475371 4.077734 0.026381 1
-3.465761 4.086735 0.025365 1
-3.457186 4.095184 0.024345 1
-3.444700 4.096904 0.025423 1
-3.436068 4.105295 0.024403 1
-3.426852 4.113919 0.023384 1
-3.415966 4.119016 0.023412 1
-3.395895 4.107048 0.028681 1
-3.389842 4.122572 0.025566 1
-3.380018 4.127045 0.025591 1
-3.365926 4.124934 0.027713 1
-3.357589 4.137118 0.025646 1
-3.347627 4.145749 0.024626 1
-3.336188 4.146550 0.025697 1
-3.323108 4.148025 0.026772 1
-3.312654 4.152524 0.026796 1
-3.302587 4.161010 0.025775 1
-3.292643 4.165209 0.025797 1
-3.283060 4.173402 0.024774 1
-3.269028 4.170857 0.026893 1
-3.256488 4.171828 0.027964 1
-3.248289 4.183490 0.025893 1
-3.236604 4.188186 0.025917 1
-3.227436 4.195988 0.024892 1
-3.212893 4.193418 0.027009 1
-3.205078 4.204751 0.024936 1
-3.195258 4.212677 0.023911 1
-3.182098 4.213569 0.024981 1
-3.171427 4.217600 0.025001 1
-3.159399 4.217977 0.026067 1
-3.152147 4.233011 0.022947 1
-3.136325 4.226469 0.026109 1
-3.125612 4.230348 0.026127 1
-3.114321 4.234393 0.026147 1
-3.100453 4.231115 0.028260 1
-3.091697 4.242364 0.026185 1
-3.082876 4.253592 0.024109 1
-3.070261 4.253833 0.025174 1
-3.057658 4.254025 0.026239 1
-3.046285 4.257833 0.026256 1
-3.036104 4.265268 0.025226 1
-3.024692 4.269001 0.025243 1
-3.013229 4.268650 0.026304 1
-3.000637 4.268623 0.027367 1
-2.991523 4.279599 0.025289 1
-2.978919 4.279488 0.026351 1
-2.968587 4.286712 0.025320 1
-2.954867 4.282817 0.027428 1
-2.944498 4.289965 0.026395 1
-2.935182 4.300784 0.024316 1
-2.922568 4.300457 0.025376 1
-2.912099 4.307504 0.024343 1
-2.898436 4.303374 0.026449 1
-2.886429 4.302745 0.027507 1
-2.873860 4.302234 0.028566 1
-2.867389 4.324025 0.023345 1
-2.852770 4.315982 0.026497 1
-2.842170 4.322806 0.025461 0
-2.828608 4.318390 0.027565 1
-2.819897 4.332614 0.024436 1
-2.807303 4.331850 0.025493 1
-2.795660 4.334783 0.025503 1
-2.786774 4.348922 0.022373 1
-2.771433 4.336775 0.026568 1
-2.758876 4.335828 0.027623 1
-2.748103 4.342350 0.026585 1
-2.737294 4.348838 0.025547 1
-2.728163 4.362820 0.022415 1
-2.712192 4.346641 0.027655 1
-2.701082 4.349113 0.027661 1
-2.691017 4.359221 0.025575 1
-2.680889 4.369299 0.023489 1
-2.669909 4.375570 0.022449 1
-2.657335 4.374242 0.023501 1
-2.645544 4.376651 0.023506 1
-2.631487 4.367660 0.026650 1
-2.622826 4.389041 0.021423 1
-2.611577 4.391216 0.021427 1
-2.597588 4.382083 0.024570 1
-2.587171 4.391878 0.022481 1
-2.575912 4.393935 0.022484 1
-2.563380 4.392259 0.023534 1
-2.551527 4.394340 0.023536 1
-2.539020 4.392574 0.024585 1
-2.529070 4.405995 0.021448 1
-2.514685 4.392715 0.025635 1
-2.505262 4.409877 0.021451 1
-2.493349 4.411756 0.021451 1
-2.480266 4.405959 0.023545 1
-2.468934 4.411569 0.022498 1
-2.458679 4.424782 0.019359 1
-2.443465 4.403563 0.025637 1
-2.433822 4.412710 0.023543 1
-2.421303 4.414419 0.023542 1
-2.409970 4.415926 0.023540 1
-2.397928 4.421378 0.022492 1
-2.386096 4.418976 0.023536 1
-2.375865 4.439675 0.018302 1
-2.361156 4.418095 0.024577 1
-2.350845 4.423171 0.023528 1
-2.338288 4.424576 0.023524 1
-2.326134 4.429774 0.022473 1
-2.316144 4.438584 0.020377 1
-2.302166 4.432239 0.022464 1
-2.290912 4.441094 0.020366 1
-2.280450 4.445957 0.019315 1
-2.268755 4.450896 0.018263 1
-2.255768 4.448153 0.019303 1
-2.244324 4.449111 0.019297 1
-2.231673 4.450126 0.019290 1
-2.219909 4.454899 0.018236 1
-2.208771 4.451845 0.019276 1
-2.195322 4.441174 0.022407 1
-2.183799 4.449675 0.020306 1
-2.170911 4.446615 0.021343 1
-2.159314 4.455034 0.019242 1
-2.148476 4.467237 0.016094 1
-2.135777 4.456303 0.019223 1
-2.123158 4.445323 0.022353 1
-2.111460 4.453581 0.020250 1
-2.099844 4.450203 0.021286 1
-2.087331 4.454546 0.020228 1
-2.075521 4.462683 0.018124 1
-2.063311 4.459202 0.019159 1
-2.051730 4.455662 0.020194 1
-2.038967 4.452111 0.021227 1
-2.027663 4.460070 0.019122 1
-2.015700 4.468001 0.017016 1
-2.003345 4.448869 0.022236 1
-1.991333 4.452856 0.021175 1
-1.979273 4.452940 0.021161 1
-1.967220 4.456843 0.020100 1
-1.955140 4.460704 0.019039 1
-1.943109 4.449080 0.022164 1
-1.931127 4.441275 0.024242 1
-1.919016 4.448870 0.022133 1
-1.907689 4.440991 0.024211 1
-1.895310 4.460083 0.018961 1
-1.883311 4.455972 0.019990 1
-1.871339 4.451820 0.021020 1
-1.859170 4.455345 0.019956 1
-1.847102 4.454968 0.019938 1
-1.835453 4.442975 0.023060 1
-1.822970 4.454087 0.019901 1
-1.810740 4.457441 0.018836 1
-1.799872 4.456951 0.018818 1
-1.787579 4.448626 0.020892 1
-1.775329 4.451854 0.019825 1
-1.762835 4.458893 0.017711 1
-1.751823 4.450509 0.019785 1
-1.739415 4.445866 0.020810 1
-1.729276 4.425852 0.026025 1
-1.715622 4.440383 0.021814 1
-1.703606 4.439505 0.021793 1
-1.690696 4.450132 0.018629 1
-1.679585 4.437624 0.021748 1
-1.666601 4.448160 0.018583 1
-1.654219 4.450956 0.017513 1
-1.643827 4.438386 0.020632 1
-1.632185 4.433414 0.021655 1
-1.619816 4.436087 0.020584 1
-1.607632 4.442617 0.018466 1
-1.596420 4.433684 0.020535 1
-1.583830 4.432324 0.020509 1
-1.572276 4.427150 0.021531 1
-1.560461 4.429677 0.020459 1
-1.547885 4.428185 0.020431 1
-1.536639 4.430701 0.019360 1
-1.525030 4.421463 0.021426 1
-1.513680 4.419998 0.021400 1
-1.500714 4.426068 0.019278 1
-1.491830 4.397586 0.026582 1
-1.478349 4.407395 0.023411 1
-1.468148 4.398134 0.025479 1
-1.454587 4.407849 0.022307 1
-1.442092 4.405969 0.022276 1
-1.431383 4.396507 0.024342 1
-1.418917 4.398450 0.023265 1
-1.407643 4.396633 0.023236 1
-1.395151 4.398489 0.022158 1
-1.384573 4.388880 0.024222 1
-1.371360 4.398362 0.021049 1
-1.358229 4.399979 0.019968 1
-1.349093 4.382657 0.024128 1
-1.336584 4.384296 0.023048 1
-1.325358 4.382207 0.023017 1
-1.313548 4.379967 0.022984 1
-1.298945 4.388938 0.019805 1
-1.290113 4.371460 0.023964 1
-1.278166 4.373001 0.022884 1
-1.267165 4.366815 0.023898 1
-1.254620 4.368150 0.022815 1
-1.246870 4.346784 0.028022 1
-1.231923 4.359363 0.023794 1
-1.221850 4.349257 0.025855 1
-1.207631 4.357957 0.022674 1
-1.195639 4.359205 0.021592 1
-1.183630 4.360410 0.020508 1
-1.175415 4.342641 0.024666 1
-1.161374 4.347249 0.022530 1
-1.152406 4.333181 0.025639 1
-1.140432 4.334230 0.024554 1
-1.127858 4.335091 0.023468 1
-1.114687 4.335757 0.022379 1
-1.104580 4.329192 0.023391 1
-1.092376 4.326030 0.023350 1
-1.080763 4.322978 0.023311 1
-1.070321 4.320196 0.023275 1
-1.059592 4.309300 0.025329 1
-1.048171 4.310174 0.024244 1
-1.035459 4.306643 0.024200 1
-1.022972 4.311149 0.022065 1
-1.011319 4.303812 0.023069 1
-1.002012 4.297104 0.024081 1
-0.992674 4.286329 0.026137 1
-0.979002 4.290328 0.023997 1
-0.967515 4.286880 0.023955 1
-0.958291 4.276007 0.026011 1
-0.946853 4.272487 0.025968 1
-0.933126 4.276295 0.023826 1
-0.923424 4.269187 0.024834 1
-0.909658 4.272898 0.022691 1
-0.900041 4.261678 0.024744 1
-0.889223 4.258142 0.024701 1
-0.878496 4.250527 0.025704 1
-0.864692 4.254047 0.023560 1
-0.855814 4.242890 0.025614 1
-0.841300 4.250160 0.022421 1
-0.833751 4.235291 0.025525 1
-0.822456 4.231337 0.025478 1
-0.809885 4.230980 0.024382 1
-0.801213 4.219676 0.026435 1
-0.787342 4.222864 0.024288 1
-0.774762 4.222371 0.023190 1
-0.768098 4.207561 0.026295 1
-0.754988 4.206781 0.025194 1
-0.741060 4.209771 0.023045 1
-0.733173 4.198498 0.025100 1
-0.723399 4.190592 0.026101 1
-0.709454 4.193442 0.023951 1
-0.700583 4.181653 0.026000 1
-0.692889 4.170285 0.028054 1
-0.676059 4.180160 0.023801 1
-0.667865 4.168504 0.025852 1
-0.658271 4.160401 0.026852 1
-0.648717 4.152268 0.027852 1
-0.633242 4.158348 0.024648 1
-0.622217 4.153694 0.024597 1
-0.617271 4.134803 0.028749 1
-0.604369 4.137655 0.026600 1
-0.592323 4.132423 0.026542 1
-0.576277 4.142243 0.022290 1
-0.571564 4.123276 0.026442 1
-0.559086 4.121930 0.025337 1
-0.548189 4.117016 0.025284 1
-0.537310 4.112065 0.025230 1
-0.523222 4.114089 0.023073 1
-0.517227 4.098549 0.026173 1
-0.506413 4.093490 0.026118 1
-0.497264 4.084905 0.027115 1
-0.486497 4.079776 0.027060 1
-0.472401 4.081565 0.024900 1
-0.461646 4.076350 0.024844 1
-0.452606 4.067631 0.025840 1
-0.443609 4.058887 0.026836 1
-0.431745 4.057292 0.025730 1
-0.419342 4.055383 0.024621 1
-0.408678 4.049983 0.024563 1
-0.408576 4.023930 0.030820 1
-0.387408 4.039071 0.024448 1
-0.378582 4.030136 0.025442 1
-0.371593 4.017758 0.027489 1
-0.357451 4.019014 0.025325 1
-0.352365 4.003183 0.028424 1
-0.340055 4.000948 0.027312 1
-0.329582 3.995271 0.027253 1
-0.317276 3.992944 0.026141 1
-0.304968 3.990566 0.025028 1
-0.298282 3.978022 0.027073 1
-0.286002 3.975566 0.025960 1
-0.279933 3.963275 0.028008 1
-0.265771 3.964095 0.025841 1
-0.255427 3.958159 0.025780 1
-0.247037 3.948848 0.026771 1
-0.242582 3.932848 0.029870 1
-0.230390 3.930158 0.028754 1
-0.218196 3.927418 0.027639 1
-0.204021 3.927940 0.025469 1
-0.191812 3.925095 0.024352 1
-0.183608 3.915602 0.025343 1
-0.183504 3.892924 0.030548 1
-0.163281 3.903122 0.025216 1
-0.153150 3.896829 0.025152 1
-0.145090 3.887231 0.026141 1
-0.135015 3.880874 0.026077 1
-0.125464 3.874803 0.026015 1
-0.113351 3.871627 0.024896 1
-0.103330 3.865159 0.024831 1
-0.095437 3.855423 0.025820 1
-0.083358 3.852120 0.024700 1
-0.077659 3.839109 0.026743 1
-0.065615 3.835730 0.025622 1
-0.075063 3.800256 0.035047 1
-0.045848 3.822428 0.025488 1
-0.040343 3.809346 0.027531 1
-0.030540 3.802625 0.027464 1
-0.020761 3.795869 0.027397 1
-0.008801 3.792245 0.026274 1
-0.001274 3.782255 0.027261 1
0.008434 3.775397 0.027193 1
0.015880 3.765362 0.028180 1
0.022317 3.756002 0.029174 1
0.039672 3.757748 0.025932 1
0.049294 3.750747 0.025863 1
0.060213 3.747530 0.024744 1
0.056529 3.721480 0.031005 1
0.072931 3.723708 0.027769 1
0.084272 3.720036 0.026646 1
0.091912 3.709442 0.027628 1
0.099031 3.699187 0.028614 1
0.107978 3.692341 0.028547 1
0.115016 3.682047 0.029532 1
0.136673 3.689654 0.024176 1
0.140367 3.676972 0.026224 1
0.142547 3.660526 0.029322 1
0.157552 3.658473 0.027130 1
0.166827 3.651062 0.027058 1
0.176076 3.643618 0.026986 1
0.184377 3.636891 0.026920 1
0.192055 3.625645 0.027897 1
0.203666 3.621093 0.026767 1
0.214356 3.617252 0.025644 1
0.219456 3.602954 0.027677 1
0.228537 3.595327 0.027604 1
0.240082 3.590613 0.026473 1
0.251621 3.585850 0.025341 1
0.252208 3.570101 0.028446 1
0.264591 3.564502 0.027307 1
0.273537 3.556718 0.027232 1
0.279024 3.546782 0.028222 1
0.288352 3.538555 0.028143 1
0.296765 3.531082 0.028072 1
0.315881 3.534687 0.023764 1
0.309671 3.509129 0.030032 1
0.323608 3.506901 0.027840 1
0.329751 3.496063 0.028822 1
0.345857 3.496970 0.025575 1
0.349324 3.483242 0.027615 1
0.355355 3.472341 0.028596 1
0.363979 3.464240 0.028519 1
0.370353 3.452900 0.029497 1
0.383802 3.450742 0.027306 1
0.392351 3.442542 0.027228 1
0.398190 3.431537 0.028209 1
0.403982 3.420522 0.029190 1
0.409726 3.409496 0.030171 1
0.420419 3.404368 0.029038 1
0.428805 3.396040 0.028959 1
0.436745 3.388102 0.028884 1
0.442753 3.376579 0.029861 1
0.451043 3.368174 0.029782 1
0.459302 3.359740 0.029702 1
0.470297 3.353966 0.028563 1
0.475733 3.342785 0.029543 1
0.477930 3.329350 0.031587 1
0.497631 3.331037 0.027263 1
0.500157 3.317139 0.029303 1
0.511049 3.311174 0.028162 1
0.501788 3.287176 0.034447 1
0.521081 3.289051 0.030125 1
0.534740 3.285596 0.027924 1
0.542711 3.276870 0.027842 1
0.544939 3.262933 0.029882 1
0.547101 3.249008 0.031922 1
0.554944 3.240239 0.031840 1
0.571406 3.239128 0.028576 1
0.576322 3.227723 0.029555 1
0.586992 3.221394 0.028412 1
0.594739 3.212486 0.028329 1
0.592931 3.196879 0.031438 1
0.606445 3.192975 0.029233 1
0.611538 3.181048 0.030207 1
0.621708 3.174997 0.029067 1
0.626718 3.163035 0.030041 1
0.628338 3.149049 0.032081 1
0.641772 3.144917 0.029874 1
0.652230 3.138268 0.028728 1
0.665287 3.134469 0.026525 1
0.661119 3.115114 0.030684 1
0.671129 3.108826 0.029542 1
0.678849 3.099164 0.029453 1
0.686169 3.089936 0.029369 1
0.696485 3.083070 0.028221 1
0.697673 3.069029 0.030261 1
0.707933 3.062101 0.029114 1
0.702193 3.044282 0.033288 1
0.719218 3.041074 0.030006 1
0.729404 3.034039 0.028857 1
0.729987 3.020459 0.030902 1
0.733594 3.009211 0.031884 1
0.750581 3.005753 0.028599 1
0.748267 2.989405 0.031703 1
0.754511 2.980883 0.031626 1
0.761417 2.971392 0.031539 1
0.772101 2.963182 0.030381 1
0.782079 2.955876 0.029230 1
0.788217 2.947249 0.029152 1
0.795006 2.937640 0.029065 1
0.795784 2.923097 0.031101 1
0.802488 2.913462 0.031014 1
0.812331 2.905996 0.029862 1
0.815133 2.895092 0.030848 1
0.822398 2.884418 0.030751 1
0.825118 2.873504 0.031737 1
0.828773 2.861132 0.032709 1
0.818893 2.841182 0.037949 1
0.831743 2.835720 0.035732 1
0.848134 2.831815 0.032445 1
0.844507 2.816178 0.035556 1
0.870586 2.818435 0.029073 1
0.870432 2.804379 0.031114 1
0.860456 2.784137 0.036352 1
0.869935 2.776335 0.035198 1
0.872859 2.764396 0.036175 1
0.879009 2.754493 0.036086 1
0.878561 2.740521 0.038129 1
0.877749 2.727070 0.040176 1
0.920016 2.739165 0.028362 1
0.896358 2.711189 0.037867 1
0.895704 2.697248 0.039910 1
0.914883 2.695132 0.035556 1
0.924113 2.687038 0.034400 1
0.939687 2.683294 0.031115 1
0.932210 2.665428 0.035291 1
0.934671 2.653398 0.036267 1
0.940433 2.643280 0.036177 1
0.932737 2.625552 0.040355 1
0.952135 2.622476 0.035992 1
0.957789 2.612297 0.035902 1
0.992385 2.605344 0.028254 1
0.984425 2.587671 0.032432 1
1.000142 2.582860 0.029139 1
0.985251 2.561625 0.035453 1
0.997507 2.554937 0.033226 1
1.002925 2.544600 0.033135 1
1.014877 2.538322 0.030912 1
1.013119 2.524909 0.032961 1
1.025560 2.517509 0.030728 1
1.020534 2.501843 0.033841 1
1.029210 2.493158 0.032681 1
1.037603 2.484954 0.031525 1
1.046231 2.476186 0.030364 1
1.048169 2.463459 0.031336 1
1.053013 2.453472 0.031248 1
1.054855 2.440744 0.032219 1
1.066581 2.434054 0.029994 1
1.071826 2.422948 0.029896 1
1.062328 2.406868 0.034089 1
1.081212 2.402802 0.029719 1
1.079581 2.387889 0.031756 1
1.077400 2.374071 0.033802 1
1.092486 2.368747 0.030505 1
1.090217 2.354931 0.032551 1
1.098225 2.346368 0.031392 1
1.109971 2.338782 0.029159 1
1.111100 2.326516 0.030135 1
1.116179 2.314710 0.030032 1
1.109668 2.300496 0.033159 1
1.121297 2.292772 0.030924 1
1.125799 2.282004 0.030831 1
1.119582 2.266793 0.033948 1
1.138476 2.261346 0.029567 1
1.135290 2.248698 0.031624 1
1.132488 2.235004 0.033672 1
1.151538 2.228819 0.029285 1
1.145061 2.213707 0.032404 1
1.127744 2.194455 0.038737 1
1.149463 2.191691 0.033296 1
1.139213 2.175320 0.037487 1
1.161327 2.171311 0.032036 1
1.158389 2.157158 0.034080 1
1.180286 2.153501 0.028632 1
1.177064 2.139877 0.030680 1
1.173787 2.126288 0.032730 1
1.177707 2.115339 0.032635 1
1.177958 2.103088 0.033613 1
1.167252 2.087021 0.037807 1
1.174676 2.077358 0.036641 1
1.204034 2.062865 0.030016 1
1.207733 2.051811 0.029921 1
1.211394 2.040743 0.029825 1
1.204029 2.026065 0.032949 1
1.207422 2.015564 0.032859 1
1.214802 2.005118 0.031686 1
1.210777 1.992258 0.033742 1
1.232620 1.986923 0.028279 1
1.217644 1.970091 0.033551 1
1.217333 1.957866 0.034530 1
1.224355 1.947876 0.033361 1
1.227653 1.936751 0.033266 1
1.242004 1.928867 0.029948 1
1.226729 1.912325 0.035223 1
1.241017 1.904367 0.031905 1
1.236745 1.891093 0.033958 1
1.243557 1.880958 0.032789 1
1.250336 1.870786 0.031618 1
1.249645 1.858564 0.032597 1
1.248909 1.846359 0.033577 1
1.255285 1.837252 0.032416 1
1.243280 1.822145 0.036620 1
1.253603 1.812866 0.034374 1
1.256429 1.801640 0.034279 1
1.251738 1.788545 0.036334 1
1.276932 1.782825 0.029786 0
1.264672 1.767903 0.033992 1
1.267341 1.756639 0.033896 1
1.269971 1.745365 0.033801 1
1.283825 1.736675 0.030477 1
1.271229 1.722504 0.034690 1
1.269979 1.710378 0.035670 1
1.295026 1.704048 0.029118 0
1.293706 1.691866 0.030098 1
1.269847 1.674342 0.037532 1
1.302362 1.669343 0.028824 0
1.285701 1.654654 0.034116 1
1.314412 1.648634 0.026483 0
1.301547 1.634211 0.030694 0
1.284839 1.619152 0.035982 1
1.294558 1.609258 0.033732 1
1.315607 1.601425 0.028251 0
1.298749 1.586515 0.033541 1
1.323534 1.579215 0.026981 1
1.325544 1.567747 0.026884 0
1.331310 1.556925 0.025710 1
1.325550 1.544721 0.027773 0
1.312330 1.530162 0.031984 0
1.298958 1.516276 0.036199 0
1.331188 1.509700 0.027479 1
1.310114 1.494680 0.033852 0
1.308020 1.482684 0.034834 0
1.309611 1.471841 0.034743 0
1.311246 1.460422 0.034648 0
1.316656 1.449532 0.033474 0
1.306765 1.436523 0.036614 0
1.312095 1.425622 0.035440 0
1.313569 1.414194 0.035344 0
1.315003 1.402761 0.035249 0
1.304928 1.389918 0.038391 0
1.310103 1.378970 0.037216 0
1.311414 1.367550 0.037121 0
1.324169 1.357409 0.033787 0
1.336892 1.347184 0.030453 0
1.361016 1.338659 0.023883 0
1.343027 1.325117 0.029186 0
1.344150 1.313581 0.029090 0
1.356735 1.303128 0.025754 0
1.304083 1.286665 0.040780 0
1.305073 1.275266 0.040685 0
1.329049 1.265794 0.034108 0
1.318449 1.253383 0.037254 0
1.327001 1.242524 0.034998 0
1.327836 1.231045 0.034903 0
1.317106 1.218759 0.038050 0
1.329386 1.208079 0.034712 0
1.322414 1.196109 0.036779 0
1.330775 1.185103 0.034522 0
1.323720 1.173182 0.036590 0
1.312775 1.161112 0.039739 0
1.332505 1.151771 0.034247 0
1.333048 1.139699 0.034147 0
1.352761 1.129007 0.028643 0
1.357048 1.117586 0.027466 0
1.361295 1.106138 0.026289 0
1.365502 1.094661 0.025111 0
1.350423 1.082618 0.029344 0
1.346837 1.071542 0.030336 0
1.320136 1.058852 0.037813 0
1.324180 1.047465 0.036636 0
1.324335 1.035998 0.036542 0
1.335995 1.025226 0.033204 0
1.336072 1.013717 0.033110 0
1.313005 1.001551 0.039508 0
-5.277632 0.999898 0.035685 1
-5.289163 1.011549 0.032560 1
-5.289094 1.023165 0.032655 1
-5.292850 1.033671 0.031667 1
-5.300410 1.045428 0.029616 1
-5.292518 1.056928 0.031858 1
-5.292290 1.068556 0.031953 1
-5.295860 1.080870 0.030980 1
-5.295566 1.091927 0.031070 1
-5.295216 1.103566 0.031165 1
-5.290975 1.115058 0.032333 1
-5.278994 1.126206 0.035645 1
-5.293924 1.138472 0.031450 1
-5.281864 1.149550 0.034761 1
-5.292830 1.162317 0.031644 1
-5.288449 1.172571 0.032801 1
-5.299359 1.184858 0.029681 1
-5.294839 1.196271 0.030847 1
-5.301816 1.208409 0.028798 1
-5.289526 1.219274 0.032108 1
-5.284888 1.230612 0.033273 1
-5.291698 1.243377 0.031230 1
-5.294706 1.254725 0.030248 1
-5.297629 1.266677 0.029271 1
-5.296670 1.278322 0.029366 1
-5.276426 1.288816 0.034819 1
-5.294629 1.301601 0.029554 1
-5.297384 1.313606 0.028578 1
-5.296204 1.325832 0.028676 1
-5.291323 1.335909 0.029832 1
-5.267068 1.345640 0.036352 1
-5.292710 1.359574 0.028949 1
-5.291362 1.371782 0.029047 1
-5.290102 1.382823 0.029137 1
-5.292564 1.394905 0.028160 1
-5.279684 1.405097 0.031463 1
-5.285887 1.417661 0.029417 1
-5.284325 1.429843 0.029515 1
-5.286693 1.441379 0.028534 1
-5.281306 1.452452 0.029697 1
-5.279779 1.463460 0.029785 1
-5.247539 1.471154 0.038436 1
-5.283985 1.488337 0.027838 1
-5.293770 1.501106 0.024720 1
-5.295800 1.513333 0.023744 1
-5.282562 1.523137 0.027043 1
-5.273100 1.533480 0.029273 1
-5.282615 1.546948 0.026160 1
-5.276878 1.557888 0.027321 1
-5.290091 1.572114 0.023141 1
-5.272886 1.581022 0.027506 1
-5.267037 1.591888 0.028667 1
-5.268944 1.602973 0.027682 1
-5.270599 1.615230 0.026706 1
-5.268423 1.626778 0.026798 1
-5.251076 1.635351 0.031160 1
-5.256390 1.648341 0.029117 1
-5.257876 1.660607 0.028141 1
-5.251767 1.671329 0.029300 1
-5.250753 1.695093 0.028415 12
-5.236999 1.704108 0.031707 13
-5.226985 1.713871 0.033932 18
-5.243270 1.729501 0.028688 12
-5.240695 1.740953 0.028779 19
-5.234457 1.750952 0.029932 14
-5.231808 1.762373 0.030022 15
-5.232867 1.774683 0.029046 21
-5.233881 1.787011 0.028070 13
-5.238591 1.800279 0.026028 9
-5.217072 1.807024 0.031449 16
-5.217963 1.819335 0.030473 13
-5.218808 1.831663 0.029496 3
-5.230795 1.846937 0.025323 1
-5.209031 1.853961 0.030746 1
-5.213619 1.866732 0.028699 1
-5.206846 1.877064 0.029854 1
-5.214904 1.891475 0.026747 1
-5.215476 1.903869 0.025771 1
-5.219871 1.916764 0.023726 1
-5.198118 1.922797 0.029140 1
-5.198570 1.935170 0.028164 1
-5.198975 1.947558 0.027188 1
-5.195640 1.958854 0.027276 1
-5.192265 1.970138 0.027365 1
-5.188851 1.981411 0.027453 1
-5.185397 1.992671 0.027541 1
-5.181904 2.003919 0.027629 1
-5.174698 2.013985 0.028781 1
-5.182141 2.028745 0.025677 1
-5.167525 2.036394 0.028956 1
-5.167542 2.048789 0.027980 1
-5.167696 2.060636 0.026999 1
-5.167619 2.073056 0.026022 1
-5.160197 2.082995 0.027173 1
-5.152744 2.092896 0.028324 1
-5.141621 2.101486 0.030537 1
-5.148656 2.116434 0.027433 1
-5.148363 2.128851 0.026456 1
-5.144395 2.139969 0.026543 1
-5.125899 2.145784 0.030881 1
-5.129108 2.159493 0.028841 1
-5.128646 2.171892 0.027864 1
-5.128136 2.184301 0.026887 1
-5.116768 2.192603 0.029098 1
-5.116176 2.204996 0.028120 1
-5.108561 2.214054 0.029263 1
-5.104510 2.224484 0.029344 1
-5.099993 2.235996 0.029433 1
-5.102810 2.249815 0.027393 1
-5.091271 2.257879 0.029602 1
-5.093992 2.271717 0.027562 1
-5.085961 2.281172 0.028708 1
-5.092140 2.296525 0.025607 1
-5.087816 2.306901 0.025686 1
-5.065252 2.310804 0.031083 1
-5.075056 2.327175 0.026915 1
-5.063086 2.335510 0.029126 1
-5.065934 2.348339 0.027078 1
-5.060725 2.360250 0.027169 1
-5.052428 2.369490 0.028313 1
-5.040828 2.376567 0.030514 1
-5.039751 2.388366 0.029531 1
-5.038138 2.401248 0.028556 1
-5.026220 2.408741 0.030760 1
-5.021276 2.419431 0.030842 1
-5.019783 2.431747 0.029862 1
-5.018494 2.443538 0.028879 1
-5.016652 2.456402 0.027904 1
-5.018742 2.469885 0.025861 1
-5.006394 2.477697 0.028066 1
-4.994289 2.484908 0.030267 1
-5.003158 2.501822 0.026104 1
-4.990992 2.508975 0.028304 1
-4.989141 2.521281 0.027324 1
-4.976932 2.528337 0.029524 1
-4.975270 2.540093 0.028540 1
-4.976444 2.554682 0.026505 1
-4.971264 2.564672 0.026580 1
-4.969188 2.576968 0.025600 1
-4.953441 2.582025 0.028857 1
-4.954690 2.596106 0.026818 1
-4.945980 2.604190 0.027952 1
-4.943459 2.616965 0.026975 1
-4.934408 2.625507 0.028113 1
-4.932368 2.637227 0.027128 1
-4.919892 2.643825 0.029323 1
-4.910767 2.652249 0.030460 1
-4.908328 2.664440 0.029478 1
-5.995802 3.577986 0.028291 1
-5.983020 3.590625 0.029163 1
-5.974400 3.603947 0.029262 1
-5.974669 3.625102 0.027083 1
-5.959383 3.634066 0.028706 1
-5.952961 3.650879 0.028052 1
-5.940881 3.661913 0.028912 1
-5.934809 3.677988 0.028252 1
-5.928674 3.694053 0.027592 1
-5.925713 3.712330 0.026169 1
-5.906524 3.719451 0.028558 1
-5.897000 3.733206 0.028659 1
-5.900283 3.755952 0.025712 1
-5.887425 3.767418 0.026574 1
-5.878705 3.779738 0.026665 1
-5.859397 3.786530 0.029050 1
-5.862370 3.809319 0.026103 1
-5.843008 3.815987 0.028488 1
-5.839480 3.834163 0.027063 1
-5.841691 3.857692 0.024121 1
-5.822734 3.863513 0.026499 1
-5.809063 3.875291 0.027364 1
-5.802634 3.890401 0.026695 1
-5.801891 3.910922 0.024509 1
-5.782346 3.917148 0.026890 1
-5.775241 3.932866 0.026226 1
-5.764973 3.946162 0.026322 1
-5.757751 3.961841 0.025657 1
-5.750465 3.977506 0.024993 1
-5.737487 3.987614 0.025844 1
-5.720892 3.995874 0.027461 1
-5.713463 4.011442 0.026795 1
-5.712071 4.031940 0.024608 1
-5.695374 4.040047 0.026223 1
-5.696864 4.063040 0.023275 1
-5.680093 4.071052 0.024889 1
-5.675374 4.089045 0.023462 1
-5.655540 4.094413 0.025836 1
-5.650704 4.112362 0.024408 1
-5.648778 4.132862 0.022220 1
-5.631851 4.140600 0.023832 1
-5.617887 4.150826 0.024683 1
-5.616300 4.170667 0.022491 1
-5.608156 4.185994 0.021822 1
-5.597005 4.198705 0.021913 1
-5.579938 4.206160 0.023522 1
-5.571643 4.221390 0.022852 1
-5.563287 4.236602 0.022182 1
-5.549051 4.246517 0.023031 1
-5.549286 4.269617 0.020083 1
-5.532063 4.276803 0.021689 1
-5.520596 4.289248 0.021777 1
-5.509085 4.301652 0.021865 1
-5.500392 4.316705 0.021194 1
-5.489367 4.328423 0.021276 1
-5.483407 4.346136 0.019845 1
-5.463195 4.350254 0.022208 1
-5.454296 4.365186 0.021535 1
-5.453782 4.388312 0.018586 1
-5.430703 4.389490 0.021705 1
-5.421638 4.404337 0.021032 1
-5.406940 4.413628 0.021874 1
-5.394996 4.425635 0.021958 1
-5.385777 4.440387 0.021284 1
-5.379254 4.457913 0.019850 1
-5.356164 4.458598 0.022966 1
-5.353492 4.477691 0.020766 1
-5.340714 4.490101 0.020852 1
-5.326396 4.498454 0.021687 1
-5.316252 4.513608 0.021015 1
-5.309357 4.531005 0.019580 1
-5.288937 4.534082 0.021934 1
-5.284609 4.554293 0.019741 1
-5.272797 4.565294 0.019817 1
-5.257041 4.574516 0.020658 1
-5.244535 4.585999 0.020737 1
-5.232619 4.596867 0.020811 1
-5.224663 4.614670 0.019378 1
-5.201544 4.614329 0.022485 1
-5.194117 4.631491 0.021048 1
-5.181413 4.642754 0.021125 1
-5.172535 4.655806 0.020437 1
-5.162325 4.669956 0.019756 1
-5.148202 4.682220 0.019839 1
-5.137878 4.696304 0.019158 1
-5.116055 4.694306 0.022253 1
-5.105021 4.708844 0.021574 1
-5.094574 4.722803 0.020891 1
-5.079037 4.730700 0.021721 1
-5.074157 4.750094 0.019521 1
-5.052901 4.752376 0.021867 1
-5.046060 4.768154 0.020419 1
-5.032220 4.779435 0.020495 1
-5.014075 4.784012 0.022079 1
-5.003956 4.797183 0.021391 1
-4.987569 4.805233 0.022221 1
-4.974926 4.815247 0.022288 1
-4.968175 4.835548 0.020093 1
-4.952351 4.842919 0.020918 1
-4.934114 4.847116 0.022499 1
-4.923047 4.860588 0.021812 1
-4.909545 4.870903 0.021880 1
-4.898374 4.884306 0.021192 1
-4.880759 4.887738 0.022767 1
-4.874196 4.907360 0.020567 1
-4.858881 4.913839 0.021386 1
-4.846832 4.927601 0.020699 1
-4.829160 4.930798 0.022273 1
-4.821627 4.950834 0.020075 1
-4.810100 4.963987 0.019384 1
-4.790096 4.963813 0.021712 1
-4.780770 4.980079 0.020265 1
-4.764596 4.986681 0.021084 1
-4.755146 5.002889 0.019636 1
-4.738914 5.009386 0.020454 1
-4.724895 5.019057 0.020516 1
-4.710841 5.028680 0.020578 1
-4.699660 5.041029 0.019881 1
-4.686237 5.050088 0.019939 1
-4.669189 5.056779 0.020758 1
-4.652838 5.062931 0.021573 1
-4.637920 5.072768 0.021635 1
-4.626536 5.084914 0.020936 1
-4.610836 5.090431 0.021747 1
-4.602180 5.110034 0.019544 1
-4.585700 5.115914 0.020356 1
-4.569212 5.121729 0.021168 1
-4.557609 5.133683 0.020468 1
-4.542433 5.143171 0.020527 1
-4.525885 5.148813 0.021337 1
-4.507277 5.151040 0.022902 1
-4.498298 5.165731 0.021443 1
-4.486331 5.182171 0.019994 1
-4.465662 5.180845 0.022311 1
-4.456519 5.195448 0.020851 1
-4.438391 5.201612 0.021664 1
-4.425172 5.209374 0.021711 1
-4.413658 5.225174 0.020258 1
-4.394972 5.226898 0.021818 1
-4.386032 5.245605 0.019607 1
-4.373123 5.257463 0.018904 1
-4.354396 5.259004 0.020463 1
-4.335688 5.260466 0.022021 1
-4.326488 5.279047 0.019809 1
-4.310391 5.283421 0.020609 1
-4.297292 5.295047 0.019904 1
-4.278553 5.296257 0.021460 1
-4.269085 5.314716 0.019247 1
-4.251080 5.315403 0.020799 1
-4.245128 5.340759 0.017078 1
-4.225567 5.342132 0.018634 1
-4.208588 5.346519 0.019434 1
-4.204896 5.374928 0.014955 1
-4.186048 5.375727 0.016508 1
-4.170753 5.383466 0.016552 1
-4.152689 5.383739 0.018102 1
-4.140850 5.398404 0.016638 1
-4.123746 5.402459 0.017435 1
-4.109305 5.413888 0.016727 1
-4.095582 5.424899 0.016016 1
-4.075811 5.421318 0.018316 1
-4.058677 5.425121 0.019111 1
-4.048214 5.443086 0.016892 1
-4.027719 5.439656 0.019192 1
-4.020417 5.464684 0.015466 1
-4.010487 5.482209 0.013244 1
-3.987508 5.471084 0.017047 1
-3.975095 5.485300 0.015580 1
-3.966603 5.510604 0.011855 6
-3.953210 5.520825 0.011138 11
-3.931132 5.513345 0.014187 6
-3.912245 5.512980 0.015730 13
-3.892596 5.512876 0.017274 25
-3.880676 5.526491 0.015802 18
-3.857262 5.515049 0.019602 20
-3.840765 5.517684 0.020388 23
-3.832448 5.542383 0.016658 16
-3.807683 5.527057 0.021209 25
-3.791747 5.537757 0.020493 25
-3.772978 5.536821 0.022031 27
-3.764484 5.557105 0.019050 23
-3.744266 5.552396 0.021340 27
-3.730396 5.566228 0.019867 26
-3.715044 5.576351 0.019147 22
-3.702044 5.585512 0.018422 27
-3.682460 5.584505 0.019959 27
-3.668607 5.593870 0.019234 25
-3.651751 5.600097 0.019264 26
-3.638626 5.609078 0.018538 25
-3.621191 5.611208 0.019318 26
-3.605077 5.616974 0.019346 16
-3.585034 5.611566 0.021631 28
-3.570209 5.620917 0.020905 21
-3.554531 5.630498 0.020180 21
-3.540424 5.639476 0.019451 20
-3.520900 5.637785 0.020983 11
-3.509220 5.654116 0.018749 13
-3.488055 5.644561 0.021783 9
-3.472226 5.653863 0.021055 9
-3.460376 5.670072 0.018820 6
-3.446061 5.678762 0.018089 4
-3.430886 5.687666 0.017359 2
-3.412528 5.689268 0.018135 1
-3.398110 5.697812 0.017403 1
-3.381696 5.702799 0.017424 1
-3.365264 5.707729 0.017444 1
-3.346598 5.705063 0.018968 1
-3.333444 5.721189 0.016731 1
-3.315866 5.722174 0.017502 1
-3.301505 5.734435 0.016016 1
-3.278629 5.716379 0.020547 1
-3.265278 5.732313 0.018308 1
-3.248744 5.736836 0.018325 1
-3.234867 5.744652 0.017587 1
-3.218290 5.749069 0.017603 1
-3.201698 5.753428 0.017619 1
-3.186068 5.761535 0.016882 1
-3.168468 5.761973 0.017648 1
-3.151831 5.766158 0.017662 1
-3.134241 5.766470 0.018428 1
-3.117589 5.770535 0.018441 1
-3.100922 5.774543 0.018453 1
-3.083343 5.774668 0.019218 1
-3.070201 5.793867 0.016221 1
-3.052547 5.789856 0.017736 1
-3.035813 5.793637 0.017746 1
-3.018221 5.793522 0.018508 1
-3.000643 5.793343 0.019270 1
-2.984716 5.800785 0.018527 1
-2.967944 5.804328 0.018535 1
-2.951952 5.811661 0.017791 1
-2.933587 5.807389 0.019303 1
-2.917557 5.814607 0.018558 1
-2.899987 5.814060 0.019317 1
-2.884645 5.825026 0.017819 1
-2.866341 5.820497 0.019328 1
-2.848790 5.819763 0.020085 1
-2.834046 5.834431 0.017834 1
-2.817842 5.841317 0.017086 1
-2.799589 5.836536 0.018594 1
-2.783539 5.839290 0.018597 1
-2.767278 5.846006 0.017848 1
-2.749089 5.841035 0.019354 1
-2.732795 5.847636 0.018603 1
-2.715862 5.850299 0.018604 1
-2.699509 5.856789 0.017853 1
-2.683697 5.867108 0.016350 1
-2.664721 5.861948 0.017853 1
-2.647489 5.856473 0.019356 1
-2.629989 5.854948 0.020107 1
-2.613553 5.861146 0.019353 1
-2.598441 5.871074 0.017847 1
-2.580931 5.869372 0.018596 1
-2.564887 5.879303 0.017089 1
-2.548313 5.885282 0.016333 1
-2.529884 5.875595 0.018585 1
-2.512854 5.877550 0.018580 1
-2.495389 5.875541 0.019327 1
-2.478774 5.881282 0.018569 1
-2.462126 5.886968 0.017811 1
-2.444669 5.884777 0.018556 1
-2.427981 5.890346 0.017797 1
-2.410541 5.888033 0.018541 1
-2.396566 5.905074 0.015526 1
-2.377578 5.894894 0.017772 1
-2.361336 5.896247 0.017764 1
-2.342769 5.889848 0.019258 1
-2.326837 5.895004 0.018496 1
-2.309165 5.900230 0.017733 1
-2.292050 5.901415 0.017721 1
-2.276138 5.894589 0.019215 1
-2.259142 5.911397 0.016194 1
-2.240683 5.904611 0.017685 1
-2.225479 5.909388 0.016921 1
-2.207011 5.918214 0.015402 1
-2.189286 5.907269 0.017644 1
-2.173862 5.907962 0.017631 1
-2.156878 5.912600 0.016864 1
-2.138864 5.913284 0.016847 1
-2.122562 5.913846 0.016832 1
-2.104428 5.910478 0.017567 1
-2.087584 5.922730 0.015293 1
-2.071844 5.911320 0.017534 1
-2.053835 5.911693 0.017515 1
-2.036682 5.911986 0.017496 1
-2.018577 5.904374 0.018981 1
-2.001549 5.916329 0.016704 1
-1.985239 5.916437 0.016685 1
-1.968069 5.916491 0.016665 1
-1.950908 5.912556 0.017396 1
-1.933773 5.908562 0.018127 1
-1.917455 5.912373 0.017354 1
-1.899443 5.912179 0.017330 1
-1.882165 5.919790 0.015802 1
-1.865061 5.915557 0.016531 1
-1.848931 5.907356 0.018013 1
-1.830732 5.914766 0.016483 1
-1.814544 5.910380 0.017212 1
-1.797527 5.905911 0.017939 1
-1.779965 5.917089 0.015655 1
-1.763109 5.908575 0.017134 1
-1.746140 5.903929 0.017860 1
-1.729016 5.903149 0.017832 1
-1.711697 5.906232 0.017052 1
-1.694141 5.913177 0.015518 1
-1.677662 5.900449 0.017747 1
-1.660551 5.899430 0.017718 1
-1.643794 5.906247 0.016185 1
-1.626131 5.912948 0.014649 1
-1.609815 5.899993 0.016876 1
-1.593292 5.890902 0.018351 1
-1.576214 5.889588 0.018319 2
-1.558501 5.896045 0.016781 1
-1.541739 5.890696 0.017501 1
-1.524315 5.893115 0.016715 1
-1.507592 5.887649 0.017435 1
-1.492232 5.886199 0.017404 1
-1.473931 5.888358 0.016615 1
-1.456462 5.890535 0.015827 1
-1.438971 5.892650 0.015038 1
-1.424027 5.879176 0.017263 1
-1.407024 5.869368 0.018731 1
-1.390418 5.871406 0.017943 1
-1.370681 5.884882 0.014891 1
-1.353626 5.882792 0.014853 1
-1.338068 5.868950 0.017074 1
-1.321579 5.862851 0.017788 1
-1.305125 5.856695 0.018502 1
-1.286557 5.866050 0.016203 1
-1.270417 5.863786 0.016165 1
-1.253436 5.861346 0.016124 1
-1.239351 5.839417 0.019849 1
-1.220939 5.852532 0.016796 1
-1.203997 5.849919 0.016754 1
-1.184365 5.858750 0.014449 1
-1.168665 5.848254 0.015913 1
-1.153874 5.837849 0.017378 1
-1.134823 5.842604 0.015825 1
-1.120278 5.836113 0.016539 1
-1.101866 5.836867 0.015738 1
-1.086522 5.830125 0.016448 1
-1.070370 5.823179 0.017156 1
-1.051966 5.823743 0.016354 1
-1.035126 5.820540 0.016307 1
-1.018387 5.821299 0.015508 1
-1.002321 5.814125 0.016214 1
-0.985454 5.806728 0.016917 1
-0.967882 5.807141 0.016115 1
-0.951906 5.799800 0.016820 1
-0.936807 5.792584 0.017526 1
-0.919244 5.792819 0.016722 1
-0.900823 5.796825 0.015164 1
-0.887489 5.781783 0.017378 1
-0.868218 5.785476 0.015815 1
-0.849742 5.789287 0.014255 1
-0.835720 5.773906 0.016465 1
-0.820800 5.766326 0.017169 1
-0.804162 5.762317 0.017116 1
-0.785769 5.761859 0.016305 1
-0.768194 5.761538 0.015497 1
-0.753369 5.753748 0.016199 1
-0.737753 5.745699 0.016899 1
-0.717223 5.756604 0.013825 1
-0.704637 5.737042 0.016787 1
-0.684032 5.747804 0.013712 1
-0.670552 5.731946 0.015919 1
-0.657167 5.716052 0.018126 1
-0.640471 5.715485 0.017316 3
-0.609473 5.702610 0.017957 9
-0.591142 5.701397 0.017141 8
-0.575841 5.692818 0.017836 9
-0.541647 5.690801 0.016209 11
-0.526753 5.678054 0.017655 18
-0.513563 5.665767 0.019107 18
-0.494115 5.667927 0.017532 15
-0.474259 5.674010 0.015204 13
-0.458377 5.673057 0.014392 29
-0.440437 5.667252 0.014323 23
-0.427000 5.658720 0.015021 26
-0.409116 5.652795 0.014950 27
-0.394500 5.647896 0.014892 23
-0.377922 5.638128 0.015577 26
-0.356966 5.651704 0.011740 20
-0.349763 5.620106 0.016963 26
-0.334941 5.610748 0.017653 28
-0.314901 5.616146 0.015319 28
-0.300119 5.606675 0.016008 26
-0.281358 5.608232 0.014429 26
-0.266630 5.598654 0.015117 26
-0.247282 5.604057 0.012784 20
-0.238113 5.579659 0.016495 28
-0.215758 5.588003 0.013398 25
-0.196331 5.593194 0.011064 20
-0.179500 5.586695 0.010990 17
-0.163493 5.580448 0.010919 16
-0.130887 5.571754 0.010023 6
-0.109056 5.579908 0.006926 3
-0.099001 5.558865 0.009879 4
-0.087574 5.541440 0.012075 2
-0.067205 5.545754 0.009732 3
-0.052861 5.535493 0.010415 2
-0.035502 5.532422 0.009584 2
-0.023564 5.518788 0.011027 1
-0.007007 5.511656 0.010948 1
0.007167 5.501207 0.011629 1
0.020507 5.491061 0.012314 1
0.039368 5.491295 0.010724 1
0.048613 5.469949 0.013676 1
0.064990 5.462553 0.013595 1
0.084680 5.466528 0.011250 1
0.095333 5.448659 0.013444 1
0.114170 5.448576 0.011851 1
0.131362 5.444860 0.011015 1
0.145190 5.433980 0.011694 1
0.162356 5.430144 0.010857 1
0.172696 5.412091 0.013050 1
0.189810 5.408148 0.012212 1
0.198466 5.390790 0.014412 1
0.217060 5.385985 0.013566 1
0.234343 5.386149 0.011977 1
0.242582 5.364427 0.014927 1
0.259589 5.360210 0.014087 1
0.273012 5.348937 0.014762 1
0.288187 5.341111 0.014680 1
0.299704 5.326268 0.016113 1
0.318453 5.325303 0.014513 1
0.331705 5.313849 0.015187 1
0.341203 5.295428 0.017378 1
0.359917 5.294281 0.015777 1
0.378651 5.293054 0.014175 1
0.387967 5.274528 0.016365 1
0.406680 5.273178 0.014762 1
0.417766 5.258025 0.016193 1
0.433803 5.253537 0.015352 1
0.448643 5.245152 0.015265 1
0.457614 5.226481 0.017455 1
0.478236 5.228225 0.015090 1
0.487077 5.209493 0.017279 1
0.503745 5.204312 0.016432 1
0.516419 5.192299 0.017103 1
0.533051 5.187002 0.016254 1
0.547659 5.178270 0.016165 1
0.558177 5.162763 0.017594 1
0.576782 5.160654 0.015985 1
0.589245 5.148422 0.016654 1
0.611974 5.152858 0.013524 1
0.622310 5.137184 0.014952 1
0.628394 5.114835 0.017899 1
0.644130 5.109545 0.017052 1
0.664796 5.110363 0.014680 1
0.674893 5.094562 0.016107 1
0.697709 5.098526 0.012974 1
0.699139 5.069480 0.017441 1
0.711180 5.056887 0.018107 1
0.727500 5.050809 0.017253 1
0.745988 5.047935 0.015638 1
0.764489 5.044980 0.014022 1
0.771995 5.025685 0.016208 1
0.788251 5.019365 0.015352 1
0.797824 5.003271 0.016777 1
0.811788 4.993616 0.016681 1
0.825719 4.983912 0.016584 1
0.839616 4.974160 0.016487 1
0.852786 4.964851 0.016395 1
0.864337 4.951807 0.017058 1
0.882703 4.948300 0.015438 1
0.891872 4.931986 0.016862 1
0.907900 4.925177 0.016002 1
0.916943 4.908808 0.017426 1
0.930578 4.898738 0.017326 1
0.944176 4.888620 0.017227 1
0.957740 4.878456 0.017127 1
0.966533 4.861978 0.018550 1
0.977624 4.848611 0.019211 1
0.998217 4.847678 0.016825 1
1.016438 4.843540 0.015200 1
1.022610 4.823825 0.017384 1
1.035947 4.813387 0.017282 1
1.044382 4.796738 0.018704 1
1.061186 4.793427 0.017087 1
1.073284 4.778729 0.017737 1
1.088928 4.771171 0.016871 1
1.093344 4.752423 0.019065 1
1.104599 4.738163 0.019719 1
1.125125 4.736533 0.017327 1
1.134999 4.723256 0.017991 1
1.156184 4.720924 0.015592 1
1.159051 4.698000 0.018539 1
1.173841 4.690630 0.017676 1
1.184164 4.676677 0.018333 1
1.197627 4.665125 0.018222 1
1.206564 4.652213 0.018889 1
1.211565 4.632250 0.021073 1
1.228087 4.622993 0.020192 1
1.240722 4.611839 0.020085 1
1.253317 4.600641 0.019978 1
1.264620 4.590525 0.019881 1
1.273130 4.572283 0.021290 1
1.296151 4.572594 0.018127 1
1.294115 4.547857 0.021849 1
1.313045 4.541107 0.020201 1
1.322722 4.526779 0.020857 1
1.337701 4.518163 0.019983 1
1.347278 4.503768 0.020638 1
1.360976 4.496208 0.019775 1
1.377095 4.486267 0.018889 1
1.386531 4.471762 0.019543 1
1.394699 4.458406 0.020208 1
1.401880 4.440460 0.021621 1
1.418776 4.434895 0.019985 1
1.422476 4.414696 0.022169 1
1.440515 4.407838 0.020521 1
1.441283 4.384850 0.023470 1
1.458662 4.378480 0.021827 1
1.467056 4.364367 0.022486 1
1.478787 4.352380 0.022373 1
1.487659 4.337618 0.023026 1
1.504948 4.331010 0.021381 1
1.508633 4.310140 0.023559 1
1.516753 4.295910 0.024217 1
1.528244 4.283751 0.024103 1
1.545421 4.276921 0.022457 1
1.553973 4.261986 0.023109 1
1.562463 4.247031 0.023760 1
1.573218 4.235329 0.023651 1
1.587399 4.225618 0.022770 1
1.595174 4.211197 0.023426 1
1.604009 4.195517 0.024071 1
1.612221 4.180438 0.024722 1
1.617435 4.162735 0.026140 1
1.634353 4.155415 0.024490 1
1.645353 4.142845 0.024373 1
1.646871 4.123145 0.026563 1
1.661276 4.112464 0.025674 1
1.666162 4.094695 0.027091 1
1.676950 4.082015 0.026974 1
1.690157 4.072466 0.026095 1
1.691843 4.052136 0.028279 1
1.702483 4.039366 0.028162 1
1.710052 4.024058 0.028811 1
1.729696 4.018698 0.026390 1
1.728047 3.995876 0.029343 1
1.741542 3.985450 0.028456 1
1.748888 3.970049 0.029105 1
1.756172 3.954633 0.029754 1
1.772625 3.946514 0.028099 1
1.776724 3.928610 0.029516 1
1.779727 3.912019 0.030945 1
1.789877 3.898944 0.030825 1
1.803596 3.887571 0.029931 1
1.810040 3.872687 0.030585 1
1.820552 3.858846 0.030459 1
1.827380 3.843267 0.031107 1
1.837290 3.830026 0.030987 1
1.859760 3.826110 0.027789 1
1.865959 3.811095 0.028443 1
1.873077 3.794731 0.029084 1
1.872805 3.775079 0.031277 1
1.886142 3.763305 0.030380 1
1.889389 3.745290 0.031797 1
1.914955 3.743200 0.027826 1
1.918100 3.725129 0.029243 1
1.924381 3.709321 0.029890 1
1.932880 3.697101 0.029779 1
1.943216 3.682130 0.029644 1
1.955802 3.670702 0.028750 1
1.958152 3.653286 0.030174 1
1.960430 3.635884 0.031597 1
1.973792 3.622990 0.030690 1
1.982932 3.609239 0.030567 1
1.991117 3.596836 0.030455 1
2.006733 3.587325 0.028789 1
2.000188 3.561384 0.032506 1
2.012412 3.549667 0.031611 1
2.020409 3.537171 0.031499 1
2.032563 3.525362 0.030602 1
2.048442 3.514892 0.028928 1
2.053876 3.498801 0.029574 1
2.055911 3.480634 0.030991 1
2.067034 3.470060 0.030107 1
2.073147 3.452530 0.030740 1
2.084196 3.441879 0.029854 1
2.076309 3.416924 0.033582 1
2.094420 3.409557 0.031146 1
2.096060 3.391387 0.032564 1
2.114959 3.382462 0.030114 1
2.116063 3.364981 0.031538 1
2.111119 3.342168 0.034495 1
2.122683 3.329891 0.033596 1
2.137623 3.319502 0.031923 1
2.138865 3.301325 0.033342 1
2.146881 3.287000 0.033214 1
2.144552 3.266936 0.035406 1
2.159325 3.256374 0.033732 1
2.166793 3.242698 0.033611 1
2.178055 3.230145 0.032710 1
2.178907 3.211970 0.034129 1
2.186611 3.197506 0.034001 1
2.201206 3.186679 0.032325 1
2.201868 3.168497 0.033744 1
2.209044 3.154680 0.033622 1
2.216548 3.140111 0.033493 1
2.220505 3.123732 0.034138 1
2.227901 3.109123 0.034010 1
2.231738 3.092728 0.034655 1
2.256960 3.086081 0.030647 1
2.257184 3.067876 0.032066 1
2.256974 3.050431 0.033493 1
2.264113 3.035695 0.033363 1
2.267664 3.019236 0.034008 1
2.271151 3.002777 0.034653 1
2.288773 2.993012 0.032198 1
2.292157 2.976505 0.032843 1
2.291916 2.958349 0.034264 1
2.301961 2.945872 0.033364 1
2.308398 2.931725 0.033241 1
2.319036 2.917675 0.032328 1
2.314962 2.897926 0.034524 1
2.314391 2.879815 0.035945 1
2.334985 2.871926 0.032717 1
2.334302 2.853795 0.034139 1
2.344682 2.839588 0.033225 1
2.343546 2.822226 0.034653 1
2.350204 2.806437 0.034515 1
2.359800 2.793642 0.033614 1
2.366353 2.777794 0.033476 1
2.368293 2.762703 0.034134 1
2.370792 2.746106 0.034780 1
2.381115 2.730921 0.033858 1
2.390786 2.717201 0.032949 1
2.389161 2.699889 0.034378 1
2.395076 2.684694 0.034246 1
2.396985 2.668829 0.034898 1
2.399126 2.652209 0.035544 1
2.408546 2.638364 0.034634 1
2.418490 2.622945 0.033711 1
2.423574 2.609179 0.033592 1
2.429173 2.593864 0.033459 1
2.423648 2.574528 0.035661 1
2.429126 2.559214 0.035529 1
2.438519 2.544420 0.034611 1
2.443357 2.530591 0.034492 1
2.441265 2.512642 0.035916 1
2.450763 2.496996 0.034992 1
2.452252 2.480331 0.035638 1
2.461123 2.466160 0.034726 1
2.458263 2.449799 0.036165 1
2.459576 2.433146 0.036811 1
2.483229 2.423731 0.032782 1
2.480950 2.405050 0.034201 1
2.489334 2.391491 0.033295 1
2.482934 2.372451 0.035500 1
2.495207 2.359236 0.033807 1
2.484916 2.339114 0.036793 1
2.500845 2.326966 0.034320 1
2.490411 2.306931 0.037307 1
2.510017 2.295785 0.034053 1
2.514521 2.280170 0.033920 1
2.515198 2.263466 0.034566 1
2.523366 2.248894 0.033652 1
2.523926 2.232186 0.034299 1
2.535776 2.218592 0.032604 1
2.536013 2.202652 0.033258 1
2.536608 2.185153 0.033898 1
2.540521 2.170232 0.033771 1
2.540788 2.153530 0.034418 1
2.544796 2.137809 0.034284 1
2.541138 2.120163 0.035713 1
2.541221 2.103499 0.036360 1
2.556488 2.090563 0.033882 1
2.560276 2.074787 0.033748 1
2.571644 2.060803 0.032050 1
2.563865 2.042308 0.034262 1
2.559836 2.024756 0.035692 1
2.563394 2.008970 0.035558 1
2.570726 1.994019 0.034642 1
2.574177 1.978195 0.034508 1
2.581408 1.963180 0.033591 1
2.572904 1.946475 0.035818 1
2.591552 1.933829 0.032554 1
2.590949 1.917149 0.033202 1
2.594131 1.901254 0.033068 1
2.589559 1.883836 0.034499 1
2.596477 1.868689 0.033582 1
2.595635 1.852046 0.034231 1
2.602447 1.836851 0.033314 1
2.593771 1.818810 0.035530 1
2.604333 1.804283 0.033829 1
2.610846 1.789816 0.032918 1
2.621316 1.775178 0.031216 1
2.624002 1.759178 0.031081 1
2.618891 1.741897 0.032515 1
2.621588 1.725106 0.032374 1
2.627975 1.709714 0.031455 1
2.626434 1.693897 0.032112 1
2.636594 1.679043 0.030408 1
2.631183 1.661854 0.031843 1
2.625708 1.644712 0.033278 1
