# .PCD v.7 - Point Cloud Data file format
VERSION .7
FIELDS x y z intensity
SIZE 4 4 4 1
TYPE F F F U
COUNT 1 1 1 1
WIDTH 1527
HEIGHT 1
VIEWPOINT 0 0 0 1 0 0 0
POINTS 1527
DATA ascii
57.660542 -91.478981 4.959805 63
57.422760 -91.840858 4.965478 63
52.545330 -89.625450 4.794230 63
52.177422 -89.719788 4.789485 63
51.892387 -89.949379 4.790666 63
51.408680 -89.849182 4.777644 63
51.514034 -90.731941 4.807099 63
51.003139 -90.584503 4.792164 63
50.696308 -90.779305 4.792031 63
2.106354 -10.218175 1.311259 0
2.058059 -10.195894 1.309745 1
2.026010 -10.210003 1.309705 0
1.985956 -10.205666 1.308929 0
1.956185 -10.314181 1.312092 2
1.937775 -10.356714 1.313233 1
1.906705 -10.374090 1.313343 1
1.854077 -10.344016 1.311537 0
1.676214 -9.997923 1.297225 0
2.109247 -11.258688 1.346159 1
2.126621 -11.406703 1.351418 1
1.815315 -10.721688 1.323719 1
1.742284 -10.634370 1.319711 0
1.566541 -10.777590 1.322159 1
1.492961 -10.787194 1.321508 0
1.433622 -10.947899 1.326267 1
1.331227 -10.982727 1.326181 1
1.252917 -10.979141 1.325097 3
1.202177 -10.940982 1.323160 2
1.182794 -11.005970 1.325189 1
1.158076 -11.043157 1.326192 1
1.142082 -11.115186 1.328516 3
1.069242 -11.003825 1.323791 1
0.681921 -9.960095 1.282917 1
22.715679 -84.465988 4.137228 63
1.188216 -11.923785 1.357324 1
22.061674 -84.390694 4.127451 63
0.590309 -10.120140 1.287533 0
0.484540 -11.522861 1.336180 1
0.426104 -11.446244 1.332936 1
0.466777 -11.957735 1.351541 1
0.371445 -11.708718 1.341843 4
0.296968 -11.716795 1.341524 2
0.265401 -11.752125 1.342539 3
0.223059 -11.736483 1.341647 1
-0.226151 -11.163133 1.317805 0
-0.217908 -11.413227 1.326892 1
-0.240453 -11.490035 1.329527 1
-0.341228 -11.105625 1.315002 0
-0.317944 -11.486570 1.328930 1
-0.401641 -11.192264 1.317780 0
-0.417762 -11.312083 1.322030 1
-0.541544 -10.732500 1.300322 0
-0.575409 -10.749645 1.300759 0
-0.603715 -10.782014 1.301784 1
-0.610185 -10.984777 1.309115 1
-0.663379 -10.867013 1.304568 0
8.594849 -81.063538 3.902148 63
-0.565063 -12.144289 1.351495 1
8.093011 -81.591667 3.919016 63
7.428218 -80.915504 3.891466 63
-0.815778 -11.349343 1.321437 1
-1.302581 -11.093090 1.310508 0
-1.396060 -11.335381 1.319192 0
-1.431846 -11.341416 1.319349 0
-13.511393 -75.573334 3.719686 63
-13.798966 -75.706413 3.726467 63
-13.983691 -75.195183 3.709239 63
-14.250313 -75.200226 3.711312 63
-14.718629 -76.398598 3.758039 63
-15.012177 -76.531006 3.764988 63
-15.218848 -76.162300 3.753224 63
-15.259952 -74.884232 3.707410 63
-15.494712 -74.784798 3.705653 63
-15.739212 -74.739639 3.705962 63
-15.959859 -74.498802 3.699066 63
-19.726477 -73.480293 3.697148 63
-20.080420 -73.825310 3.713045 63
-20.351011 -73.774055 3.714044 63
-20.716932 -74.200745 3.733039 63
-4.809138 -11.845827 1.353613 1
-5.000831 -11.806702 1.354359 1
-5.040628 -11.803855 1.354716 1
-5.083737 -11.812392 1.355519 1
-5.139171 -11.862995 1.357950 1
-5.162369 -11.802107 1.356090 1
-5.109360 -11.492669 1.344604 1
-5.211503 -11.699944 1.353106 1
-5.282525 -11.799561 1.357466 2
-5.116373 -11.127210 1.331908 3
-5.362452 -11.791643 1.358191 2
-5.415683 -11.829389 1.360184 8
-5.262089 -11.097922 1.332753 11
-5.218854 -10.847157 1.323479 3
-5.326066 -11.055931 1.332141 7
-5.334387 -10.964671 1.329092 6
-5.437447 -11.039454 1.333080 1
-5.425222 -10.891443 1.327806 1
-5.576122 -11.211343 1.340930 1
-5.762752 -11.178018 1.342464 1
-5.767827 -10.572684 1.321937 0
-6.065995 -11.224154 1.348625 1
-6.082180 -11.161694 1.346767 1
-6.246330 -11.258695 1.352651 1
-6.246521 -11.159010 1.349306 1
-6.593776 -11.182178 1.355909 1
-6.658740 -10.963055 1.349820 1
-7.638661 -12.228863 1.409082 3
-7.861353 -12.177266 1.411685 15
-5.878603 -7.656269 1.228514 0
-5.858384 -7.519723 1.223841 0
-5.785686 -7.344342 1.216854 0
-5.852049 -7.407056 1.220219 0
-5.793343 -7.260361 1.214427 0
-6.027151 -7.590623 1.229669 0
-5.952311 -7.420784 1.222822 0
-5.875365 -7.247445 1.215824 0
-6.115821 -7.582668 1.231376 0
-6.010567 -7.365529 1.222423 0
-6.229265 -7.462359 1.230290 0
-5.730858 -6.492539 1.189795 0
-5.758987 -6.492661 1.190461 0
-5.766690 -6.463072 1.189770 0
-5.787950 -6.453169 1.189983 0
-5.811483 -6.446455 1.190348 0
-5.860414 -6.475535 1.192374 0
-5.856227 -6.429478 1.190928 0
-5.879746 -6.422477 1.191294 1
-5.902321 -6.416059 1.191658 1
-5.916422 -6.395943 1.191420 0
-5.944620 -6.395129 1.192089 0
-6.804498 -7.519162 1.245669 0
-6.935736 -7.645756 1.252557 0
-6.838877 -7.468629 1.245076 0
-6.868584 -7.461265 1.245610 0
-6.307500 -6.677775 1.209219 0
-6.316507 -6.650771 1.208681 0
-6.341017 -6.641996 1.209054 0
-6.323802 -6.579481 1.206854 0
-6.303740 -6.514008 1.204501 0
-6.389736 -6.583677 1.208663 0
-7.249671 -7.626036 1.259965 0
-7.152802 -7.457880 1.252774 0
-7.177748 -7.442966 1.253010 0
-7.280754 -7.524153 1.257948 0
-6.547844 -6.579686 1.212669 0
-6.563711 -6.561489 1.212588 0
-7.388970 -7.471260 1.259357 0
-6.595746 -6.482807 1.211292 0
-6.521763 -6.356942 1.205897 0
-6.633763 -6.450589 1.211442 0
-6.657897 -6.440444 1.211821 0
-6.679402 -6.427174 1.212048 0
-6.721879 -6.437926 1.213493 0
-6.755633 -6.440265 1.214478 0
-7.605562 -7.364174 1.262343 0
-7.487920 -7.185347 1.254369 0
-7.501399 -7.157224 1.254000 0
-7.493322 -7.105345 1.252413 0
-7.487639 -7.056556 1.250978 0
-7.491431 -7.020633 1.250147 0
-7.493378 -6.980852 1.249168 0
-7.486957 -6.932342 1.247731 0
-7.443072 -6.842115 1.244162 0
-7.393860 -6.751265 1.240430 0
-7.312096 -6.625058 1.234870 0
-7.193643 -6.461903 1.227321 0
-7.173827 -6.403394 1.225266 0
-7.237059 -6.431256 1.227792 0
-7.294968 -6.453017 1.230015 0
-7.333494 -6.454470 1.231169 0
-7.360857 -6.444347 1.231713 0
-7.404182 -6.452043 1.233170 0
-7.428764 -6.438793 1.233562 0
-7.496852 -6.466686 1.236253 0
-7.540517 -6.473662 1.237714 0
-7.568091 -6.462671 1.238261 0
-7.625289 -6.478411 1.240344 0
-7.661573 -6.475382 1.241353 0
-7.723897 -6.497037 1.243741 0
-16.366133 -14.670817 1.700037 3
-16.061918 -14.288664 1.681710 3
-15.936051 -14.078250 1.672881 3
-17.016705 -14.900107 1.725185 7
-16.731716 -14.536912 1.707931 3
-17.125751 -14.614274 1.721830 3
-13.244689 -10.985150 1.517965 86
-13.706470 -11.252985 1.538462 95
-17.006826 -13.858690 1.700865 3
-17.703438 -14.360012 1.734063 8
-17.844608 -14.385006 1.739084 4
-17.986145 -14.409176 1.744109 8
-17.989748 -14.317511 1.742199 4
-17.043627 -13.442125 1.692786 3
-71.481270 -57.986771 4.407966 63
-71.400108 -57.536461 4.395565 63
-18.563917 -14.417839 1.762777 4
-71.549759 -56.855400 4.385676 63
-18.307558 -13.828825 1.741885 4
-18.500299 -13.887345 1.749404 4
-18.624115 -13.890842 1.753525 4
-18.130199 -13.418634 1.727481 3
-77.280167 -56.436459 4.565076 63
-77.579628 -56.271431 4.571757 63
-78.473961 -56.516693 4.606575 63
-78.300552 -55.965080 4.589810 63
-78.427017 -55.672230 4.588284 63
-7.577019 -3.982702 1.188299 23
-7.451563 -3.843262 1.181629 0
-7.575161 -3.882637 1.186746 0
-8.927357 -4.395537 1.244014 0
-9.115450 -4.456509 1.251846 0
-8.324631 -3.834451 1.214036 0
-9.183956 -3.807790 1.246508 0
-9.194121 -3.781440 1.246619 0
-9.241555 -3.769240 1.248321 0
-9.049060 -3.668045 1.239833 0
-9.459124 -3.792418 1.256972 0
-9.445765 -3.759387 1.256120 0
-9.132278 -3.615822 1.242529 0
-9.118729 -3.582787 1.241678 0
-9.485326 -3.685287 1.256927 0
-9.295222 -3.587509 1.248590 0
-9.292369 -3.559360 1.248213 0
-8.287587 -3.112729 1.204864 0
-7.714290 -2.898681 1.180510 0
-7.671716 -2.861677 1.178520 0
-7.693010 -2.847746 1.179238 0
-7.511416 -2.746042 1.171247 34
-7.536197 -2.733665 1.172124 21
-7.572422 -2.724649 1.173482 21
-9.487517 -3.281942 1.253500 5
-9.457063 -3.244367 1.252006 1
-9.457109 -3.216065 1.251794 0
-9.422508 -3.177749 1.250139 0
-9.460725 -3.160644 1.251530 0
-9.387390 -3.111722 1.248269 0
-8.363320 -2.796593 1.205359 1
-8.338348 -2.766985 1.204162 0
-8.321263 -2.738558 1.203290 0
-8.449317 -2.723907 1.208301 10
-8.474266 -2.707551 1.209194 3
-9.202661 -2.843809 1.239152 0
-9.018963 -2.771246 1.231368 0
-9.195495 -2.789967 1.238550 0
-9.135892 -2.747594 1.235921 0
-9.311193 -2.736092 1.242898 3
-43.816139 -10.535303 2.670869 21
-43.845173 -10.388405 2.671311 21
-45.641850 -10.630802 2.744878 23
-45.057930 -10.344746 2.719993 23
-44.906464 -10.155269 2.713022 22
-44.378647 -9.888373 2.690532 22
-46.468521 -10.163810 2.776169 24
-46.435108 -9.987320 2.774092 24
-46.081905 -9.756015 2.758878 24
-46.208683 -9.628882 2.763526 24
-46.018600 -9.432497 2.755096 23
-46.071243 -9.283210 2.756700 23
-45.860012 -9.085228 2.747451 23
-64.494804 -5.214200 3.507765 63
-64.281677 -4.981563 3.499306 63
-76.742867 -2.650250 4.018498 63
100.749878 20.813709 7.091517 2
100.794441 20.467154 7.088474 122
100.868904 20.108215 7.086995 7
170.227676 5.194936 10.911275 63
16.207817 -2.134631 1.988317 1
15.909136 -2.175968 1.971098 34
15.916746 -2.242413 1.971525 25
16.008205 -2.308659 1.976792 24
16.011578 -2.372107 1.977001 25
15.966950 -2.431840 1.974459 16
15.902226 -2.489645 1.970773 22
15.984537 -2.559618 1.975565 25
16.030499 -2.630139 1.978281 25
16.029049 -2.690288 1.978273 24
16.042999 -2.755120 1.979168 25
15.973268 -2.811750 1.975256 24
16.026503 -2.880625 1.978440 24
16.059958 -2.944623 1.980492 24
16.057114 -3.008087 1.980471 24
16.061983 -3.072456 1.980908 27
16.015059 -3.130842 1.978372 25
16.039312 -3.197539 1.979952 22
16.083136 -3.266894 1.982674 24
16.051430 -3.326962 1.981054 25
15.983890 -3.382156 1.977380 31
15.912227 -3.436373 1.973479 34
51.488483 -8.606668 4.027583 20
48.350616 -8.700259 3.848850 16
48.157822 -8.850092 3.838582 16
50.576679 -9.406378 3.979269 19
49.940308 -9.686419 3.944524 18
50.307392 -9.935434 3.966821 19
49.784691 -10.573474 3.941045 18
3.155777 -2.636910 1.245461 0
3.091141 -2.655761 1.242163 1
2.712196 -2.643629 1.221247 0
2.517942 -2.594359 1.209919 0
2.586179 -2.688484 1.215087 0
2.299294 -2.635285 1.198706 0
2.233895 -2.627599 1.195050 0
2.213347 -2.636646 1.194095 0
2.140377 -2.626079 1.189989 0
2.216840 -2.671846 1.194882 0
2.199911 -2.682146 1.194152 0
2.190379 -2.695313 1.193871 0
2.136369 -2.690488 1.190896 0
1.916145 -2.648645 1.178388 0
1.814704 -2.622097 1.172501 0
1.809091 -2.635403 1.172451 0
2.174231 -2.807470 1.195057 0
1.977350 -2.739615 1.183340 0
1.696811 -2.633661 1.166470 0
1.998453 -2.781135 1.185255 0
2.014181 -2.804816 1.186547 0
1.632642 -2.650382 1.163413 0
1.656034 -2.676236 1.165158 0
1.708051 -2.716206 1.168691 0
1.517470 -2.643151 1.157224 0
1.486726 -2.643008 1.155612 0
1.773841 -2.792707 1.173698 0
1.446446 -2.653625 1.153731 0
1.447931 -2.669091 1.154133 0
1.388490 -2.654489 1.150734 0
1.411495 -2.680287 1.152479 0
1.301719 -2.641140 1.145949 0
1.249519 -2.629609 1.143000 0
1.226021 -2.632016 1.141840 0
1.263173 -2.664838 1.144479 0
1.187650 -2.654774 1.140373 1
1.164190 -2.656716 1.139215 1
1.144297 -2.660361 1.138280 1
1.113814 -2.658309 1.136677 1
1.090439 -2.659809 1.135520 1
1.070614 -2.663049 1.134587 1
1.047576 -2.663743 1.133434 1
1.020772 -2.662921 1.132056 1
1.001014 -2.665774 1.131124 1
0.984768 -2.670441 1.130416 1
0.961550 -2.671125 1.129263 1
0.955772 -2.681453 1.129225 1
0.925634 -2.677976 1.127626 1
0.906250 -2.679746 1.126699 1
0.886597 -2.681909 1.125771 1
0.877327 -2.689970 1.125510 1
0.847353 -2.685885 1.123915 1
0.824322 -2.685670 1.122765 1
0.804762 -2.687355 1.121838 1
0.792075 -2.693029 1.121357 1
0.775965 -2.696570 1.120653 1
0.759864 -2.700020 1.119950 1
0.743773 -2.703377 1.119248 1
0.727692 -2.706643 1.118545 1
0.711622 -2.709816 1.117843 1
0.702327 -2.717147 1.117586 1
0.689640 -2.722297 1.117107 1
0.663776 -2.718324 1.115741 1
0.648051 -2.720674 1.115042 1
0.635097 -2.726026 1.114562 1
0.616047 -2.726028 1.113642 1
0.593390 -2.724183 1.112499 0
0.577140 -2.727060 1.111798 0
0.561500 -2.728946 1.111101 0
0.542263 -2.728965 1.110181 0
0.526365 -2.731109 1.109483 0
0.517080 -2.737665 1.109229 0
0.497607 -2.737826 1.108308 0
0.475484 -2.734728 1.107169 0
0.466210 -2.741072 1.106916 0
0.453656 -2.745076 1.106441 0
0.451183 -2.755511 1.106633 1
0.454867 -2.771014 1.107267 1
0.449049 -2.779144 1.107237 1
0.417011 -2.768952 1.105435 1
0.404439 -2.772672 1.104961 3
0.407966 -2.788146 1.105595 3
0.395360 -2.791790 1.105122 3
0.398771 -2.807299 1.105755 9
0.376549 -2.803674 1.104619 11
0.367125 -2.809550 1.104367 15
0.376753 -2.829900 1.105443 23
0.357432 -2.828873 1.104527 25
0.357426 -2.841975 1.104940 32
0.341917 -2.842424 1.104249 35
0.335544 -2.850588 1.104219 35
0.338868 -2.865745 1.104854 39
0.326161 -2.868927 1.104383 41
0.319695 -2.877035 1.104354 40
0.319419 -2.890135 1.104767 40
0.312552 -2.898623 1.104736 39
0.309403 -2.908809 1.104929 36
0.299715 -2.914319 1.104680 33
0.305387 -2.932535 1.105534 36
0.304829 -2.945692 1.105947 22
0.295039 -2.951154 1.105697 20
0.297428 -2.966899 1.106330 17
0.287923 -2.971914 1.106083 16
0.290529 -2.987297 1.106717 13
0.280630 -2.992667 1.106468 13
0.276744 -3.003239 1.106660 14
0.275814 -3.016442 1.107073 11
0.265492 -3.022124 1.106823 11
0.255508 -3.027365 1.106575 15
0.257412 -3.043222 1.107208 12
0.259233 -3.059117 1.107841 10
0.258015 -3.072363 1.108253 10
0.247893 -3.077536 1.108005 9
0.240700 -3.085370 1.107978 7
0.245188 -3.104047 1.108830 7
0.240820 -3.114598 1.109023 6
0.242222 -3.130620 1.109656 5
0.241011 -3.143537 1.110070 5
0.230698 -3.148589 1.109822 4
0.234776 -3.167432 1.110675 4
0.241998 -3.188715 1.111748 4
0.240139 -3.202101 1.112160 4
0.232128 -3.210296 1.112132 4
0.230154 -3.223689 1.112544 3
0.231331 -3.239522 1.113178 3
0.237681 -3.261429 1.114249 3
0.229846 -3.269226 1.114222 3
0.227982 -3.282299 1.114635 3
0.236830 -3.307194 1.115926 3
0.233999 -3.321108 1.116337 2
0.225955 -3.328892 1.116310 2
0.229339 -3.347799 1.117163 2
0.229459 -3.364248 1.117794 2
0.226339 -3.378212 1.118205 2
0.229437 -3.397234 1.119057 2
0.226572 -3.410847 1.119469 2
0.232195 -3.432876 1.120540 2
0.223762 -3.440653 1.120514 2
0.231452 -3.466105 1.121803 2
0.225584 -3.476838 1.121995 1
0.230352 -3.499439 1.123065 1
0.237651 -3.525081 1.124354 1
0.244797 -3.550804 1.125642 1
0.246511 -3.570612 1.126492 1
0.240226 -3.581445 1.126684 1
0.241750 -3.601311 1.127534 1
0.248833 -3.626875 1.128823 1
0.242321 -3.637742 1.129015 0
0.243523 -3.657722 1.129864 0
0.273430 -3.710911 1.133124 0
1.514118 -11.050608 1.516731 1
1.061329 -10.959977 1.504076 0
1.037663 -11.013165 1.506433 0
0.939113 -11.059245 1.507230 0
0.876339 -10.973514 1.501793 0
0.601186 -10.146614 1.454559 0
0.557425 -10.113342 1.452157 0
1.014629 -12.025837 1.558659 0
0.964573 -11.985648 1.555823 0
0.349067 -11.749752 1.535232 1
0.286390 -11.640745 1.528726 0
-0.628608 -10.596113 1.464096 0
-0.624411 -10.857725 1.478160 0
-0.667381 -10.799146 1.474697 0
-0.690481 -10.886885 1.479240 0
-0.730374 -10.835715 1.476211 0
-0.830040 -11.177851 1.493959 0
-0.874792 -11.114587 1.490283 0
-13.686909 -75.258858 5.023915 55
-13.986552 -75.469971 5.038108 55
-14.225543 -75.301559 5.031467 55
-14.537028 -75.569588 5.048927 56
-14.910032 -76.182755 5.085498 57
-15.164666 -76.170998 5.087539 57
-15.141474 -74.528282 4.999702 54
-15.481771 -74.941681 5.025430 55
-15.730900 -74.847038 5.023150 55
-20.148312 -74.215965 5.046601 55
-20.353931 -73.954620 5.035897 55
-20.568821 -73.735306 5.027588 55
-21.017809 -74.423996 5.070407 56
-21.138838 -73.843391 5.041871 55
-21.575970 -74.463097 5.081007 57
-21.811312 -74.317192 5.077065 56
-21.932924 -73.758369 5.049837 56
-21.941837 -72.807076 5.000405 54
-22.308064 -73.148392 5.024110 55
-22.471987 -72.769791 5.007112 54
-5.200241 -12.089574 1.568169 0
-5.220890 -12.017006 1.564750 0
-4.848665 -10.381639 1.473678 0
-5.157643 -11.025983 1.512416 0
-5.119292 -10.669256 1.493363 3
-5.196410 -10.791172 1.501054 18
-5.222960 -10.757203 1.499809 2
-6.518666 -11.030974 1.541714 0
-6.533623 -10.975950 1.539384 0
-6.769669 -10.673806 1.530721 0
-6.949473 -10.954652 1.548990 0
-6.140576 -7.526541 1.365118 5
-6.152477 -7.495237 1.364088 3
-6.162042 -7.460576 1.362836 0
-5.953865 -7.048038 1.337639 0
-5.979281 -7.040863 1.338146 0
-5.969275 -6.980395 1.335128 0
-5.951021 -6.906116 1.331231 0
-5.937976 -6.842663 1.327990 0
-5.940279 -6.802477 1.326292 0
-5.940089 -6.759054 1.324373 0
-5.936379 -6.713105 1.322230 0
-5.937960 -6.673111 1.320531 0
-5.950780 -6.649523 1.319935 0
-5.954262 -6.612869 1.318456 0
-5.962170 -6.582766 1.317418 0
-5.990871 -6.581881 1.318367 0
-5.991539 -6.542021 1.316667 0
-6.027241 -6.550654 1.318279 0
-5.994547 -6.465714 1.313486 0
-6.021596 -6.460671 1.314219 0
-6.065842 -6.482546 1.316712 0
-6.082484 -6.465125 1.316558 0
-6.106275 -6.457215 1.317068 0
-6.142150 -6.465098 1.318683 0
-6.182989 -6.479138 1.320741 0
-6.226416 -6.496120 1.323021 0
-6.225890 -6.456108 1.321321 0
-6.262070 -6.463335 1.322938 0
-6.276093 -6.442152 1.322566 0
-6.308946 -6.446708 1.323960 0
-6.345318 -6.453467 1.325580 0
-6.367703 -6.440614 1.325876 0
-6.394143 -6.434638 1.326611 0
-6.425648 -6.434727 1.327790 0
-6.459746 -6.437747 1.329191 0
-6.487876 -6.435227 1.330146 0
-6.522101 -6.437925 1.331549 0
-6.551260 -6.434336 1.332509 0
-6.586554 -6.435904 1.333916 0
-6.617439 -6.435860 1.335095 0
-6.657124 -6.443950 1.336944 0
-6.702146 -6.457870 1.339237 0
-6.718471 -6.438411 1.339091 0
-6.761050 -6.448932 1.341164 0
-6.801116 -6.456227 1.343017 0
-6.830674 -6.451371 1.343982 0
-6.870914 -6.458275 1.345836 0
-6.902288 -6.456923 1.347020 0
-6.913177 -6.430907 1.346433 0
-6.970708 -6.454119 1.349626 0
-6.980579 -6.428791 1.349035 0
-7.023863 -6.437728 1.351115 0
-7.087301 -6.465974 1.354755 0
-7.106275 -6.448183 1.354837 0
-7.185611 -6.494112 1.359810 0
-7.276356 -6.551112 1.365675 0
-7.337127 -6.575863 1.369096 0
-7.373142 -6.574421 1.370516 1
-7.397099 -6.562295 1.371042 1
-7.435980 -6.563382 1.372686 1
-7.475902 -6.563309 1.374335 1
-16.059269 -15.059919 2.047977 1
-16.014593 -14.917953 2.040849 1
-16.030384 -14.645223 2.031487 1
-16.095596 -14.618030 2.033259 1
-16.985758 -15.171905 2.091269 10
-16.737902 -14.840850 2.068747 5
-17.484570 -15.439816 2.122315 34
-17.643284 -15.486002 2.130817 4
-17.787800 -15.517748 2.138207 2
-18.028248 -15.437200 2.145866 4
-13.195514 -10.949721 1.777396 177
-13.314013 -10.984489 1.783830 114
-17.500162 -14.381042 2.086108 5
-17.743906 -14.495656 2.100892 26
-17.529121 -14.218188 2.081893 11
-18.543226 -14.985867 2.153296 6
-18.020231 -14.453630 2.111903 2
-18.391651 -14.663085 2.135675 6
-18.264200 -14.271215 2.116949 2
-18.280096 -14.194596 2.115172 2
-19.195875 -13.875564 2.147630 2
-18.614262 -13.265368 2.101403 2
-7.735295 -3.943872 1.306149 0
-7.745967 -3.922832 1.306239 12
-7.794698 -3.896852 1.308230 0
-7.682873 -3.816653 1.300586 0
-7.659810 -3.782030 1.298620 0
-7.669412 -3.762256 1.298704 0
-7.639332 -3.723459 1.296286 0
-7.663158 -3.710612 1.297280 0
-7.658058 -3.684022 1.296454 0
-7.594938 -3.630485 1.291985 0
-7.600387 -3.609262 1.291840 0
-7.652954 -3.609656 1.294657 0
-7.625589 -3.573402 1.292463 0
-8.947490 -3.497056 1.363229 0
-8.956088 -3.472789 1.363331 0
-8.973030 -3.424165 1.363535 0
-8.981374 -3.399810 1.363637 0
-9.084240 -3.407307 1.369475 0
-9.005894 -3.326571 1.363944 0
-7.850878 -2.901132 1.293419 0
-7.629356 -2.807173 1.279727 0
-7.675711 -2.779455 1.281955 42
-7.700905 -2.765477 1.283187 32
-7.760473 -2.761747 1.286489 8
-7.800649 -2.752922 1.288639 10
-7.872074 -2.750844 1.292638 6
-9.197095 -3.114129 1.371873 0
-8.321562 -2.835467 1.319045 4
-8.302998 -2.783786 1.317382 0
-8.363002 -2.776651 1.320698 1
-8.369089 -2.754428 1.320791 2
-8.459947 -2.754973 1.325952 8
-8.634171 -2.752203 1.335822 2
-8.748456 -2.756904 1.342375 1
-8.886382 -2.765518 1.350319 2
-42.996929 -11.115180 3.379777 10
-46.769108 -11.878448 3.602641 12
-46.639687 -11.682214 3.593361 12
-44.697968 -11.061022 3.476466 11
-43.715691 -10.523198 3.415320 10
-45.022774 -10.663121 3.491489 11
-45.644985 -10.642709 3.527014 11
-45.666565 -10.487759 3.526949 11
-46.410122 -10.486794 3.569668 12
-43.185677 -9.499302 3.376362 10
-46.408566 -9.840125 3.564589 11
-46.439049 -9.685053 3.565227 11
-64.088211 -5.213092 4.579861 33
-64.002792 -4.989955 4.574898 33
-76.769188 -2.669148 5.328108 54
49.249096 -7.065948 5.101332 20
2.941191 -2.725895 1.357244 0
2.905096 -2.732616 1.354632 0
2.918196 -2.755506 1.356160 0
2.746579 -2.714533 1.342095 0
2.646878 -2.697248 1.334080 0
2.641296 -2.712647 1.334021 0
2.349208 -2.674405 1.310894 0
2.477398 -2.741079 1.322276 0
2.303819 -2.692484 1.307916 0
2.283114 -2.701667 1.306588 0
2.273812 -2.714391 1.306216 0
2.234267 -2.716695 1.303299 0
2.243108 -2.737448 1.304513 0
2.108206 -2.698719 1.293348 0
2.113383 -2.717612 1.294245 0
2.074609 -2.717442 1.291337 0
2.007323 -2.723159 1.286468 0
1.806913 -2.684462 1.270455 0
1.808087 -2.701625 1.271036 0
1.794915 -2.711660 1.270352 0
1.778083 -2.719987 1.269351 0
1.783321 -2.737450 1.270255 0
1.791808 -2.757289 1.271472 0
1.836395 -2.793943 1.275858 0
1.616995 -2.707839 1.257117 0
1.582226 -2.706864 1.254535 0
1.588649 -2.739824 1.256027 0
1.550320 -2.736717 1.253130 0
1.365123 -2.661682 1.237255 0
1.556145 -2.770263 1.254620 0
1.451454 -2.748014 1.246302 0
1.384897 -2.729492 1.240878 0
1.243899 -2.672517 1.228813 0
1.259395 -2.694764 1.230669 0
1.217839 -2.688344 1.227462 0
1.261767 -2.724864 1.231848 0
1.234933 -2.724518 1.229911 2
1.183192 -2.711475 1.225760 1
1.163213 -2.715042 1.224454 1
1.132725 -2.712803 1.222201 1
1.116296 -2.718004 1.221212 1
1.086186 -2.714892 1.218962 1
1.066302 -2.717927 1.217658 1
1.053397 -2.724732 1.216987 1
1.030057 -2.725599 1.215368 1
1.013685 -2.730261 1.214382 1
1.000778 -2.736809 1.213711 1
0.970592 -2.733327 1.211463 1
0.957703 -2.739677 1.210793 1
0.941365 -2.743942 1.209808 1
0.928467 -2.750141 1.209139 1
0.922414 -2.760352 1.209101 1
0.899230 -2.760281 1.207487 1
0.886318 -2.766262 1.206818 1
0.880515 -2.775823 1.206783 1
0.864180 -2.779605 1.205800 1
0.844463 -2.781195 1.204502 1
0.845067 -2.795334 1.205096 0
0.845608 -2.809500 1.205690 0
0.883134 -2.847170 1.209750 0
0.870021 -2.852930 1.209083 0
0.890759 -2.879696 1.211568 0
0.884253 -2.889775 1.211531 0
0.897743 -2.912915 1.213384 0
0.897784 -2.927403 1.213977 0
0.871173 -2.924282 1.212050 0
0.854566 -2.927645 1.211069 0
0.861124 -2.946506 1.212292 0
0.841186 -2.947526 1.210996 0
0.837737 -2.959682 1.211275 0
0.840805 -2.976360 1.212183 0
0.837239 -2.988537 1.212461 0
0.840159 -3.005282 1.213369 0
0.839736 -3.019775 1.213962 0
0.839598 -3.033794 1.214556 0
0.852023 -3.057601 1.216407 0
0.812532 -3.044250 1.213227 0
0.805453 -3.054054 1.213191 0
0.798339 -3.063834 1.213156 0
0.807252 -3.085405 1.214692 0
0.806436 -3.099940 1.215285 0
0.805919 -3.114004 1.215879 0
0.804971 -3.128578 1.216472 0
0.809943 -3.148475 1.217692 0
0.799330 -3.155851 1.217342 0
0.811208 -3.179698 1.219193 0
0.794195 -3.182176 1.218215 0
0.799216 -3.201721 1.219436 0
0.788832 -3.208529 1.219089 0
0.809336 -3.240505 1.221879 0
0.801572 -3.250297 1.221844 0
0.803107 -3.267546 1.222750 0
0.792146 -3.274811 1.222401 0
0.802824 -3.299640 1.224249 0
0.822617 -3.332151 1.227037 0
0.817609 -3.344527 1.227315 0
0.824817 -3.367090 1.228848 0
0.820081 -3.379002 1.229128 0
0.820568 -3.397031 1.230032 0
0.812258 -3.406862 1.229997 0
0.828163 -3.437391 1.232470 0
0.810645 -3.439443 1.231494 0
0.826719 -3.469642 1.233968 0
0.830173 -3.489982 1.235187 0
0.821538 -3.499846 1.235152 0
0.851687 -3.544038 1.239190 0
0.845840 -3.556629 1.239468 0
0.836973 -3.566547 1.239432 0
0.860611 -3.605849 1.242842 0
0.889907 -3.650715 1.246878 0
0.857195 -3.639229 1.244337 0
0.871942 -3.670324 1.246808 0
0.888968 -3.704763 1.249590 0
0.899964 -3.733904 1.251746 1
0.910792 -3.763155 1.253901 1
0.924828 -3.794748 1.256371 0
0.955497 -3.843505 1.260715 1
0.988734 -3.895274 1.265372 2
1.056015 -3.980605 1.273782 7
1.048522 -3.994039 1.274057 7
1.035282 -4.001866 1.273707 2
1.655922 -11.249635 1.783576 0
0.261280 -11.392477 1.763554 0
0.272056 -11.610478 1.780248 0
-15.189795 -75.942268 6.854633 57
-20.676405 -73.954918 6.801368 56
-20.760759 -73.286560 6.752998 55
-7.684221 -12.123438 1.916445 1
-7.724654 -12.111613 1.917164 1
-7.897781 -12.056681 1.920079 1
-16.323103 -14.820319 2.515499 1
-16.394215 -14.792290 2.518252 2
-16.316530 -14.063204 2.475899 3
-16.370821 -14.021173 2.477072 1
-17.579397 -15.020914 2.601598 2
-17.741205 -15.067332 2.613864 2
-16.491934 -13.861919 2.476474 1
-17.755251 -14.786276 2.600679 6
-17.754995 -14.689383 2.595861 4
-17.910715 -14.722616 2.607200 4
-17.954945 -14.572691 2.602618 2
-18.514498 -14.372188 2.628451 2
-18.587742 -14.236273 2.626756 2
-18.693167 -14.225290 2.633039 4
-17.782703 -13.415754 2.536547 2
-27.040583 -10.426348 3.098866 63
-45.544529 -15.158889 4.643306 14
-44.626904 -14.704856 4.561981 13
-9.304313 -3.336870 1.560059 0
-44.533398 -14.339890 4.547124 13
-44.291634 -14.110350 4.523510 13
-42.905048 -13.532685 4.403055 11
-43.475121 -13.548923 4.448202 12
-43.943935 -13.371685 4.481705 12
-43.722580 -13.148403 4.460029 12
-43.910240 -13.044467 4.472911 12
-43.677765 -12.812617 4.450287 12
-46.464279 -13.433594 4.681958 14
-43.405346 -12.423960 4.421762 11
-43.804535 -12.384903 4.452722 12
-46.302845 -12.889892 4.659647 14
-46.054859 -12.658792 4.636034 14
-46.720188 -12.667727 4.689072 14
-44.267860 -11.879460 4.481030 12
-46.923992 -12.386524 4.700722 15
-46.872417 -12.215285 4.693897 14
-43.423176 -11.048082 4.400607 11
-43.962044 -11.023614 4.443297 12
-43.492077 -10.758642 4.401805 11
-43.521885 -10.612845 4.402081 11
-44.941254 -10.790886 4.518299 12
-44.975052 -10.640928 4.518918 12
-45.903843 -10.688056 4.594071 13
-44.419224 -10.198251 4.468330 12
-44.552341 -10.071687 4.477370 12
-44.648418 -9.944406 4.483464 12
-76.872299 -2.913834 7.086029 55
-76.619301 -2.646812 7.065813 55
-63.550617 -2.146950 5.993466 33
21.311722 -10.635272 3.984702 35
2.175529 -2.809999 1.488307 0
2.198418 -2.837182 1.492086 0
2.044255 -2.803230 1.473291 0
2.001732 -2.801187 1.468446 1
1.995498 -2.815143 1.468394 2
1.916881 -2.796275 1.458761 1
1.881467 -2.797391 1.454875 2
1.832296 -2.790268 1.449080 2
1.794015 -2.787870 1.444722 2
1.766265 -2.790962 1.441799 2
1.731365 -2.790478 1.437920 2
1.696514 -2.789772 1.434041 2
1.650986 -2.783663 1.428727 1
1.627273 -2.787063 1.426288 1
1.592577 -2.785699 1.422412 1
1.565051 -2.787643 1.419494 1
1.541107 -2.791193 1.417055 1
1.520727 -2.796386 1.415095 1
1.482658 -2.792453 1.410743 1
1.448193 -2.790089 1.406871 1
1.431420 -2.796636 1.405391 1
1.400562 -2.795734 1.401998 1
1.373266 -2.796490 1.399085 1
1.346007 -2.797076 1.396172 1
1.332788 -2.804994 1.395172 1
1.312567 -2.809067 1.393216 0
1.299646 -2.816244 1.392219 0
1.293362 -2.827750 1.392176 0
1.287038 -2.839234 1.392133 0
1.315354 -2.870048 1.396870 0
1.312343 -2.883556 1.397305 0
1.305824 -2.895106 1.397262 0
1.292370 -2.902690 1.396263 0
1.289556 -2.915580 1.396700 0
1.296662 -2.935029 1.398569 0
1.296818 -2.950538 1.399481 0
1.300325 -2.968089 1.400871 0
1.242317 -2.949137 1.393666 0
1.266222 -2.978825 1.397921 0
1.259372 -2.990213 1.397879 0
1.283005 -3.020174 1.402134 0
1.276009 -3.031621 1.402091 0
1.218318 -3.011694 1.394889 0
1.261899 -3.054441 1.402007 0
1.217798 -3.042566 1.396716 0
1.240919 -3.072911 1.400969 0
1.234100 -3.083647 1.400930 0
1.256948 -3.114254 1.405182 0
1.209629 -3.099694 1.399415 0
1.209007 -3.115226 1.400328 0
1.208316 -3.130780 1.401241 0
1.210865 -3.148548 1.402631 0
1.206725 -3.161948 1.403067 0
1.202906 -3.174786 1.403505 0
1.211808 -3.197094 1.405848 0
1.213652 -3.215571 1.407235 0
1.205975 -3.226775 1.407194 0
1.211701 -3.246444 1.409062 0
1.203916 -3.257640 1.409022 0
1.215581 -3.282522 1.411840 0
1.246953 -3.320725 1.417521 0
1.222746 -3.320507 1.415097 0
1.234049 -3.345654 1.417915 1
1.229135 -3.359258 1.418350 0
1.243413 -3.386902 1.421644 1
1.295937 -3.442903 1.430654 3
1.284275 -3.452029 1.430136 5
1.285323 -3.470601 1.431523 4
1.295806 -3.496367 1.434339 5
1.309753 -3.524055 1.437633 9
1.300561 -3.536168 1.437589 5
1.301215 -3.554930 1.438976 5
1.301778 -3.573726 1.440363 1
1.349246 -3.629169 1.448890 0
-17.292347 -14.868389 3.424881 3
-17.234816 -14.724640 3.408367 3
-17.220329 -14.615815 3.398559 3
-27.059126 -10.447935 4.202362 61
-27.114164 -10.368711 4.205633 16
-43.786270 -13.658370 6.271003 19
-45.288715 -13.956277 6.457787 21
-43.812401 -13.348358 6.264462 18
-43.816982 -13.191226 6.260220 18
-43.748470 -13.013383 6.246761 18
-43.759743 -12.075424 6.221283 18
-43.730797 -11.919818 6.213605 18
-44.251038 -11.890448 6.274931 18
-44.096218 -11.694096 6.251264 18
-76.708473 -2.674181 10.148339 59
21.379595 -10.502321 5.488031 4
21.356333 -10.673695 5.495248 13
-27.112293 -10.655213 5.817738 58
-27.145704 -10.567488 5.818108 9
21.295986 -10.652187 7.640227 3
21.226503 -10.809008 7.638599 11
-27.182280 -10.701885 8.141642 45
-6.665761 1.164658 -0.031904 53
-6.586125 1.156165 -0.010473 53
-6.561166 1.188322 -0.009618 53
-6.622837 1.264621 -0.037709 1
-6.597695 1.253002 -0.029574 1
-6.604894 1.286455 -0.037094 1
-6.527347 1.229762 -0.008459 1
-6.582270 1.313125 -0.036318 53
-6.501069 1.260408 -0.007557 53
-6.496627 1.265461 -0.007405 1
-6.492168 1.270500 -0.007251 1
-6.524855 1.308756 -0.021880 1
-6.534407 1.326822 -0.027402 1
-6.549498 1.350164 -0.035193 1
-6.525042 1.337150 -0.027081 1
-6.469837 1.295208 -0.006485 1
-6.520695 1.381266 -0.034203 1
-6.442203 1.324633 -0.005535 1
-6.486867 1.377799 -0.025769 1
-6.428156 1.339128 -0.005052 53
-6.458700 1.379199 -0.019606 1
-6.453844 1.384105 -0.019439 1
-6.459971 1.405119 -0.024844 53
-6.404649 1.362719 -0.004244 1
-6.447822 1.417122 -0.024426 1
-6.442834 1.421991 -0.024254 1
-6.424600 1.412947 -0.018433 1
-6.385359 1.381483 -0.003580 1
-6.441028 1.460942 -0.031463 1
-6.355937 1.409120 -0.002567 1
-6.392030 1.469712 -0.022505 1
-6.386859 1.474386 -0.022327 1
-6.399431 1.499203 -0.030030 1
-6.394157 1.503903 -0.029849 1
-6.388866 1.508585 -0.029666 1
-6.383559 1.513249 -0.029484 1
-6.373164 1.522289 -0.029125 53
-6.335874 1.488544 -0.014339 1
-6.345174 1.510895 -0.020891 1
-6.327578 1.500653 -0.015091 1
-6.354083 1.538565 -0.028467 1
-6.317005 1.509530 -0.014727 1
-6.340797 1.549658 -0.028009 1
-6.320859 1.536244 -0.021091 1
-6.329882 1.558630 -0.027633 1
-6.295674 1.527062 -0.013991 1
-6.318904 1.567525 -0.027254 1
-6.284918 1.535716 -0.013620 1
-6.284242 1.546070 -0.015673 1
-6.269668 1.538011 -0.011017 1
-6.266601 1.545300 -0.011949 1
-6.263498 1.552586 -0.012881 1
-6.271684 1.575384 -0.019394 1
-6.256908 1.567362 -0.014730 1
-6.216920 1.525408 0.002227 1
-6.268748 1.606596 -0.025523 1
-6.249439 1.592280 -0.018626 1
-6.251760 1.619266 -0.024937 53
-6.219135 1.586043 -0.011349 1
-6.218026 1.596362 -0.013387 1
-6.219082 1.609826 -0.016539 1
-6.228904 1.635882 -0.024147 1
-6.193932 1.604198 -0.010478 53
-6.211612 1.648134 -0.023550 1
-6.184428 1.620259 -0.012227 1
-6.185491 1.633546 -0.015378 1
-6.181896 1.640684 -0.016293 1
-6.173994 1.641429 -0.014981 1
-6.182802 1.667951 -0.022554 1
-6.176940 1.671894 -0.022351 1
-6.159569 1.683405 -0.021751 53
-6.153654 1.687267 -0.021546 1
-6.133035 1.668572 -0.013565 1
-6.121037 1.662578 -0.010035 1
-6.149764 1.721746 -0.028680 1
-6.143714 1.725574 -0.028470 1
-6.137652 1.729380 -0.028261 1
-6.103588 1.687207 -0.012546 1
-6.101933 1.697268 -0.014566 1
-6.086381 1.684264 -0.008836 1
-6.099820 1.721084 -0.019684 1
-6.083705 1.708364 -0.013935 1
-6.075762 1.708642 -0.012622 1
-6.091296 1.748601 -0.024580 1
-6.067053 1.713809 -0.012320 1
-6.056110 1.715769 -0.010903 1
-6.053874 1.725958 -0.012903 1
-6.034922 1.705817 -0.004979 1
-6.051097 1.749711 -0.017998 1
-6.035649 1.736369 -0.012272 1
-6.033247 1.746540 -0.014265 1
-6.032623 1.760093 -0.017358 1
-6.017315 1.746588 -0.011637 1
-5.998789 1.726049 -0.003728 1
-6.007143 1.756525 -0.012323 1
-5.993813 1.746238 -0.007708 1
-5.991236 1.756340 -0.009695 1
-5.981842 1.752617 -0.007293 1
-5.989415 1.783398 -0.015861 1
-5.965725 1.752377 -0.004659 1
-5.959571 1.755560 -0.004445 1
-5.956842 1.765603 -0.006427 1
-5.954055 1.775650 -0.008407 1
-5.958302 1.799353 -0.014783 1
-5.943255 1.785372 -0.009071 1
-5.933644 1.781546 -0.006661 1
-5.938997 1.808916 -0.014114 1
-5.924414 1.794620 -0.008418 1
-5.922904 1.799623 -0.009403 1
-5.903689 1.783232 -0.002508 1
-5.924794 1.845606 -0.020888 1
-5.897862 1.802996 -0.006459 1
-5.889945 1.802436 -0.005146 1
-5.889911 1.819399 -0.009298 1
-5.896015 1.850453 -0.017814 1
-5.874345 1.818025 -0.006681 1
-5.875650 1.838528 -0.011917 1
-5.869195 1.841397 -0.011693 1
-5.852140 1.819473 -0.003835 1
-5.867087 1.871733 -0.018887 1
-5.849771 1.849868 -0.011020 1
-5.843277 1.852647 -0.010794 1
-5.817750 1.809123 0.003587 1
-5.821555 1.836745 -0.003812 1
-5.815107 1.839424 -0.003588 1
-5.817532 1.863399 -0.009901 1
-5.810664 1.866198 -0.009662 1
-5.795707 1.847326 -0.002915 1
-5.791999 1.857096 -0.004862 1
-5.784104 1.856077 -0.003550 1
-5.776551 1.854898 -0.002250 1
-5.764957 1.842875 0.002305 1
-5.771144 1.869369 -0.005176 1
-5.760970 1.873240 -0.004823 1
-5.754395 1.875708 -0.004595 1
-5.743908 1.867280 -0.001116 1
-5.745084 1.891460 -0.007386 1
-5.734618 1.882973 -0.003908 1
-5.721694 1.867159 0.001731 1
-5.725476 1.898511 -0.006704 1
-5.713860 1.886268 -0.002149 1
-5.707240 1.888571 -0.001919 1
-5.696644 1.879997 0.001563 1
-5.703238 1.922500 -0.010084 1
-5.688186 1.899117 -0.002295 1
-5.685042 1.912336 -0.005300 1
-5.678331 1.914539 -0.005067 1
-5.667020 1.902010 -0.000521 1
-5.661480 1.907831 -0.001367 1
-5.662982 1.935640 -0.008685 1
-5.651749 1.923010 -0.004143 1
-5.645000 1.925096 -0.003908 1
-5.642583 1.941947 -0.007976 1
-5.628268 1.918096 -0.000212 1
-5.620479 1.916396 0.001096 1
-5.633622 1.988832 -0.019083 1
-5.606232 1.904511 0.005744 1
-5.604703 1.937022 -0.002507 1
-5.594546 1.927881 0.000960 1
-5.585793 1.922321 0.003340 1
-5.583952 1.942810 -0.001786 1
-5.574571 1.933377 0.001655 1
-5.566832 1.931460 0.002962 1
-5.557228 1.922038 0.006410 1
-5.555130 1.942495 0.001293 1
-5.550148 1.951732 -0.000610 1
-5.540591 1.942222 0.002837 1
-5.533226 1.940085 0.004131 1
-5.526079 1.941840 0.004380 1
-5.525314 1.969783 -0.002860 1
-5.515851 1.960149 0.000584 1
-5.509318 1.961680 0.000811 1
-5.499960 1.951972 0.004250 1
-5.502045 1.994984 -0.007240 1
-5.491052 1.977689 -0.001667 1
-5.481757 1.967891 0.001770 1
-5.477944 1.984493 -0.002249 1
-5.463388 1.948170 0.008637 1
-5.461377 1.972224 0.002479 1
-5.454804 1.973575 0.002708 1
-5.454982 1.993211 -0.002488 1
-5.445913 2.006811 -0.005286 1
-5.433327 1.977830 0.003456 1
-5.428429 1.990542 0.000513 1
-5.417791 1.968992 0.007111 1
-5.415814 1.996804 -0.000086 1
-5.406243 1.982853 0.004399 1
-5.399288 1.984082 0.004641 1
-5.395052 2.004385 -0.000401 1
-5.383213 1.975094 0.008315 1
-5.378397 1.987622 0.005369 1
-5.377532 2.026840 -0.004980 1
-5.366135 2.001309 0.002682 1
-5.357121 1.990996 0.006110 1
-5.350487 1.992000 0.006341 1
-5.345940 2.008273 0.002348 1
-5.336859 1.993994 0.006816 1
-5.332345 2.014111 0.001784 1
-5.324798 2.011254 0.003085 1
-5.314460 1.985389 0.010711 1
-5.313066 2.036154 -0.002734 1
-5.305925 2.037058 -0.002485 1
-5.296639 2.018762 0.003028 1
-5.289082 2.011893 0.005368 1
-5.285554 2.012305 0.005491 1
-5.274967 2.013507 0.005860 1
-5.272800 2.068092 -0.008596 1
-5.262295 2.034273 0.001112 1
-5.254124 2.019588 0.005548 1
-5.248739 2.035632 0.001584 1
-5.239956 2.020958 0.006043 1
-5.236262 2.063931 -0.005246 1
-5.226215 -1.980757 0.025192 9
-5.233247 -1.982058 0.024429 5
-5.240623 -1.987182 0.022621 5
-5.247518 -1.990389 0.021346 6
-5.254425 -1.989692 0.021104 6
-5.259285 -1.967836 0.026620 6
-5.267460 -1.980543 0.022716 6
-5.274730 -1.983616 0.021428 7
-5.282025 -1.986663 0.020139 7
-5.287642 -1.974335 0.023044 6
-5.293275 -1.965871 0.024914 6
-5.301557 -1.980392 0.020489 7
-5.308428 -1.979507 0.020249 7
-5.314342 -1.970937 0.022110 7
-5.320199 -1.962351 0.023972 7
-5.326503 -1.957575 0.024786 6
-5.334846 -1.968076 0.021392 6
-5.342470 -1.972808 0.019574 10
-5.347683 -1.960319 0.022494 10
-5.353648 -1.953545 0.023836 7
-5.355909 -1.945380 0.025824 7
-5.366860 -1.951443 0.023373 7
-5.373969 -1.950274 0.023124 7
-5.384397 -1.971995 0.016556 6
-5.387184 -1.946072 0.023179 6
-5.393617 -1.942985 0.023470 4
-5.402958 -1.956990 0.019008 4
-5.410070 -1.959614 0.017725 9
-5.416531 -1.956450 0.018016 9
-5.420215 -1.938084 0.022539 7
-5.427289 -1.938682 0.021774 7
-5.433657 -1.935463 0.022068 12
-5.442193 -1.943586 0.019184 12
-5.447079 -1.932748 0.021598 9
-5.453784 -1.931355 0.021363 9
-5.458561 -1.920490 0.023780 5
-5.467568 -1.930387 0.020363 5
-5.475059 -1.932697 0.019067 4
-5.480146 -1.923665 0.020956 4
-5.486408 -1.920273 0.021254 4
-5.492234 -1.914978 0.022084 4
-5.501842 -1.926594 0.018128 5
-5.508955 -1.926889 0.017362 5
-5.516949 -1.930913 0.015531 5
-5.518097 -1.920713 0.018076 5
-5.525506 -1.908953 0.020401 3
-5.537602 -1.929762 0.013774 3
-5.546608 -1.937409 0.010873 1
-5.548167 -1.915102 0.016505 1
-5.555760 -1.917092 0.015205 1
-5.560480 -1.907855 0.017107 1
-5.575895 -1.939625 0.007262 1
-5.575688 -1.911705 0.014506 1
-5.587336 -1.928470 0.008928 1
-5.593008 -1.922869 0.009763 1
-5.599676 -1.920966 0.009530 1
-5.604253 -1.911618 0.011437 1
-5.611607 -1.913481 0.010145 1
-5.615039 -1.900403 0.013126 1
-5.619469 -1.891026 0.015038 1
-5.632587 -1.911202 0.008375 1
-5.638108 -1.905470 0.009215 1
-5.641358 -1.892347 0.012203 1
-5.650185 -1.897642 0.009825 1
-5.644743 -1.856909 0.020871 1
-5.654655 -1.865852 0.017422 1
-5.661125 -1.863735 0.017195 1
-5.678237 -1.894594 0.007290 1
-5.686282 -1.908154 0.002873 1
-5.687090 -1.879418 0.010081 1
-5.683844 -1.847955 0.018465 1
-5.700115 -1.874933 0.009624 1
-5.710353 -1.883592 0.006163 1
-5.713109 -1.870358 0.009168 1
-5.712287 -1.846104 0.015399 1
-5.715151 -1.832776 0.018400 2
-5.726377 -1.845072 0.013871 2
-5.725907 -1.824712 0.019056 1
-5.746773 -1.862139 0.006952 1
-5.746557 -1.841636 0.012128 1
-5.758651 -1.853506 0.007568 1
-5.760996 -1.840217 0.010587 1
-5.763257 -1.826935 0.013609 1
-5.765120 -1.813784 0.016645 1
-5.781506 -1.836272 0.008833 1
-5.783640 -1.822963 0.011859 1
-5.794228 -1.831129 0.008386 1
-5.803446 -1.835670 0.005995 1
-5.809809 -1.833033 0.005771 1
-5.804482 -1.801874 0.014228 1
-5.810727 -1.799235 0.014009 1
-5.824389 -1.814332 0.008360 1
-5.824552 -1.805882 0.010422 1
-5.829408 -1.791185 0.013352 1
-5.839870 -1.799203 0.009883 1
-5.845794 -1.796578 0.009675 1
-5.852332 -1.793654 0.009445 1
-5.869772 -1.815340 0.001596 1
-5.866636 -1.791390 0.007909 1
-5.879179 -1.802564 0.003333 1
-5.881924 -1.792803 0.005304 1
-5.911928 -1.842495 -0.011257 1
-5.902438 -1.804415 -0.000586 1
-5.911647 -1.791468 0.001157 53
-5.902647 -1.757340 0.010777 1
-5.918741 -1.775165 0.004009 1
-5.924893 -1.772126 0.003792 1
-5.938109 -1.782734 -0.000807 1
-5.920427 -1.731332 0.014286 1
-5.940156 -1.755836 0.005323 1
-5.940753 -1.742566 0.008402 1
-5.948833 -1.742725 0.007085 1
-5.965384 -1.760131 0.000300 1
-5.950016 -1.716062 0.013245 1
-5.955664 -1.713073 0.013046 1
-5.965756 -1.725131 0.008556 1
-5.982212 -1.733758 0.003842 1
-5.982786 -1.720317 0.006923 1
-5.979336 -1.700282 0.012213 1
-5.994694 -1.713772 0.006504 1
-5.991398 -1.693599 0.011788 1
-6.019564 -1.730716 -0.001607 1
-6.038346 -1.751022 -0.009504 1
-6.003318 -1.673601 0.014469 1
-6.014795 -1.680311 0.010964 1
-6.020615 -1.676938 0.010759 1
-6.033798 -1.687051 0.006160 1
-6.026147 -1.660320 0.013665 1
-6.037426 -1.667041 0.010167 1
-6.062997 -1.696551 -0.001070 1
-6.068873 -1.693008 -0.001277 1
-6.062894 -1.669648 0.005135 1
-6.080589 -1.685861 -0.001690 1
-6.066459 -1.649403 0.009144 1
-6.072171 -1.645850 0.008942 1
-6.104127 -1.684801 -0.005620 1
-6.109962 -1.681114 -0.005826 1
-6.119870 -1.683921 -0.008242 1
-6.115144 -1.664118 -0.002908 1
-6.118027 -1.662258 -0.003010 1
-6.105897 -1.624297 0.007753 1
-6.128219 -1.646428 -0.001302 1
-6.108738 -1.604015 0.011787 1
-6.112182 -1.597102 0.012699 1
-6.136799 -1.622237 0.002529 1
-6.159472 -1.644020 -0.006538 1
-6.150163 -1.617809 0.001024 1
-6.153609 -1.610781 0.001936 1
-6.171896 -1.626167 -0.004910 1
-6.156044 -1.590377 0.005984 1
-6.183424 -1.618105 -0.005316 1
-6.166767 -1.582821 0.005606 1
-6.194056 -1.610559 -0.005692 1
-6.188810 -1.590677 -0.000339 1
-6.165316 -1.546027 0.013924 1
-6.188601 -1.567094 0.004835 1
-6.223308 -1.603576 -0.009825 1
-6.199435 -1.559116 0.004453 1
-6.204831 -1.555099 0.004262 1
-6.239918 -1.591211 -0.010411 1
-6.215581 -1.547008 0.003882 1
-6.243999 -1.573655 -0.007455 1
-6.226274 -1.538842 0.003505 1
-6.228939 -1.536789 0.003411 1
-6.236910 -1.530602 0.003129 1
-6.223414 -1.502143 0.011873 1
-6.247488 -1.522288 0.002755 1
-6.243014 -1.506222 0.007047 1
-6.257484 -1.514321 0.002402 1
-6.243859 -1.485844 0.011150 1
-6.268470 -1.505439 0.002014 1
-6.273678 -1.501181 0.001830 1
-6.278613 -1.497119 0.001655 1
-6.283792 -1.492826 0.001472 1
-6.288698 -1.488730 0.001299 1
-6.279387 -1.466459 0.007828 1
-6.299496 -1.479620 0.000917 1
-6.304614 -1.475253 0.000736 1
-6.289591 -1.447665 0.009533 1
-6.284622 -1.431657 0.013842 1
-6.292077 -1.430255 0.012545 1
-6.349825 -1.486848 -0.011196 1
-6.329723 -1.453379 -0.000153 1
-6.334499 -1.449131 -0.000322 1
-6.339260 -1.444868 -0.000490 1
-6.344506 -1.440137 -0.000676 1
-6.334347 -1.418249 0.005883 1
-6.301065 -1.375862 0.021526 1
-6.328633 -1.392228 0.012284 1
-6.338634 -1.393421 0.009864 1
-6.374149 -1.412739 -0.001725 53
-6.379033 -1.408112 -0.001898 1
-6.383902 -1.403469 -0.002071 1
-6.388753 -1.398808 -0.002242 1
-6.340539 -1.338655 0.020128 1
-6.398168 -1.389672 -0.002576 1
-6.402972 -1.384961 -0.002746 1
-6.407759 -1.380234 -0.002916 1
-6.412530 -1.375491 -0.003085 1
-6.417284 -1.370730 -0.003254 1
-6.426743 -1.361160 -0.003589 1
-6.431447 -1.356350 -0.003756 1
-6.400544 -1.316574 0.010770 1
-6.399598 -1.306500 0.012869 1
-6.409399 -1.307362 0.010455 1
-6.414140 -1.302377 0.010287 1
-6.454714 -1.332055 -0.004581 1
-6.463673 -1.322471 -0.004899 1
-6.465960 -1.320004 -0.004980 1
-6.472794 -1.312578 -0.005222 1
-6.477328 -1.307607 -0.005383 1
-6.433746 -1.258584 0.013723 1
-6.457961 -1.271815 0.005633 1
-6.473743 -1.277179 0.000941 1
-6.495292 -1.287568 -0.006021 1
-6.499739 -1.282519 -0.006179 1
-6.481175 -1.257135 0.002743 1
-6.471102 -1.239487 0.008265 1
-6.512754 -1.267535 -0.006641 1
-6.516913 -1.262681 -0.006789 1
-6.492403 -1.232304 0.004410 1
-6.525832 -1.252160 -0.007106 1
-6.530155 -1.247004 -0.007260 1
-6.572612 -1.273926 -0.022195 1
-6.538747 -1.236648 -0.007565 1
-6.513497 -1.206970 0.003660 1
-6.535215 -1.216743 -0.003309 1
-6.527333 -1.202103 0.001102 1
-6.555504 -1.216021 -0.008161 1
-6.521095 -1.179223 0.006488 1
-6.509993 -1.162364 0.012046 1
-6.528811 -1.169451 0.006213 1
-6.576099 -1.189847 -0.008894 1
-6.580410 -1.184250 -0.009048 1
-6.584700 -1.178637 -0.009200 1
-6.588563 -1.173544 -0.009338 1
-6.592410 -1.168439 -0.009475 1
-6.596441 -1.163052 -0.009619 1
-6.600453 -1.157651 -0.009761 1
-6.604645 -1.151964 -0.009911 1
-6.577785 -1.123758 0.001371 1
-6.612573 -1.141090 -0.010193 1
-6.616312 -1.135906 -0.010327 1
-6.651296 -1.152889 -0.021899 1
-6.623932 -1.125225 -0.010598 1
-6.668396 -1.148639 -0.025606 1
-6.688006 -1.154049 -0.031467 1
-6.635514 -1.108693 -0.011011 1
-6.639337 -1.103155 -0.011148 1
-6.643329 -1.097327 -0.011290 1
-6.647111 -1.091762 -0.011425 1
-6.692060 -1.114221 -0.026450 1
-6.711585 -1.119501 -0.032309 1
-6.658156 -1.075269 -0.011820 1
-6.663707 -1.066839 -0.012018 53
-6.669396 -1.058099 -0.012221 1
-6.673042 -1.052443 -0.012351 1
-6.676486 -1.047058 -0.012475 1
-6.690795 -1.024262 -0.012986 1
-6.697829 -1.012789 -0.013238 1
-6.701316 -1.007035 -0.013363 1
-6.655474 -0.971750 0.003758 1
-6.675232 -0.976023 -0.002109 1
-6.678591 -0.970349 -0.002229 1
-6.715064 -0.983895 -0.013855 1
-6.718450 -0.978081 -0.013976 1
-6.724995 -0.966708 -0.014211 1
-6.728321 -0.960859 -0.014330 1
-6.735076 -0.948832 -0.014572 53
-6.704906 -0.924251 -0.003172 1
-6.741583 -0.937052 -0.014805 1
-6.744806 -0.931145 -0.014921 1
-6.757490 -0.907405 -0.015376 1
-6.766785 -0.889485 -0.015710 53
-6.769842 -0.883490 -0.015820 1
-6.772877 -0.877485 -0.015929 1
-6.775892 -0.871469 -0.016038 1
-6.781710 -0.859708 -0.016247 1
-6.799109 -0.823275 -0.016874 1
-6.802075 -0.816862 -0.016981 1
-6.813022 -0.792641 -0.017376 53
-6.815741 -0.786485 -0.017474 1
-6.817092 -0.783404 -0.017523 1
-6.821113 -0.774146 -0.017668 1
-6.829140 -0.755256 -0.017958 53
-6.851528 -0.699347 -0.018769 1
-6.853921 -0.693057 -0.018856 1
-6.865669 -0.661169 -0.019283 1
-6.872271 -0.642447 -0.019523 53
-6.883019 -0.610563 -0.019915 1
-6.885102 -0.604164 -0.019991 1
-6.898863 -0.559818 -0.020495 1
-6.900769 -0.553364 -0.020565 1
-6.923406 -0.469214 -0.021400 1
-6.924995 -0.462674 -0.021459 1
-6.839283 -0.408860 0.007404 1
-6.936888 -0.410168 -0.021901 53
-6.938272 -0.403582 -0.021953 1
-6.939632 -0.396992 -0.022004 1
-6.940969 -0.390396 -0.022054 1
-6.942284 -0.383796 -0.022104 1
-6.944781 -0.370913 -0.022198 53
-6.853200 -0.340263 0.006882 53
-6.948451 -0.351060 -0.022336 1
-6.955167 -0.311244 -0.022592 1
-6.956205 -0.304595 -0.022631 1
-6.909020 -0.283958 -0.007528 53
-6.960126 -0.277963 -0.022782 53
-6.961048 -0.271296 -0.022818 1
-6.961947 -0.264627 -0.022853 1
-6.962823 -0.257954 -0.022887 1
-6.915148 -0.238488 -0.007765 1
-6.965310 -0.237918 -0.022984 1
-6.871098 -0.220150 0.006194 1
-6.966851 -0.224547 -0.023045 1
-6.967551 -0.218192 -0.023073 1
-6.968264 -0.211500 -0.023101 1
-6.968955 -0.204806 -0.023129 1
-6.920132 -0.193208 -0.007963 1
-6.970264 -0.191410 -0.023182 1
-6.971481 -0.178005 -0.023231 1
-6.922502 -0.167098 -0.008060 1
-6.972605 -0.164593 -0.023277 1
-6.877537 -0.153661 0.005935 1
-6.904966 -0.146080 -0.002279 1
-6.974114 -0.144459 -0.023341 1
-6.974570 -0.137745 -0.023360 1
-6.975003 -0.131029 -0.023379 1
-6.926148 -0.114790 -0.008214 53
-6.918862 -0.107840 -0.005892 1
-6.880984 -0.099434 0.005786 1
-6.976816 -0.097429 -0.023459 1
-6.977108 -0.090705 -0.023473 1
-6.908574 -0.081312 -0.002439 1
-6.901165 -0.074559 -0.000112 1
-6.935787 -0.069194 -0.010647 1
-6.920686 -0.062184 -0.005979 1
-6.928504 -0.055848 -0.008327 1
-6.882759 -0.048325 0.005697 1
-6.928776 -0.042741 -0.008344 1
-6.978601 -0.036888 -0.023554 1
-6.978682 -0.030159 -0.023560 1
-6.978740 -0.023429 -0.023565 1
-6.909930 -0.009970 -0.002523 53
-6.883142 -0.003578 0.005660 1
-6.929029 -0.000138 -0.008375 1
-6.978675 0.010220 -0.023581 1
-6.928874 0.015920 -0.008378 1
-6.928776 0.022146 -0.008378 1
-6.909530 0.028301 -0.002529 1
-6.939977 0.035532 -0.011884 1
-6.901568 0.041059 -0.000186 1
-6.901377 0.047516 -0.000183 1
-6.939382 0.055638 -0.011873 1
-6.939127 0.062558 -0.011868 1
-6.881535 0.066720 0.005680 1
-6.919482 0.074534 -0.006009 1
-6.907713 0.080490 -0.002493 1
-6.937944 0.088582 -0.011840 1
-6.975780 0.097318 -0.023525 1
-6.925753 0.101066 -0.008313 1
-6.898630 0.105914 -0.000118 1
-6.905869 0.112548 -0.002446 1
-6.974091 0.124184 -0.023480 1
-6.973610 0.130897 -0.023467 1
-6.973105 0.137608 -0.023453 1
-6.923038 0.139970 -0.008239 1
-6.972027 0.151024 -0.023422 1
-6.971452 0.157730 -0.023406 1
-6.971126 0.161417 -0.023396 1
-6.968229 0.191224 -0.023311 53
-6.963591 0.231336 -0.023170 53
-6.960957 0.251353 -0.023088 1
-6.960032 0.258019 -0.023060 1
-6.959085 0.264682 -0.023030 1
-6.958114 0.271341 -0.022999 1
-6.957170 0.277664 -0.022970 1
-6.954052 0.297612 -0.022871 53
-6.952911 0.304585 -0.022835 1
-6.945904 0.344351 -0.022611 1
-6.944655 0.350964 -0.022571 1
-6.940903 0.370116 -0.022450 1
-6.935269 0.397127 -0.022268 1
-6.929476 0.423070 -0.022079 1
-6.924838 0.442719 -0.021927 53
-6.923245 0.449258 -0.021875 1
-6.907896 0.507846 -0.021370 53
-6.906077 0.514325 -0.021310 1
-6.898576 0.540177 -0.021061 1
-6.890915 0.565280 -0.020807 1
-6.886855 0.578112 -0.020672 1
-6.882600 0.591235 -0.020530 1
-6.862928 0.648158 -0.019873 53
-6.858290 0.660793 -0.019717 53
-6.815605 0.766188 -0.018282 1
-6.812886 0.772343 -0.018190 1
-6.804598 0.790752 -0.017911 1
-6.796119 0.809072 -0.017624 53
-6.840219 0.876300 -0.037846 53
-6.747849 0.904920 -0.015989 53
-6.721648 0.951944 -0.015098 53
-6.690618 1.003947 -0.014042 1
-6.683502 1.015370 -0.013799 1
-6.652562 1.063070 -0.012744 53
-6.627812 1.099130 -0.011899 53
-6.679986 1.144834 -0.032391 1
-6.869435 1.312486 -0.023034 11
-6.864810 1.318826 -0.022875 1
-6.860162 1.325150 -0.022716 1
-6.855492 1.331458 -0.022557 1
-6.850800 1.337750 -0.022396 1
