# .PCD v.7 - Point Cloud Data file format
VERSION .7
FIELDS x y z intensity
SIZE 4 4 4 1
TYPE F F F U
COUNT 1 1 1 1
WIDTH 1532
HEIGHT 1
VIEWPOINT 0 0 0 1 0 0 0
POINTS 1532
DATA ascii
-5.322490 -2.389805 -0.000838 1
-5.327394 -2.357872 0.006177 1
-5.337771 -2.376240 0.001322 1
-5.341961 -2.340413 0.009261 1
-5.353342 -2.366446 0.002574 1
-5.355341 -2.315138 0.014182 1
-5.364855 -2.325649 0.011154 1
-5.374041 -2.336179 0.008138 1
-5.380654 -2.354911 0.003415 1
-5.389069 -2.322236 0.010307 1
-5.398769 -2.332607 0.007273 1
-5.408698 -2.346853 0.003332 1
-5.408840 -2.291676 0.015903 1
-5.422650 -2.328902 0.006437 1
-5.427144 -2.304510 0.011669 1
-5.438818 -2.326250 0.005871 1
-5.446895 -2.324882 0.005588 1
-5.452411 -2.308126 0.008988 1
-5.455858 -2.279849 0.015155 1
-5.469099 -2.309103 0.007505 1
-5.473721 -2.288466 0.011835 1
-5.490667 -2.336768 -0.000436 1
-5.490311 -2.289288 0.010356 1
-5.502891 -2.314594 0.003627 1
-5.509130 -2.301455 0.006104 1
-5.516375 -2.296022 0.006748 1
-5.517121 -2.260113 0.014806 1
-5.526117 -2.266185 0.012695 1
-5.533984 -2.264513 0.012419 1
-5.546631 -2.285666 0.006586 1
-5.553755 -2.280116 0.007235 1
-5.562494 -2.282150 0.006031 1
-5.559809 -2.250844 0.013311 1
-5.572377 -2.251947 0.011972 1
-5.575874 -2.231146 0.016341 1
-5.582741 -2.225511 0.016998 1
-5.594417 -2.238697 0.012996 1
-5.607613 -2.259490 0.007144 1
-5.613230 -2.250071 0.008744 1
-5.622509 -2.255749 0.006622 1
-5.625626 -2.234870 0.011004 1
-5.633383 -2.232852 0.010732 1
-5.647915 -2.257176 0.003935 1
-5.649858 -2.232497 0.009256 1
-5.656998 -2.226527 0.009904 1
-5.665734 -2.228155 0.008700 1
-5.670402 -2.214738 0.011231 1
-5.677704 -2.212673 0.010975 1
-5.687863 -2.217852 0.008822 1
-5.701928 -2.238065 0.002939 1
-5.709307 -2.235894 0.002680 1
-5.703648 -2.188889 0.013658 1
-5.723720 -2.227514 0.003073 1
-5.712536 -2.161808 0.018735 1
-5.731293 -2.196709 0.009095 1
-5.741194 -2.201757 0.006951 1
-5.755321 -2.233993 -0.001629 1
-5.759960 -2.208015 0.003598 1
-5.767623 -2.205527 0.003329 1
-5.757421 -2.147493 0.017160 1
-5.764873 -2.145016 0.016899 1
-5.779237 -2.164796 0.011005 1
-5.779378 -2.140110 0.016390 1
-5.809145 -2.203870 -0.000823 1
-5.816793 -2.201210 -0.001091 1
-5.814297 -2.169122 0.006182 1
-5.824382 -2.173786 0.004031 1
-5.832840 -2.174876 0.002836 1
-5.823426 -2.124534 0.014843 1
-5.854510 -2.187649 -0.002416 1
-5.838526 -2.118955 0.014313 1
-5.853220 -2.113409 0.013797 11
-5.860185 -2.110739 0.013552 1
-5.867873 -2.107760 0.013282 1
-5.893311 -2.152055 0.000713 1
-5.888115 -2.116499 0.008979 1
-5.880902 -2.077535 0.018214 1
-5.896698 -2.096304 0.012270 1
-5.903969 -2.093340 0.012014 1
-5.903250 -2.081034 0.014734 1
-5.924359 -2.101726 0.007705 1
-5.910905 -2.048379 0.020752 1
-5.932953 -2.081233 0.010996 1
-5.940172 -2.078143 0.010742 1
-5.947380 -2.075028 0.010489 1
-5.954577 -2.071888 0.010236 1
-5.961764 -2.068722 0.009983 1
-5.968581 -2.065692 0.009743 1
-5.995769 -2.108846 -0.002888 1
-5.982542 -2.059401 0.009253 1
-5.996816 -2.052850 0.008751 11
-6.011399 -2.046032 0.008238 11
-6.018849 -2.042500 0.007976 1
-6.025579 -2.039280 0.007739 1
-6.032298 -2.036038 0.007503 1
-6.039359 -2.032601 0.007255 1
-6.046408 -2.029140 0.007007 1
-6.053444 -2.025654 0.006759 1
-6.060469 -2.022144 0.006512 1
-6.067481 -2.018609 0.006265 1
-6.074131 -2.015228 0.006031 1
-6.088095 -2.008038 0.005540 1
-6.071983 -1.959511 0.017782 1
-6.102008 -2.000751 0.005050 1
-6.116216 -1.993181 0.004550 1
-6.123127 -1.989452 0.004307 1
-6.129680 -1.985886 0.004076 1
-6.136565 -1.982110 0.003834 1
-6.143437 -1.978310 0.003592 1
-6.150296 -1.974485 0.003350 1
-6.123257 -1.909526 0.020467 1
-6.148819 -1.939658 0.010586 1
-6.140294 -1.908763 0.018071 1
-6.148828 -1.908326 0.016872 1
-6.184388 -1.955005 0.002149 1
-6.165926 -1.907343 0.014474 1
-6.178397 -1.913504 0.011340 1
-6.194854 -1.926295 0.006271 1
-6.177486 -1.882406 0.017658 1
-6.193948 -1.895133 0.012588 1
-6.204515 -1.897786 0.010420 1
-6.190985 -1.860556 0.019877 1
-6.201478 -1.863193 0.017711 1
-6.206736 -1.864492 0.016628 1
-6.251194 -1.914482 -0.000205 1
-6.237261 -1.877376 0.009266 1
-6.243767 -1.873226 0.009037 1
-6.250258 -1.869053 0.008808 1
-6.250462 -1.855051 0.011494 1
-6.240070 -1.824767 0.019044 1
-6.269646 -1.856397 0.008124 1
-6.267578 -1.839150 0.011789 1
-6.261131 -1.815463 0.017403 1
-6.265273 -1.808000 0.018155 1
-6.286651 -1.826316 0.011116 1
-6.282127 -1.805916 0.015765 1
-6.299291 -1.817649 0.010670 1
-6.301203 -1.806883 0.012398 1
-6.296134 -1.786765 0.017066 1
-6.293773 -1.769455 0.020741 1
-6.322163 -1.796876 0.010761 1
-6.321676 -1.782923 0.013471 1
-6.341030 -1.797670 0.007401 1
-6.317895 -1.752165 0.019890 1
-6.333042 -1.760316 0.015764 1
-6.336859 -1.752696 0.016527 1
-6.349804 -1.757587 0.013376 1
-6.345959 -1.745944 0.016205 1
-6.343457 -1.723580 0.020783 2
-6.349426 -1.719061 0.020572 2
-6.355379 -1.714522 0.020362 7
-6.367181 -1.717682 0.017700 7
-6.366060 -1.703841 0.020433 10
-6.366042 -1.691565 0.022679 10
-6.376655 -1.693094 0.020508 12
-6.387294 -1.694569 0.018337 12
-6.396761 -1.694466 0.016655 12
-6.392989 -1.677611 0.020380 12
-6.396377 -1.669891 0.021158 12
-6.402158 -1.665188 0.020953 12
-6.411585 -1.664983 0.019273 12
-6.424705 -1.669236 0.016116 12
-6.419117 -1.651197 0.020354 11
-6.426069 -1.647908 0.019659 11
-6.430532 -1.641613 0.019950 12
-6.447434 -1.650150 0.015313 12
-6.451610 -1.644033 0.015614 12
-6.450043 -1.630039 0.018362 12
-6.448113 -1.616323 0.021124 14
-6.460043 -1.618772 0.018457 14
-6.469182 -1.618481 0.016788 12
-6.475809 -1.620385 0.015207 12
-6.474235 -1.601033 0.018853 15
-6.478488 -1.594610 0.019151 15
-6.486315 -1.592759 0.017977 13
-6.498313 -1.594940 0.015308 13
-6.499926 -1.585577 0.016597 12
-6.505412 -1.580513 0.016403 12
-6.505632 -1.569726 0.018190 12
-6.516604 -1.570071 0.016007 12
-6.532617 -1.576278 0.011849 5
-6.540725 -1.573923 0.010665 5
-6.515528 -1.536360 0.021879 1
-6.539295 -1.551131 0.014754 1
-6.536344 -1.537803 0.017551 1
-6.550009 -1.540709 0.014375 1
-6.555605 -1.535208 0.014176 1
-6.552512 -1.521913 0.016978 1
-6.584733 -1.544503 0.006861 1
-6.606464 -1.555629 0.000706 1
-6.584435 -1.522810 0.010462 1
-6.589965 -1.517182 0.010266 1
-6.581410 -1.498213 0.015056 1
-6.600441 -1.506407 0.009894 1
-6.624844 -1.520157 0.002747 1
-6.677582 -1.565904 -0.015277 1
-6.635340 -1.509136 0.002375 1
-6.654858 -1.516666 -0.002805 1
-6.609400 -1.463196 0.014961 1
-6.597252 -1.442125 0.020776 1
-6.647339 -1.479235 0.004641 1
-6.641080 -1.463136 0.008453 1
-6.631875 -1.444479 0.013266 1
-6.639980 -1.441288 0.012081 1
-6.642091 -1.433136 0.012903 1
-6.638403 -1.419809 0.015726 1
-6.634399 -1.406802 0.018560 1
-6.656649 -1.416685 0.012386 1
-6.676080 -1.423870 0.007210 1
-6.652084 -1.392425 0.017035 1
-6.686148 -1.412210 0.006852 1
-6.726236 -1.436827 -0.005339 1
-6.695647 -1.401052 0.006515 1
-6.659173 -1.360203 0.020372 1
-6.672516 -1.362358 0.017206 1
-6.695269 -1.371329 0.011014 1
-6.700007 -1.365584 0.010846 1
-6.707711 -1.362288 0.009674 1
-6.724395 -1.366319 0.005492 1
-6.711764 -1.351149 0.010427 1
-6.709492 -1.335428 0.013200 1
-6.726415 -1.339036 0.009009 1
-6.718926 -1.323532 0.012864 1
-6.769049 -1.353730 -0.002376 1
-6.733911 -1.316938 0.010536 1
-6.756777 -1.325343 0.004340 1
-6.785844 -1.338342 -0.003871 1
-6.726007 -1.282738 0.017097 1
-6.745824 -1.288629 0.011906 1
-6.774961 -1.301407 0.003693 1
-6.757796 -1.279098 0.010583 1
-6.768416 -1.277767 0.008411 1
-6.763496 -1.264853 0.011277 1
-6.777217 -1.265752 0.008097 1
-6.778461 -1.257439 0.008950 1
-6.754380 -1.231257 0.017880 1
-6.786689 -1.245960 0.008656 1
-6.778605 -1.230593 0.012532 1
-6.773380 -1.217842 0.015409 1
-6.799738 -1.227419 0.008191 1
-6.823010 -1.234609 0.001980 1
-6.785923 -1.199750 0.014961 1
-6.831509 -1.222213 0.001677 1
-6.811276 -1.203786 0.008676 1
-6.807887 -1.188042 0.011487 1
-6.811985 -1.181906 0.011341 1
-6.825717 -1.182201 0.008160 1
-6.833020 -1.178139 0.007003 1
-6.824150 -1.163410 0.010906 1
-6.821680 -1.152988 0.012788 1
-6.841897 -1.157319 0.007582 1
-6.842631 -1.148972 0.008453 1
-6.853118 -1.146875 0.006285 1
-6.876693 -1.152992 0.000062 1
-6.861004 -1.134271 0.006003 1
-6.858346 -1.123857 0.007891 1
-6.862219 -1.117545 0.007752 1
-6.855985 -1.105466 0.010665 1
-6.895958 -1.121609 -0.000627 1
-6.876831 -1.100844 0.006333 1
-6.880624 -1.094466 0.006197 1
-6.891047 -1.092028 0.004031 1
-6.888144 -1.081672 0.005928 1
-6.858472 -1.055728 0.015954 1
-6.895574 -1.068826 0.005661 1
-6.899439 -1.062061 0.005523 1
-6.943422 -1.078606 -0.006809 1
-6.878187 -1.036767 0.013455 1
-6.910165 -1.042979 0.005138 1
-6.917136 -1.038368 0.003992 1
-6.941030 -1.043069 -0.002242 1
-6.910692 -1.017888 0.007808 1
-6.914195 -1.011393 0.007682 1
-6.917676 -1.004887 0.007557 1
-6.914310 -0.994724 0.009470 1
-6.917733 -0.988217 0.009347 1
-6.941666 -0.984096 0.004008 11
-6.993174 -1.002323 -0.010387 1
-6.931197 -0.962070 0.008863 1
-6.944703 -0.952402 0.006586 11
-6.982595 -0.963038 -0.003735 1
-6.992460 -0.942764 -0.004090 11
-6.995701 -0.935983 -0.004207 1
-6.974480 -0.917545 0.002827 1
-6.960148 -0.902571 0.007821 1
-6.945735 -0.887709 0.012819 1
-7.008429 -0.908747 -0.004666 1
-6.985414 -0.893987 0.002433 1
-6.990012 -0.883850 0.002267 1
-7.002012 -0.856702 0.001834 1
-6.943925 -0.815576 0.020047 1
-7.038574 -0.839903 -0.005755 1
-7.016478 -0.822535 0.001310 1
-7.044313 -0.826010 -0.005962 1
-7.047147 -0.819049 -0.006065 1
-7.058238 -0.791106 -0.006467 11
-6.975969 -0.735657 0.018886 1
-7.043612 -0.753470 0.000327 1
-6.987119 -0.705351 0.018481 11
-7.077404 -0.655630 -0.000905 11
-7.013330 -0.627485 0.017525 1
-7.015578 -0.620293 0.017442 1
-7.019682 -0.606915 0.017292 11
-7.092453 -0.606300 -0.001456 1
-7.094520 -0.599173 -0.001532 1
-7.029691 -0.572833 0.016925 1
-7.078397 -0.541179 0.006204 1
-7.110157 -0.541903 -0.002108 1
-7.093282 -0.529904 0.002977 1
-7.083842 -0.519929 0.006002 1
-7.048022 -0.503826 0.016248 1
-7.111558 -0.451872 0.002298 11
-7.132063 -0.448337 -0.002922 1
-7.133578 -0.441073 -0.002979 1
-7.068343 -0.412783 0.015491 11
-7.069735 -0.405743 0.015439 1
-7.072312 -0.392354 0.015342 1
-7.142003 -0.398106 -0.003295 1
-7.074928 -0.378242 0.015243 1
-7.075567 -0.374711 0.015219 1
-7.077446 -0.364111 0.015148 1
-7.173929 -0.373117 -0.010726 1
-7.079925 -0.349610 0.015054 1
-7.083365 -0.328358 0.014922 11
-7.108407 -0.317989 0.008640 11
-7.086479 -0.307781 0.014803 1
-7.087504 -0.300678 0.014763 1
-7.157383 -0.303248 -0.003882 1
-7.089529 -0.286106 0.014685 1
-7.090526 -0.278637 0.014646 1
-7.091403 -0.271876 0.014612 1
-7.093179 -0.257634 0.014543 11
-7.109420 -0.251972 0.010371 1
-7.133283 -0.247440 0.004133 1
-7.095695 -0.235891 0.014443 1
-7.165580 -0.236590 -0.004203 1
-7.135575 -0.226358 0.004042 1
-7.147886 -0.219884 0.000908 1
-7.148604 -0.212566 0.000879 1
-7.098985 -0.203765 0.014312 1
-7.130691 -0.196547 0.005998 1
-7.100564 -0.186254 0.014247 1
-7.101165 -0.179102 0.014223 1
-7.132555 -0.174405 0.005921 1
-7.125382 -0.166917 0.007968 1
-7.102819 -0.157637 0.014154 1
-7.176559 -0.155538 -0.005529 1
-7.142353 -0.145845 0.003763 1
-7.104249 -0.136155 0.014092 1
-7.127798 -0.130707 0.007865 1
-7.105038 -0.122543 0.014058 1
-7.105417 -0.115376 0.014041 1
-7.105772 -0.108208 0.014025 1
-7.136996 -0.102056 0.005728 1
-7.106420 -0.093511 0.013994 1
-7.106710 -0.085981 0.013980 1
-7.106962 -0.078809 0.013968 1
-7.176693 -0.074110 -0.004676 1
-7.107371 -0.065180 0.013946 1
-7.130726 -0.058552 0.007725 1
-7.107704 -0.050831 0.013927 1
-7.107839 -0.043296 0.013918 1
-7.107941 -0.036121 0.013911 1
-7.107987 -0.032174 0.013907 1
-7.108071 -0.021768 0.013899 1
-7.204691 -0.014809 -0.011987 1
-7.108101 -0.007415 0.013890 1
-7.108079 -0.000239 0.013887 1
-7.107959 0.014114 0.013884 11
-7.107861 0.021289 0.013884 1
-7.107738 0.028465 0.013884 1
-7.130775 0.035796 0.007674 1
-7.138317 0.043615 0.005606 1
-7.107220 0.049988 0.013891 1
-7.145614 0.058434 0.003542 1
-7.106763 0.063975 0.013900 1
-7.106477 0.071505 0.013906 1
-7.106179 0.078675 0.013913 1
-7.105856 0.085844 0.013920 1
-7.105508 0.093012 0.013928 1
-7.105135 0.100179 0.013938 1
-7.104758 0.106986 0.013947 1
-7.135167 0.116397 0.005678 1
-7.103867 0.121671 0.013971 1
-7.103394 0.128832 0.013984 1
-7.102922 0.135633 0.013996 1
-7.102664 0.139212 0.014004 1
-7.132668 0.152372 0.005746 1
-7.101282 0.157100 0.014042 1
-7.100686 0.164252 0.014060 1
-7.138517 0.175205 0.003729 1
-7.099385 0.178906 0.014097 1
-7.098713 0.186051 0.014117 1
-7.098015 0.193194 0.014138 1
-7.097293 0.200334 0.014159 1
-7.096584 0.207114 0.014180 1
-7.095813 0.214249 0.014204 1
-7.095017 0.221382 0.014228 1
-7.094197 0.228511 0.014252 1
-7.093351 0.235637 0.014278 1
-7.092481 0.242761 0.014305 1
-7.090666 0.256999 0.014361 11
-7.089721 0.264113 0.014390 1
-7.088751 0.271223 0.014420 1
-7.087757 0.278330 0.014451 1
-7.084625 0.299631 0.014550 11
-7.083031 0.309914 0.014600 11
-7.080102 0.327978 0.014693 11
-7.128418 0.343558 0.001293 1
-7.096723 0.345464 0.009601 1
-7.076514 0.348842 0.014807 1
-7.098057 0.360068 0.008647 1
-7.073959 0.362965 0.014889 1
-7.071305 0.377070 0.014974 1
-7.069873 0.384468 0.015020 1
-7.068483 0.391509 0.015065 1
-7.067070 0.398545 0.015111 1
-7.065704 0.405224 0.015155 1
-7.064242 0.412250 0.015202 1
-7.059710 0.433296 0.015350 1
-7.058150 0.440301 0.015400 1
-7.054957 0.454294 0.015505 11
-7.053325 0.461282 0.015558 1
-7.119288 0.484584 -0.002964 1
-7.049985 0.475241 0.015667 1
-7.049136 0.478727 0.015695 1
-7.046549 0.489176 0.015780 1
-7.041213 0.510033 0.015955 11
-7.039386 0.516973 0.016015 1
-7.037534 0.523906 0.016077 1
-7.029887 0.551573 0.016329 11
-7.027915 0.558473 0.016394 1
-7.022060 0.578444 0.016588 11
-7.019994 0.585316 0.016657 1
-7.017904 0.592181 0.016726 1
-7.015791 0.599039 0.016796 1
-7.061553 0.621068 0.003482 1
-7.011492 0.612732 0.016939 1
-7.007097 0.626395 0.017086 1
-7.004864 0.633215 0.017160 1
-7.039245 0.652350 0.006946 1
-7.001470 0.643430 0.017273 1
-6.995695 0.660415 0.017466 11
-6.988689 0.680392 0.017700 1
-6.983824 0.693894 0.017863 1
-6.976222 0.714418 0.018118 11
-6.968662 0.734192 0.018371 1
-6.950050 0.780460 0.018997 11
-6.947280 0.787080 0.019090 1
-7.008451 0.821114 0.000730 1
-6.941671 0.800290 0.019279 1
-6.986346 0.823637 0.006003 1
-6.981956 0.833754 0.006151 1
-6.963097 0.981013 -0.004072 11
-6.959627 0.987680 -0.003955 1
-6.892798 1.053068 0.004647 1
-6.829053 1.024198 0.023095 1
-6.868695 1.056034 0.009989 1
-6.881569 1.072289 0.005029 1
-6.814445 1.048904 0.023592 11
-6.861384 1.156514 -0.000612 1
-6.772512 1.115767 0.025021 1
-6.764812 1.127449 0.025284 1
-6.760833 1.133420 0.025420 1
-6.756833 1.139377 0.025557 1
-6.810235 1.184743 0.007462 1
-6.806055 1.190873 0.007604 1
-6.785980 1.185927 0.012810 1
-6.736521 1.168948 0.026250 11
-6.811400 1.230665 0.001094 1
-6.724088 1.186520 0.026675 1
-6.798097 1.249331 0.001549 1
-6.753350 1.225348 0.014829 1
-6.679357 1.246689 0.028206 11
-6.905708 1.636626 0.012756 1
-6.899951 1.643086 0.012954 1
-6.894172 1.649527 0.013152 1
-6.888371 1.655947 0.013351 1
-6.882547 1.662347 0.013551 1
-6.882129 1.674362 0.012032 1
-6.854856 1.660724 0.018720 2
-6.846174 1.664327 0.019785 2
-6.851947 1.681021 0.016519 5
-6.836153 1.677849 0.019746 5
-6.833067 1.686774 0.019085 5
-6.818722 1.684825 0.021878 5
-6.821184 1.699165 0.019494 6
-6.819594 1.703616 0.019165 6
-6.813378 1.715595 0.018612 7
-6.797664 1.712081 0.021836 7
-6.791645 1.718163 0.022043 7
-6.784231 1.722835 0.022681 7
-6.791861 1.742803 0.018585 7
-6.787099 1.750264 0.018366 7
-6.771740 1.746188 0.021577 4
-6.766956 1.753587 0.021359 4
-6.752697 1.751089 0.024149 6
-6.753264 1.764098 0.022213 6
-6.755100 1.778556 0.019850 7
-6.738173 1.773077 0.023499 7
-6.733272 1.780382 0.023285 6
-6.733637 1.793418 0.021356 6
-6.720737 1.792074 0.023716 5
-6.714439 1.797887 0.023933 5
-6.704193 1.799329 0.025436 2
-6.704392 1.812356 0.023513 2
-6.711017 1.832701 0.019452 1
-6.704577 1.838481 0.019674 1
-6.698118 1.844238 0.019897 1
-6.691638 1.849972 0.020120 1
-6.685139 1.855683 0.020344 1
-6.681881 1.858531 0.020456 1
-6.672735 1.866473 0.020771 1
-6.652344 1.883899 0.021474 52
-6.684156 1.949039 0.006583 52
-6.626092 1.905781 0.022380 52
-6.619398 1.911264 0.022610 1
-6.612685 1.916723 0.022842 1
-6.605953 1.922158 0.023074 1
-6.642790 1.982798 0.008010 1
-6.592433 1.932958 0.023541 1
-6.585644 1.938323 0.023775 1
-6.602932 1.989308 0.013217 52
-6.565510 1.954009 0.024470 1
-6.551768 1.964526 0.024944 1
-6.544870 1.969749 0.025182 1
-6.579795 2.031525 0.010184 1
-6.531019 1.980121 0.025661 1
-6.524066 1.985271 0.025901 1
-6.520584 1.987836 0.026021 1
-6.532557 2.027513 0.017945 1
-6.502751 2.000827 0.026637 1
-6.552534 2.085421 0.005762 1
-6.488684 2.010904 0.027123 1
-6.537508 2.096108 0.006281 1
-6.474547 2.020883 0.027611 1
-6.467808 2.025588 0.027844 1
-6.493006 2.093723 0.013182 1
-6.446424 2.040300 0.028583 1
-6.493842 2.126262 0.007790 1
-6.432083 2.049983 0.029079 1
-6.463136 2.113886 0.014215 1
-6.438649 2.092579 0.021190 1
-6.448282 2.123688 0.014728 1
-6.430275 2.112086 0.019182 1
-6.412368 2.100384 0.023631 1
-6.427960 2.141502 0.014665 1
-6.381001 2.083311 0.030845 1
-6.373689 2.087936 0.031098 1
-6.397154 2.142477 0.018795 1
-6.359017 2.097109 0.031606 1
-6.352026 2.101431 0.031848 1
-6.378706 2.153903 0.019433 1
-6.387815 2.194165 0.011457 1
-6.350483 2.184612 0.018111 52
-6.340994 2.221889 0.013077 1
-6.297019 2.161434 0.029155 1
-6.307036 2.196264 0.021914 1
-6.279734 2.202635 0.024391 52
-6.294386 2.248183 0.014691 1
-6.232955 2.170276 0.035970 1
-6.270683 2.261072 0.015512 1
-6.267439 2.293833 0.010262 52
-6.246845 2.273713 0.016338 1
-6.238870 2.277870 0.016614 1
-6.222238 2.303987 0.014127 1
-6.211223 2.322649 0.012210 1
-6.104681 2.372669 0.015905 52
-6.069032 2.358313 0.022503 1
-6.081286 2.459423 0.002930 52
-6.072664 2.463004 0.003229 1
-6.002959 2.385625 0.024796 1
-6.004454 2.414509 0.019383 1
-5.986220 2.392206 0.025377 1
-6.003686 2.490395 0.005623 1
-5.959925 2.506637 0.007143 52
-5.924716 2.519078 0.008366 52
-5.907489 2.524965 0.008964 52
-5.898640 2.527938 0.009272 1
-5.871585 2.536816 0.010212 52
-5.840871 2.546509 0.011280 52
-5.827481 2.550608 0.011745 1
-5.818543 2.553302 0.012056 1
-5.790061 2.488191 0.026831 1
-5.800638 2.558595 0.012678 1
-5.782697 2.563764 0.013302 52
-5.764719 2.568807 0.013927 52
-5.755718 2.571281 0.014240 1
-5.746708 2.573724 0.014554 1
-5.738141 2.576016 0.014852 1
-5.729114 2.578397 0.015166 1
-5.711036 2.583066 0.015794 52
-5.702438 2.585239 0.016093 1
-5.692926 2.587607 0.016424 1
-5.683859 2.589831 0.016740 1
-5.665703 2.594183 0.017372 1
-5.656614 2.596311 0.017688 1
-5.638868 2.600370 0.018305 52
-5.629757 2.602405 0.018623 1
-5.602383 2.608317 0.019575 52
-5.593701 2.610130 0.019878 1
-5.584099 2.612100 0.020212 1
-5.565316 2.563890 0.030821 1
-5.565790 2.615754 0.020849 1
-5.556626 2.617533 0.021168 1
-5.547455 2.619281 0.021488 1
-5.538279 2.620996 0.021807 1
-5.529097 2.622679 0.022127 1
-5.520369 2.624248 0.022431 1
-5.511175 2.625869 0.022751 1
-5.492771 2.629014 0.023392 52
-5.483562 2.630538 0.023713 1
-5.474346 2.632030 0.024034 1
-5.472663 2.683916 0.014138 1
-5.466659 2.708656 0.009752 1
-5.447132 2.636243 0.024982 1
-5.437435 2.637675 0.025320 1
-5.435028 2.689538 0.015449 1
-5.405076 2.642192 0.026448 52
-5.391654 2.643947 0.026916 1
-5.354585 2.648437 0.028208 1
-5.350560 2.700209 0.018393 1
-5.327208 2.651415 0.029162 52
-5.302231 2.693291 0.022375 1
-5.293765 2.705882 0.020373 1
-5.337107 -2.868187 -0.006479 52
-5.347075 -2.867169 -0.006827 1
-5.357040 -2.866116 -0.007176 1
-5.366503 -2.865083 -0.007507 1
-5.376460 -2.863962 -0.007855 1
-5.396362 -2.861616 -0.008551 52
-5.456139 -2.782371 0.003066 1
-5.485203 -2.849417 -0.011660 1
-5.480577 -2.750893 0.007542 1
-5.499687 -2.747827 0.006874 52
-5.537842 -2.741295 0.005538 52
-5.580915 -2.761222 -0.001302 52
-5.576181 -2.686233 0.013334 1
-5.630213 -2.622869 0.021343 52
-5.657523 -2.616666 0.020386 1
-5.720131 -2.803302 -0.019888 1
-5.719607 -2.674252 0.004501 52
-5.711488 -2.603519 0.018494 1
-5.738592 -2.596465 0.017544 52
-5.765507 -2.662302 0.002892 1
-5.775216 -2.659665 0.002552 1
-5.830048 -2.644053 0.000629 52
-5.828375 -2.570910 0.014395 52
-5.881797 -2.554077 0.012521 52
-5.890666 -2.551163 0.012210 1
-5.938153 -2.576464 0.002928 1
-5.934415 -2.536283 0.010674 1
-5.969138 -2.523867 0.009455 52
-6.021980 -2.503925 0.007599 52
-6.030673 -2.500522 0.007294 1
-6.039354 -2.497088 0.006989 1
-6.047591 -2.493798 0.006700 1
-6.056248 -2.490305 0.006396 1
-6.064894 -2.486782 0.006092 1
-6.107934 -2.468714 0.004579 52
-6.267195 -2.393916 -0.001021 1
-6.271351 -2.391790 -0.001167 1
-6.283796 -2.385368 -0.001605 1
-6.292074 -2.381051 -0.001897 1
-6.325444 -2.363271 -0.003071 52
-6.333235 -2.359033 -0.003346 1
-6.304109 -2.285738 0.012907 1
-6.315794 -2.288219 0.010973 1
-6.299169 -2.239242 0.021456 1
-6.374006 -2.336299 -0.004781 52
-6.333979 -2.246499 0.015662 1
-6.390203 -2.327006 -0.005352 1
-6.349550 -2.237493 0.015114 1
-6.406333 -2.317601 -0.005920 1
-6.365057 -2.228379 0.014567 1
-6.372787 -2.223781 0.014295 1
-6.430006 -2.303523 -0.006754 1
-6.387815 -2.214738 0.013765 1
-6.395496 -2.210061 0.013495 1
-6.403162 -2.205357 0.013225 1
-6.435320 -2.240668 0.002956 1
-6.424871 -2.214916 0.008653 1
-6.509151 -2.254001 -0.009544 1
-6.471403 -2.161824 0.010819 1
-6.493922 -2.179746 0.004696 1
-6.486380 -2.151860 0.010290 1
-6.480829 -2.127310 0.015054 1
-6.501286 -2.141792 0.009765 1
-6.508713 -2.136719 0.009503 1
-6.461053 -2.050827 0.030215 1
-6.530519 -2.121603 0.008733 1
-6.522587 -2.093711 0.014342 1
-6.561314 -2.133368 0.002318 1
-6.552899 -2.105738 0.007943 1
-6.559835 -2.100749 0.007699 1
-6.567119 -2.095471 0.007441 1
-6.558343 -2.067988 0.013079 1
-6.567815 -2.065877 0.011984 1
-6.574977 -2.060573 0.011731 1
-6.575232 -2.031074 0.016289 1
-6.565510 -1.974569 0.026527 52
-6.615176 -2.025121 0.011072 1
-6.638924 -2.041311 0.004906 1
-6.645999 -2.035758 0.004656 1
-6.624119 -1.993253 0.014562 1
-6.637916 -1.982229 0.014074 52
-6.691211 -2.034659 -0.002270 1
-6.670790 -1.980683 0.009107 1
-6.633100 -1.920562 0.024138 1
-6.678503 -1.948866 0.012640 52
-6.717317 -1.899998 0.013550 1
-6.694880 -1.867672 0.021953 1
-6.758122 -1.905508 0.006018 52
-6.777535 -1.887836 0.005331 1
-6.749541 -1.817827 0.020018 52
-6.841756 -1.864887 -0.002270 52
-6.780190 -1.788531 0.018933 1
-6.786692 -1.782186 0.018702 1
-6.842287 -1.826149 0.003037 1
-6.826391 -1.797904 0.009687 1
-6.832306 -1.792010 0.009478 1
-6.832997 -1.780248 0.010975 1
-6.829439 -1.739278 0.017187 1
-6.841160 -1.727141 0.016771 1
-6.877865 -1.756586 0.006341 1
-6.889801 -1.749700 0.005157 1
-6.887660 -1.734885 0.007515 1
-6.887980 -1.723109 0.009025 1
-6.893646 -1.717010 0.008824 1
-6.876408 -1.689616 0.015521 1
-6.882255 -1.683238 0.015313 1
-6.925507 -1.711152 0.003889 1
-6.917281 -1.691129 0.007985 1
-6.928929 -1.689844 0.006050 1
-6.923149 -1.672848 0.009298 1
-6.911156 -1.651042 0.014287 1
-6.916868 -1.644543 0.014084 1
-6.922558 -1.638023 0.013882 1
-6.928508 -1.631157 0.013671 1
-6.963670 -1.650164 0.004816 1
-6.957536 -1.633295 0.008076 1
-6.945089 -1.611749 0.013082 1
-6.989379 -1.637968 0.001621 1
-6.979831 -1.618954 0.005763 1
-6.961745 -1.591837 0.012490 1
-6.967251 -1.585162 0.012294 1
-6.972733 -1.578467 0.012099 1
-7.017474 -1.603903 0.000622 1
-7.020250 -1.600469 0.000523 1
-6.988769 -1.558606 0.011529 1
-6.994428 -1.551497 0.011327 1
-6.999793 -1.544707 0.011136 1
-7.005134 -1.537899 0.010946 1
-7.010185 -1.531414 0.010766 1
-7.015480 -1.524569 0.010578 1
-7.020751 -1.517706 0.010390 1
-7.025997 -1.510825 0.010204 1
-7.031220 -1.503925 0.010018 1
-7.036418 -1.497007 0.009832 1
-7.041593 -1.490071 0.009648 1
-7.046743 -1.483117 0.009465 1
-7.051869 -1.476145 0.009282 1
-7.056970 -1.469155 0.009100 1
-7.062047 -1.462148 0.008919 1
-7.066848 -1.455474 0.008748 1
-7.071626 -1.448785 0.008578 1
-7.076882 -1.441373 0.008390 1
-7.081862 -1.434296 0.008213 1
-7.086817 -1.427201 0.008036 1
-7.091748 -1.420090 0.007860 1
-7.096653 -1.412961 0.007685 1
-7.101534 -1.405815 0.007511 1
-7.103965 -1.402236 0.007424 1
-7.111221 -1.391472 0.007165 1
-7.116027 -1.384276 0.006993 1
-7.120807 -1.377062 0.006823 1
-7.134998 -1.355323 0.006316 52
-7.139678 -1.348043 0.006148 1
-7.144331 -1.340748 0.005982 1
-7.148960 -1.333436 0.005817 1
-7.153563 -1.326108 0.005652 1
-7.158141 -1.318763 0.005488 1
-7.162693 -1.311404 0.005326 1
-7.167219 -1.304028 0.005164 1
-7.175747 -1.289970 0.004858 1
-7.180420 -1.282177 0.004691 1
-7.189242 -1.267286 0.004375 52
-7.193614 -1.259818 0.004219 1
-7.197960 -1.252334 0.004063 1
-7.206788 -1.236946 0.003747 52
-7.211054 -1.229416 0.003594 1
-7.213389 -1.225269 0.003510 1
-7.219297 -1.214691 0.003298 1
-7.223485 -1.207118 0.003148 1
-7.227647 -1.199531 0.002999 1
-7.231783 -1.191929 0.002850 1
-7.235892 -1.184312 0.002703 1
-7.239974 -1.176681 0.002556 1
-7.252061 -1.153704 0.002122 1
-7.256036 -1.146017 0.001979 1
-7.259985 -1.138316 0.001837 1
-7.263906 -1.130601 0.001696 1
-7.267801 -1.122873 0.001556 1
-7.271669 -1.115131 0.001417 1
-7.275510 -1.107376 0.001279 1
-7.290602 -1.076221 0.000736 1
-7.294306 -1.068400 0.000602 1
-7.297984 -1.060566 0.000470 1
-7.301634 -1.052719 0.000338 1
-7.305257 -1.044859 0.000208 1
-7.307058 -1.040925 0.000143 1
-7.319474 -1.013296 -0.000305 1
-7.322959 -1.005374 -0.000431 1
-7.326416 -0.997440 -0.000556 1
-7.329846 -0.989494 -0.000680 1
-7.339969 -0.965586 -0.001046 1
-7.343287 -0.957593 -0.001166 1
-7.346579 -0.949588 -0.001285 1
-7.349841 -0.941572 -0.001403 1
-7.353076 -0.933545 -0.001521 1
-7.356283 -0.925506 -0.001637 1
-7.365735 -0.901324 -0.001980 1
-7.368829 -0.893241 -0.002092 1
-7.371895 -0.885148 -0.002203 1
-7.374933 -0.877044 -0.002313 1
-7.380923 -0.860804 -0.002531 52
-7.383876 -0.852669 -0.002639 1
-7.400996 -0.803644 -0.003262 1
-7.403612 -0.795849 -0.003357 1
-7.411705 -0.771178 -0.003653 1
-7.439040 -0.680441 -0.004655 52
-7.441363 -0.672103 -0.004741 1
-7.443657 -0.663758 -0.004825 1
-7.450365 -0.638674 -0.005072 1
-7.462890 -0.588724 -0.005536 1
-7.464893 -0.580304 -0.005610 1
-7.468812 -0.563443 -0.005756 52
-7.478092 -0.521175 -0.006102 1
-7.481597 -0.504223 -0.006233 1
-7.483305 -0.495738 -0.006298 1
-7.489684 -0.462592 -0.006538 52
-7.494284 -0.437037 -0.006712 1
-7.495831 -0.428081 -0.006770 1
-7.497273 -0.419547 -0.006825 1
-7.498686 -0.411008 -0.006879 1
-7.500069 -0.402464 -0.006932 1
-7.501422 -0.393915 -0.006984 1
-7.502680 -0.385790 -0.007032 1
-7.503975 -0.377232 -0.007081 1
-7.507621 -0.351961 -0.007222 1
-7.508856 -0.342957 -0.007270 1
-7.515329 -0.290995 -0.007523 52
-7.516294 -0.282393 -0.007561 1
-7.518963 -0.257000 -0.007668 52
-7.520261 -0.243647 -0.007720 52
-7.521371 -0.231581 -0.007765 1
-7.522165 -0.222527 -0.007798 1
-7.522891 -0.213903 -0.007827 1
-7.523586 -0.205275 -0.007856 1
-7.524218 -0.197077 -0.007883 1
-7.524886 -0.188013 -0.007911 1
-7.526065 -0.170743 -0.007961 52
-7.526610 -0.162105 -0.007984 1
-7.527100 -0.153897 -0.008006 1
-7.527562 -0.145687 -0.008026 1
-7.528862 -0.119320 -0.008086 52
-7.529228 -0.110673 -0.008103 1
-7.529882 -0.092941 -0.008135 1
-7.530142 -0.084723 -0.008148 1
-7.530375 -0.076503 -0.008161 1
-7.530591 -0.067851 -0.008173 1
-7.530777 -0.059197 -0.008184 1
-7.531063 -0.041456 -0.008203 1
-7.531084 0.019130 -0.008236 52
-7.530966 0.027785 -0.008236 1
-7.530818 0.036439 -0.008235 1
-7.530432 0.053745 -0.008231 52
-7.529297 0.088348 -0.008209 52
-7.528938 0.096996 -0.008201 1
-7.528548 0.105643 -0.008192 1
-7.528129 0.114288 -0.008182 1
-7.527224 0.131142 -0.008159 1
-7.526690 0.140214 -0.008146 1
-7.526149 0.148852 -0.008131 1
-7.525579 0.157489 -0.008116 1
-7.525009 0.165692 -0.008100 1
-7.523721 0.182955 -0.008064 1
-7.520744 0.217882 -0.007979 1
-7.519933 0.226499 -0.007955 1
-7.519092 0.235114 -0.007930 1
-7.512417 0.294895 -0.007728 52
-7.511337 0.303483 -0.007695 1
-7.510228 0.312067 -0.007661 1
-7.509088 0.320647 -0.007625 1
-7.505490 0.346362 -0.007513 52
-7.502942 0.363484 -0.007433 52
-7.501019 0.375886 -0.007373 52
-7.498965 0.388706 -0.007307 1
-7.497487 0.397673 -0.007261 1
-7.496049 0.406208 -0.007215 1
-7.491633 0.431356 -0.007074 52
-7.486877 0.456882 -0.006921 1
-7.480122 0.490838 -0.006703 1
-7.471011 0.533143 -0.006407 52
-7.467161 0.550020 -0.006281 52
-7.463192 0.566869 -0.006152 52
-7.441594 0.650677 -0.005441 52
-7.429946 0.691456 -0.005056 1
-7.395686 0.798617 -0.003916 52
-7.330529 0.967316 -0.001729 1
-7.302543 1.030169 -0.000784 1
-7.287618 1.061883 -0.000280 1
-7.207643 1.214858 0.002433 1
-7.181529 1.259737 0.003322 1
-7.177085 1.267163 0.003473 1
-7.133354 1.337286 0.004963 52
-7.126511 1.347804 0.005197 1
-7.117224 1.361894 0.005514 1
-7.097876 1.390597 0.006174 1
-7.073131 1.426091 0.007020 52
-7.063060 1.440166 0.007364 52
-7.047770 1.461147 0.007887 1
-7.032522 1.481620 0.008409 52
-6.990776 2.367054 0.005499 1
-6.924106 2.419939 0.007799 1
-6.890012 2.445843 0.008976 1
-6.881433 2.452244 0.009272 1
-6.085253 3.086992 0.005437 1
-6.020202 3.107967 0.007698 1
-5.921837 3.136862 0.011118 17
-5.834230 3.159803 0.014165 17
-5.690267 3.191939 0.019176 1
-5.623666 3.204514 0.021495 1
-5.488625 3.225652 0.026199 1
-5.445126 3.231233 0.027716 1
-5.372333 -3.458155 0.002454 17
-5.383758 -3.457070 0.002055 1
-5.387071 -3.357542 0.017540 1
-5.426041 -3.397105 0.009312 1
-5.441738 -3.323773 0.019996 1
-5.456472 -3.349846 0.015112 1
-5.471393 -3.375856 0.010222 1
-5.482169 -3.366530 0.011093 1
-5.491400 -3.345419 0.013890 1
-5.503032 -3.343863 0.013483 1
-5.516190 -3.314145 0.017391 17
-5.542746 -3.290339 0.019582 17
-5.556494 -3.308219 0.015980 1
-5.557381 -3.236174 0.027182 1
-5.579492 -3.304612 0.015175 1
-5.591598 -3.306647 0.014128 1
-5.599310 -3.281360 0.017602 1
-5.602345 -3.228799 0.025608 1
-5.622119 -3.277456 0.016803 1
-5.624787 -3.224877 0.024822 1
-5.644901 -3.273391 0.016006 1
-5.647202 -3.220797 0.024037 1
-5.658398 -3.218699 0.023645 1
-5.674665 -3.243719 0.018707 1
-5.684639 -3.237757 0.018982 1
-5.694952 -3.227666 0.019869 1
-5.708470 -3.237016 0.017523 1
-5.713708 -3.207736 0.021708 1
-5.724301 -3.205523 0.021337 1
-5.735444 -3.203156 0.020946 1
-5.746578 -3.200749 0.020556 1
-5.757704 -3.198303 0.020167 1
-5.768821 -3.195819 0.019777 1
-5.774377 -3.194562 0.019582 1
-5.791029 -3.190734 0.018999 1
-5.802120 -3.188134 0.018610 1
-5.813201 -3.185494 0.018222 1
-5.824827 -3.182681 0.017814 1
-5.846389 -3.177344 0.017059 17
-5.867915 -3.171860 0.016304 17
-5.878940 -3.168992 0.015918 1
-5.889954 -3.166084 0.015531 1
-5.923483 -3.156979 0.014356 1
-5.944869 -3.150970 0.013606 1
-5.956367 -3.147675 0.013203 1
-5.967306 -3.144497 0.012819 1
-5.977688 -3.141443 0.012455 1
-6.021289 -3.128205 0.010925 17
-6.032160 -3.124800 0.010544 1
-6.064701 -3.114359 0.009402 17
-6.075524 -3.110803 0.009022 1
-6.096591 -3.103760 0.008283 1
-6.118149 -3.096388 0.007526 1
-6.160572 -3.081386 0.006037 1
-6.193185 -3.069403 0.004892 17
-6.214501 -3.061357 0.004143 17
-6.224606 -3.057482 0.003788 1
-6.235760 -3.053162 0.003397 1
-6.246367 -3.049009 0.003024 1
-6.267011 -3.040803 0.002299 1
-6.277575 -3.036541 0.001928 1
-6.309179 -3.023534 0.000817 1
-6.319684 -3.019124 0.000448 1
-6.330172 -3.014678 0.000079 1
-6.340645 -3.010195 -0.000289 1
-6.361544 -3.001121 -0.001023 17
-6.371970 -2.996528 -0.001390 1
-6.402112 -2.983006 -0.002449 17
-6.412475 -2.978272 -0.002814 1
-6.674242 -2.841249 -0.011714 1
-7.293496 -2.101546 -0.002420 1
-7.300415 -2.094101 -0.002665 1
-7.513117 -1.841093 -0.010538 1
-7.556777 -1.780843 -0.012095 17
-7.562938 -1.772087 -0.012314 1
-7.569069 -1.763310 -0.012533 1
-7.575169 -1.754511 -0.012751 1
-7.581239 -1.745692 -0.012967 1
-7.587277 -1.736851 -0.013183 1
-7.605207 -1.710202 -0.013823 17
-7.569366 -1.635800 -0.001340 17
-7.605984 -1.524307 0.001706 1
-7.591072 -1.491506 0.006905 1
-7.619991 -1.496490 0.001515 1
-7.568987 1.739385 -0.014051 1
-7.450432 1.668863 0.012040 1
-7.435239 1.669977 0.014448 2
-7.414683 1.668402 0.017984 2
-7.402436 1.672039 0.019663 3
-7.402914 1.684852 0.018387 3
-7.397283 1.692637 0.018579 4
-7.391029 1.701220 0.018793 4
-7.385045 1.709372 0.018998 3
-7.372736 1.712793 0.020678 3
-7.373292 1.725209 0.019400 5
-7.376620 1.740430 0.017398 5
-7.361127 1.741369 0.019816 5
-7.345657 1.742221 0.022235 5
-7.339530 1.750214 0.022444 4
-7.342660 1.759033 0.021078 4
-6.487333 -3.900588 0.003062 1
-6.501573 -3.895299 0.002562 1
-7.086573 -3.393976 0.006260 1
-8.412449 -1.682898 -0.017036 21
-8.197511 1.648407 0.013114 21
-8.216107 1.672423 0.009038 1
-8.213167 1.677942 0.009138 1
-8.188663 1.685968 0.012184 2
-8.177526 1.694053 0.013301 2
-8.176751 1.707819 0.012589 4
-8.150021 1.707163 0.016449 4
-8.137118 1.714089 0.017872 5
-8.137962 1.728743 0.016859 5
-8.133594 1.740482 0.016762 2
-8.117189 1.745305 0.018795 2
-8.111047 1.755990 0.019004 4
-8.130456 1.781634 0.014655 4
-8.093542 1.774283 0.020338 2
-8.117878 1.803077 0.015083 2
-8.113229 1.814781 0.014995 1
-8.083158 1.811137 0.019461 1
-7.100857 5.259649 -0.008676 2
-7.028908 5.180738 0.002599 2
-7.034455 5.250993 -0.003562 2
-7.006434 5.231749 -0.000131 2
-6.979255 5.214242 0.003094 2
-6.953575 5.200351 0.005917 4
-6.934046 5.203210 0.006946 4
-6.917174 5.213501 0.007181 7
-6.900253 5.223738 0.007418 7
-6.877430 5.216992 0.009439 14
-6.859827 5.225215 0.009875 14
-6.842466 5.231182 0.010478 19
-6.827956 5.248726 0.009929 19
-6.812097 5.262453 0.009778 23
-6.792771 5.268868 0.010450 23
-6.774344 5.274913 0.011090 19
-6.755292 5.278997 0.011928 19
-6.737427 5.286809 0.012373 19
-6.723666 5.307866 0.011447 19
-6.707787 5.319088 0.011473 7
-6.701395 5.331488 0.010817 7
-6.673420 5.340052 0.011790 4
-6.668300 5.391487 0.007756 4
-6.653911 5.412382 0.006852 2
-6.651527 5.475320 0.001670 2
-6.643276 5.519162 -0.001554 2
-6.623977 5.524685 -0.000883 2
-6.615286 5.568508 -0.004090 2
-6.585320 5.535530 0.000462 2
-6.565965 5.540850 0.001135 2
-6.546590 5.546103 0.001809 2
-6.533216 5.570286 0.000519 2
-6.510750 5.563861 0.002353 2
-6.487364 5.553488 0.004571 2
-6.472793 5.577775 0.003323 2
-6.453788 5.580525 0.004159 7
-6.433300 5.585627 0.004872 7
-6.414234 5.592352 0.005360 12
-6.397427 5.608700 0.004892 12
-6.376013 5.605608 0.006339 20
-6.355081 5.604375 0.007594 20
-6.338655 5.618378 0.007288 25
-6.319874 5.626724 0.007591 25
-6.302746 5.642788 0.007134 27
-6.292042 5.641072 0.007857 27
-6.263274 5.651386 0.008508 27
-6.245939 5.667280 0.008058 27
-6.227117 5.671209 0.008713 25
-6.209809 5.693052 0.007737 25
-6.184922 5.671661 0.010884 22
-6.168859 5.695135 0.009689 22
-6.147470 5.691175 0.011135 12
-6.130114 5.708670 0.010511 12
-6.110157 5.712400 0.011206 7
-6.084948 5.686656 0.014716 7
-6.070860 5.717512 0.012750 2
-6.051545 5.724961 0.013072 2
-6.053249 5.858032 0.001431 2
-6.012281 5.864885 0.002858 2
-5.991780 5.868204 0.003573 2
-5.850516 5.989555 -0.000279 36
-5.820157 5.993525 0.000779 2
-5.803621 6.023720 -0.001101 2
-5.784087 6.030139 -0.000771 2
-5.760143 6.016957 0.001467 2
-5.735429 5.995762 0.004435 2
-5.714048 5.994154 0.005531 2
-5.699497 6.047825 0.001476 2
-5.674381 6.010418 0.005861 2
-5.651837 5.996698 0.008051 2
-5.633340 6.036539 0.005362 2
-5.611531 6.030600 0.006824 5
-5.590625 6.034503 0.007378 5
-9.389296 1.691649 0.000487 36
-9.353813 1.695026 0.004515 1
-9.349681 1.710769 0.004477 1
-9.328933 1.719778 0.006592 3
-9.332057 1.738460 0.005601 3
-9.295050 1.739724 0.009858 3
-9.298079 1.758350 0.008870 3
-9.297371 1.775474 0.008363 3
-9.285635 1.787941 0.009289 3
-9.279337 1.802703 0.009501 1
-9.276168 1.810076 0.009608 1
-10.527624 5.280419 -0.032607 1
-10.518387 5.289967 -0.032290 1
-10.473514 5.301739 -0.029472 1
-10.446446 5.312212 -0.027904 1
-10.393953 5.297221 -0.023549 1
-10.364147 5.304531 -0.021674 1
-10.351183 5.328708 -0.021653 1
-10.326937 5.341480 -0.020394 1
-10.298030 5.347523 -0.018550 1
-10.359792 5.448856 -0.026834 1
-10.478981 5.611034 -0.041555 1
-10.459338 5.629943 -0.040879 1
-10.412177 5.619852 -0.037132 1
-10.365152 5.609500 -0.033390 1
-10.337340 5.619274 -0.031795 1
-10.323099 5.643531 -0.031730 1
-10.301991 5.660429 -0.030897 1
-10.266010 5.661074 -0.028384 1
-10.244852 5.677762 -0.027549 3
-10.228988 5.700291 -0.027321 3
-10.201044 5.709419 -0.025721 1
-10.175754 5.721398 -0.024426 1
-10.147799 5.730284 -0.022826 1
-9.905871 6.522836 -0.039091 33
-9.854704 6.501164 -0.034779 1
-9.855122 6.525630 -0.035854 1
-9.833745 6.570910 -0.036388 1
-9.827053 6.610238 -0.037641 1
-9.802768 6.622789 -0.036590 1
-9.785356 6.649924 -0.036625 1
-9.785030 6.699045 -0.038734 1
-9.761596 6.715526 -0.037924 1
-9.715734 6.747427 -0.036339 33
-9.620984 6.811884 -0.033064 33
-9.635598 6.888469 -0.037385 2
-9.593982 6.877750 -0.034251 2
-9.593889 6.930328 -0.036579 2
-9.566399 6.941115 -0.035311 2
-9.552897 6.973619 -0.035903 2
-9.513381 7.351260 -0.050432 2
-9.486385 7.367564 -0.049497 2
-9.423947 7.321249 -0.043522 2
-9.394294 7.329591 -0.042072 2
-9.366648 7.341260 -0.040903 2
-9.340976 7.356277 -0.040015 2
-9.317241 7.374664 -0.039405 2
-9.278897 7.364510 -0.036595 2
-9.264265 7.395848 -0.037147 2
-9.238403 7.410507 -0.036252 2
-9.224142 7.445991 -0.037029 2
-9.200661 7.468219 -0.036640 2
-9.187966 7.507153 -0.037683 2
-9.161716 7.521546 -0.036774 2
-9.132946 7.528109 -0.035354 2
-9.110947 7.553575 -0.035227 2
-9.073327 7.546542 -0.032653 2
-9.046940 7.560534 -0.031739 2
-9.033408 7.599207 -0.032753 2
-9.015994 7.630788 -0.033209 2
-9.003384 7.668754 -0.034255 3
-8.963923 7.657595 -0.031405 3
-8.945280 7.892414 -0.041455 33
-8.917687 7.905958 -0.040498 3
-8.911173 7.966818 -0.043026 3
-8.860975 7.933422 -0.038532 3
-8.862247 8.008001 -0.042177 3
-8.817016 7.980848 -0.038279 3
-8.779025 7.972229 -0.035691 3
-8.780934 8.046167 -0.039357 3
-8.758025 8.074306 -0.039410 3
-8.711718 8.047193 -0.035474 3
-8.701528 8.099987 -0.037450 3
-8.700533 8.170413 -0.040804 3
-8.635267 8.255821 -0.041293 33
-8.388946 8.572883 -0.043331 4
-7.154751 9.994660 -0.054182 33
-7.116372 9.976161 -0.051470 7
-7.086076 10.014984 -0.052108 7
-7.046449 9.998527 -0.049459 7
-7.011900 10.007395 -0.048362 7
-6.972837 9.992608 -0.045838 7
-6.939761 10.009072 -0.045215 7
-6.906953 10.027390 -0.044708 7
-6.873335 10.041672 -0.043960 7
-6.837244 10.031933 -0.041857 7
-6.800844 10.030240 -0.040166 7
-6.763148 10.020540 -0.038007 7
-6.722286 9.991001 -0.034679 7
-6.689935 10.012545 -0.034398 21
-6.654648 10.016235 -0.033063 21
-6.620575 10.027694 -0.032194 7
-6.586740 10.041011 -0.031438 7
-6.551672 10.034200 -0.029581 7
-6.516574 10.051493 -0.028993 7
-6.480910 10.052595 -0.027539 7
-6.442011 10.029831 -0.024702 7
-6.404343 10.014835 -0.022332 7
-6.386855 10.017182 -0.021722 7
-6.339115 10.047590 -0.021328 7
-6.301880 10.020099 -0.018337 7
-6.268631 10.024193 -0.017179 7
-6.231868 10.028590 -0.015897 7
-6.194199 10.024915 -0.014161 7
-6.160906 10.044726 -0.013846 7
-6.126742 10.040409 -0.012232 7
-6.090058 10.028212 -0.010107 7
-6.054253 10.023829 -0.008435 7
-6.018242 10.035392 -0.007603 7
-5.983191 10.038708 -0.006380 7
-5.948130 10.041902 -0.005158 7
-6.046396 -11.120333 -0.053228 10
-6.089874 -11.168490 -0.057444 10
-6.129861 -11.196786 -0.060502 10
-6.166525 -11.149028 -0.059503 10
-6.204566 -11.137113 -0.060419 10
-6.245470 -11.152871 -0.062886 10
-6.280230 -11.128990 -0.063065 10
-6.326592 -11.192094 -0.068212 10
-6.362833 -11.163762 -0.068236 10
-6.401734 -11.159108 -0.069597 10
-6.439643 -11.146390 -0.070508 10
-6.478985 -11.145430 -0.072092 10
-6.517306 -11.136409 -0.073225 10
-6.557697 -11.143090 -0.075261 10
-6.595668 -11.145939 -0.077004 10
-6.619482 -11.174867 -0.079496 10
-6.674694 -11.130631 -0.079562 10
-6.716398 -11.144640 -0.082059 10
-6.752692 -11.135099 -0.083122 10
-6.792407 -11.135003 -0.084823 10
-6.828394 -11.111099 -0.085149 10
-6.870620 -11.126499 -0.087768 10
-6.909714 -11.122042 -0.089240 10
-6.953461 -11.145007 -0.092327 10
-6.990934 -11.130420 -0.093224 10
-7.032488 -11.139301 -0.095509 10
-7.071300 -11.132307 -0.096868 10
-7.108645 -11.117323 -0.097761 10
-7.153256 -11.141463 -0.100982 10
-7.191326 -11.130125 -0.102107 10
-7.225502 -11.109238 -0.102579 10
-7.273510 -11.138395 -0.106230 10
-7.310739 -11.122730 -0.107119 10
-7.347554 -11.115166 -0.108409 10
-7.391681 -11.142660 -0.111821 10
-7.431330 -11.138317 -0.113417 10
-7.464239 -11.102608 -0.113118 10
-7.509768 -11.125307 -0.116372 10
-7.549398 -11.120543 -0.117968 10
-7.569211 -11.118108 -0.118766 10
-7.626404 -11.100863 -0.120563 10
-7.670540 -11.115120 -0.123353 10
-7.710187 -11.109781 -0.124950 10
-7.754579 -11.115473 -0.127335 10
-7.793303 -11.105956 -0.128693 10
-7.829095 -11.092916 -0.129740 10
-7.864831 -11.079760 -0.130785 10
-7.907393 -11.085329 -0.133106 10
-7.950029 -11.090736 -0.135430 10
-7.990701 -11.088258 -0.137271 10
-8.028297 -11.074059 -0.138382 10
-8.074030 -11.082326 -0.141022 10
-8.113695 -11.075543 -0.142620 11
-8.158711 -11.087847 -0.145442 11
-8.195406 -11.077468 -0.146729 11
-8.239221 -11.077370 -0.148888 11
-8.288934 -11.104503 -0.152704 11
-8.339185 -11.139658 -0.156954 11
-8.376050 -11.128679 -0.158247 11
-8.420209 -11.127871 -0.160418 11
-8.457808 -11.112209 -0.161530 11
-8.507122 -11.134564 -0.165126 11
-8.551867 -11.141469 -0.167732 11
-8.571278 -11.135335 -0.168413 11
-8.631880 -11.124331 -0.170954 11
-8.674324 -11.123140 -0.173065 11
-8.728007 -11.155927 -0.177436 11
-8.760576 -11.124064 -0.177543 11
-8.797388 -11.111688 -0.178835 11
-8.855350 -11.155226 -0.183978 11
-8.885126 -11.115434 -0.183573 11
-8.942185 -11.154758 -0.188477 11
-8.974422 -11.122260 -0.188573 11
-9.019845 -11.127289 -0.191204 11
-9.056665 -11.114050 -0.192496 11
-9.095376 -11.099983 -0.193855 11
-9.150539 -11.130752 -0.198279 12
-9.188467 -11.108149 -0.199197 12
-9.239773 -11.127258 -0.202864 12
-9.251647 -11.041633 -0.199343 12
-9.323863 -11.120821 -0.207060 12
-9.400553 -11.198131 -0.214935 12
-7.414676 -5.547102 0.165453 3
-7.415147 -5.494801 0.167922 3
-7.418446 -5.449894 0.169878 3
-7.429434 -5.423326 0.170528 3
-7.438659 -5.393095 0.171447 3
-7.458915 -5.390643 0.170424 3
-7.477549 -5.384472 0.169665 3
-7.489705 -5.361446 0.170067 3
-7.509186 -5.354741 0.169278 3
-7.522807 -5.335276 0.169421 3
-7.533798 -5.310353 0.169967 6
-7.560825 -5.317501 0.168084 6
-7.583667 -5.315505 0.166866 10
-7.602096 -5.308900 0.166115 10
-7.612711 -5.286053 0.166570 6
-7.626738 -5.268129 0.166594 6
-7.652095 -5.273462 0.164874 6
-7.679291 -5.282259 0.162881 6
-7.869839 -5.246581 0.153276 3
-8.092872 -5.436001 0.131238 33
-8.014069 -5.251410 0.144366 3
-8.057898 -5.286198 0.140131 3
-8.236037 -5.255564 0.130543 33
-8.274643 -5.236643 0.128975 33
-10.582841 -5.390193 -0.034290 1
-10.558618 -5.329224 -0.030334 1
-10.576215 -5.310936 -0.030958 1
-10.594086 -5.309571 -0.032211 1
-10.636201 -5.294212 -0.034737 1
-10.652616 -5.270977 -0.035113 1
-10.682581 -5.262297 -0.037002 1
-10.694114 -5.238168 -0.036998 1
-11.539853 1.734921 -0.019072 33
-11.510661 1.751244 -0.016804 2
-11.475675 1.765788 -0.014019 2
-11.461766 1.786037 -0.013125 2
-11.432464 1.801845 -0.010853 2
-11.483538 1.840672 -0.015799 2
-11.404688 1.840749 -0.009066 2
-15.475452 10.095037 -0.062186 21
-15.405316 10.132667 -0.059337 3
-15.327231 10.126599 -0.055560 3
-15.252149 10.122929 -0.051958 3
-15.196977 10.138659 -0.049550 3
-12.834951 8.216136 0.086818 21
-13.220684 10.070887 0.043528 21
-13.165449 10.074388 0.046014 2
-13.115273 10.083878 0.048180 2
-13.060167 10.086870 0.050662 2
-13.010078 10.095888 0.052825 2
-12.974774 10.123587 0.054044 2
-12.895323 10.094282 0.058091 2
-12.852045 10.107546 0.059874 2
-12.790017 10.099750 0.062813 2
-12.713652 10.072533 0.066681 2
-12.644781 10.054486 0.070074 2
-12.602448 10.071304 0.071753 2
-12.545800 10.068686 0.074361 2
-12.482154 10.056141 0.077428 2
-12.462220 10.065861 0.078189 2
-12.398241 10.092834 0.080689 2
-12.365287 10.121639 0.081755 2
-12.294471 10.093793 0.085360 2
-12.216935 10.063200 0.089306 2
-12.180600 10.086494 0.090598 2
-12.128158 10.086725 0.092953 2
-12.067306 10.070712 0.095924 4
-12.016221 10.072076 0.098196 4
-11.947162 10.046811 0.101669 4
-11.904179 10.059221 0.103408 4
-11.866302 10.075238 0.104862 2
-11.822649 10.090154 0.106588 2
-11.767931 10.088230 0.109059 4
-11.710683 10.078201 0.111762 4
-11.661239 10.079609 0.113942 4
-11.611866 10.080793 0.116119 4
-11.565810 10.086799 0.118074 2
-11.520867 10.094291 0.119953 2
-11.474881 10.099903 0.121906 4
-11.401278 10.061323 0.125753 4
-11.366105 10.083402 0.126970 4
-11.331907 10.107057 0.128117 4
-11.275326 10.090338 0.130870 2
-11.258741 10.102878 0.131408 2
-11.189918 10.105057 0.134404 2
-11.171335 10.158310 0.134396 2
-11.135824 10.179585 0.135625 2
-11.071781 10.152547 0.138853 2
-11.019115 10.144156 0.141291 4
-10.983655 10.164899 0.142518 4
-10.933148 10.159544 0.144809 6
-10.906361 10.191112 0.145483 6
-10.856730 10.182635 0.147779 4
-10.801522 10.167978 0.150414 4
-10.750386 10.160040 0.152762 4
-10.736333 10.222797 0.152382 4
-10.694827 10.232039 0.154036 4
-10.660019 10.253405 0.155205 4
-8.480362 6.301239 0.312253 1
-8.456277 6.311958 0.313124 1
-8.431389 6.318467 0.314094 4
-8.399045 6.310731 0.315612 4
-8.371423 6.311705 0.316785 7
-8.337400 6.300138 0.318434 7
-8.310077 6.298513 0.319633 12
-8.282607 6.299120 0.320802 12
-8.259677 6.308534 0.321632 15
-8.242367 6.301600 0.322485 15
-8.203077 6.305623 0.324099 17
-8.174851 6.303987 0.325330 17
-8.148426 6.305824 0.326427 17
-8.124401 6.315288 0.327296 17
-8.095413 6.311509 0.328589 15
-8.064775 6.303992 0.330013 15
-8.040430 6.306673 0.331001 15
-8.014154 6.307966 0.332092 15
-7.989008 6.308641 0.333145 19
-7.961685 6.310231 0.334273 19
-7.928064 6.294819 0.335944 26
-7.901138 6.293838 0.337094 26
-7.874540 6.290428 0.338269 35
-7.852543 6.300200 0.339032 35
-7.828112 6.304400 0.339988 36
-7.793367 6.284656 0.341771 36
-7.832804 6.437462 0.337589 1
-7.949301 6.774635 0.327128 1
-8.037074 7.119436 0.317735 21
-8.021324 7.151951 0.317849 1
-8.006893 7.188146 0.317845 1
-7.662810 6.408773 0.345147 1
-7.651610 6.413299 0.345536 1
-7.560136 6.342134 0.350514 21
-7.555315 6.395537 0.349816 1
-7.515756 6.359405 0.352055 1
-7.483579 6.341761 0.353676 1
-7.471256 6.376364 0.353600 1
-7.428748 6.330391 0.356121 3
-7.403162 6.329226 0.357190 3
-7.385137 6.348622 0.357599 15
-7.348715 6.317187 0.359621 15
-7.305162 6.264859 0.362287 13
-7.273958 6.246245 0.363876 13
-7.252120 6.253919 0.364634 16
-7.234160 6.272858 0.365042 16
-7.213971 6.281910 0.365707 11
-7.211154 6.346212 0.364724 11
-7.178861 6.323318 0.366423 1
-7.155648 6.331025 0.367229 1
-7.117446 6.288853 0.369493 1
-7.086289 6.267429 0.371117 1
-7.061354 6.264920 0.372163 11
-7.044236 6.287113 0.372470 11
-7.020397 6.284095 0.373479 15
-7.009415 6.287498 0.373860 15
-6.974699 6.291853 0.375175 15
-6.957849 6.315724 0.375437 15
-6.934074 6.316540 0.376371 11
-6.915342 6.334545 0.376806 11
-6.888784 6.325593 0.378018 5
-6.869941 6.343463 0.378457 5
-6.847765 6.349726 0.379228 1
-6.820253 6.336637 0.380545 1
-6.782358 6.284852 0.382943 2
-6.752799 6.346646 0.383035 1
-6.730613 6.352500 0.383807 1
-6.703425 6.338913 0.385113 2
-6.679301 6.336842 0.386096 2
-6.983059 7.880616 0.347228 1
-6.569687 6.271254 0.391530 1
-6.549138 6.282307 0.392137 54
-6.529882 6.299136 0.392591 54
-6.506743 6.294212 0.393576 66
-6.483867 6.295305 0.394444 66
-6.457125 6.278742 0.395771 50
-6.447862 6.288975 0.395949 50
-6.413214 6.288307 0.397299 68
-6.392054 6.296888 0.397964 68
-6.370337 6.297337 0.398792 26
-6.344846 6.290320 0.399895 26
-6.321690 6.288866 0.400809 16
-6.300857 6.299100 0.401427 16
-6.282975 6.324976 0.401653 4
-6.261237 6.331153 0.402374 4
-6.236572 6.321525 0.403485 4
-6.215188 6.329511 0.404158 4
-6.192776 6.325414 0.405082 4
-6.167931 6.313551 0.406236 4
-6.147205 6.325246 0.406814 6
-6.125754 6.332929 0.407489 6
-6.101370 6.322778 0.408590 12
-6.078642 6.322407 0.409454 12
-6.056853 6.327880 0.410177 20
-6.033233 6.321419 0.411180 20
-6.011362 6.318661 0.412050 24
-5.987600 6.318128 0.412950 24
-5.964958 6.317349 0.413811 38
-5.943426 6.324411 0.414489 38
-5.919991 6.317529 0.415486 42
-5.909215 6.320993 0.415825 42
-5.875664 6.313282 0.417210 46
