# .PCD v.7 - Point Cloud Data file format
VERSION .7
FIELDS x y z intensity
SIZE 4 4 4 1
TYPE F F F U
COUNT 1 1 1 1
WIDTH 1519
HEIGHT 1
VIEWPOINT 0 0 0 1 0 0 0
POINTS 1519
DATA ascii
-8.615477 -17.632513 1.917939 6
-8.241137 -16.534737 1.854708 70
-8.278704 -16.472151 1.852420 21
-8.244637 -16.235832 1.839863 5
-8.250291 -16.099562 1.833204 48
-8.302877 -16.077650 1.833319 10
-8.290076 -15.901043 1.824254 7
-8.533248 -16.327152 1.851043 45
-8.973889 -17.202894 1.904735 76
-8.177823 -15.219073 1.787863 12
-7.818650 -14.273266 1.732635 17
-8.677878 -16.094372 1.842983 22
-8.785265 -16.186459 1.850112 37
-8.866096 -16.224562 1.853954 21
-8.883348 -16.129015 1.849696 13
-7.854833 -13.753436 1.707996 42
-7.891362 -13.710155 1.706794 35
-7.981361 -13.787164 1.712811 8
-9.630505 -17.160379 1.918738 6
-9.693663 -17.148064 1.919750 1
-8.172475 -13.735814 1.715210 26
-9.533742 -16.141834 1.866962 12
-8.279013 -13.513888 1.707319 32
-9.276806 -15.367997 1.822957 16
-8.552364 -13.823065 1.729477 18
-8.631812 -13.867545 1.733759 40
-7.630807 -11.840172 1.609745 22
-7.646237 -11.782534 1.607427 29
-7.678158 -11.752167 1.606867 29
-7.726857 -11.753423 1.608283 21
-7.786988 -11.775572 1.611017 84
-7.832076 -11.764819 1.611781 54
-8.622859 -13.021169 1.693431 5
-10.103069 -15.589035 1.856456 2
-9.426165 -14.155300 1.769764 10
-9.315716 -13.855174 1.752539 10
-9.360462 -13.829558 1.752665 4
-9.855553 -14.581388 1.802232 21
-9.858522 -14.478006 1.797532 4
-9.178107 -13.214831 1.718758 37
-9.202278 -13.158786 1.716903 10
-9.412692 -13.414643 1.735055 21
-9.433129 -13.355783 1.732977 12
-10.637638 -15.021019 1.846225 16
-10.731072 -15.057094 1.850780 21
-10.793057 -15.041915 1.852036 11
-11.210651 -15.600208 1.890479 6
-11.031645 -15.212414 1.867291 4
-12.159123 -16.861807 1.977539 1
-11.319213 -15.331255 1.881848 5
-10.714087 -14.295340 1.815922 1
-11.280343 -15.051003 1.868069 4
-11.543813 -15.345889 1.889814 20
-11.663703 -15.308684 1.892119 2
-11.966912 -15.532173 1.912078 3
-13.306042 -17.359503 2.037305 5
-12.003781 -15.375519 1.906448 12
-12.850135 -16.474775 1.983176 69
-13.339885 -17.053087 2.025064 5
-13.353585 -16.960091 2.021491 1
-13.271767 -16.728907 2.008655 7
-13.298827 -16.645412 2.005981 1
-13.416680 -16.465210 2.002348 7
-13.582285 -16.581049 2.013132 10
-13.734746 -16.671537 2.022384 5
-13.652096 -16.448814 2.009979 3
-13.618816 -16.293612 2.002212 1
-13.368992 -15.745364 1.970096 1
-13.432454 -15.726500 1.971601 1
-14.254374 -16.670767 2.041031 1
-14.278684 -16.258673 2.024791 1
-14.319202 -16.200212 2.023884 1
-14.319023 -16.092176 2.019434 1
-14.460383 -16.157005 2.027387 1
-14.397095 -11.265308 1.841875 46
-20.511059 -11.447222 2.145043 2
-20.670578 -11.374579 2.151465 19
-36.102802 -10.942846 2.986394 60
-36.141041 -10.824844 2.987120 60
-36.294132 -10.739363 2.994753 27
-36.643181 -10.707780 3.014132 49
-36.703705 -10.594225 3.016248 7
-55.442722 -8.762693 4.081783 20
-55.244003 -8.544243 4.069300 20
-94.941490 -2.112606 6.397531 63
88.967758 -0.049387 8.322624 63
52.037750 -4.200577 5.317716 23
39.989559 -9.279144 4.378028 11
39.964432 -9.426441 4.377775 11
30.928759 -9.173568 3.659046 6
30.220961 -9.111788 3.602384 6
30.418537 -9.402399 3.622594 6
31.276173 -9.748175 3.695613 6
30.813982 -9.749464 3.659398 6
30.140806 -9.811064 3.607755 6
30.659409 -10.075543 3.652963 6
30.366617 -10.116129 3.630822 6
30.687140 -10.446705 3.661873 6
30.430439 -10.501543 3.642910 6
30.318565 -10.585265 3.635798 6
29.811419 -10.556045 3.595824 6
29.980188 -10.728410 3.612293 6
29.721277 -10.770855 3.593056 6
29.649012 -10.869669 3.589443 6
29.045727 -10.794941 3.541240 5
29.653490 -11.107861 3.594668 6
29.271036 -11.112359 3.565233 6
30.675959 -11.691847 3.685847 6
30.343245 -11.708249 3.660569 6
29.271454 -11.469196 3.572914 6
10.106495 -14.790972 2.374848 1
9.911752 -14.669994 2.357535 1
9.897578 -14.940462 2.372405 1
9.923764 -15.070079 2.381309 14
10.272975 -15.584281 2.429508 3
9.715388 -15.021461 2.367619 21
9.707237 -15.111345 2.372469 42
9.495588 -14.955245 2.352377 3
9.446896 -14.995284 2.352242 1
8.661221 -14.312903 2.271749 3
8.612289 -14.346914 2.271313 3
8.545938 -14.358849 2.268696 13
8.477036 -14.362380 2.265463 12
8.450033 -14.424027 2.267834 4
9.582164 -15.983584 2.418178 5
9.354929 -15.796252 2.395616 17
8.299478 -14.520034 2.266225 4
10.072589 -16.959175 2.501554 4
8.226587 -14.620288 2.268790 4
8.219625 -14.710227 2.273966 18
9.632030 -16.716255 2.465332 7
9.997836 -17.328539 2.520614 6
9.640236 -16.952845 2.480325 11
9.626714 -17.051485 2.485795 3
7.219750 -13.826441 2.171611 11
7.154056 -13.824501 2.168399 7
7.083859 -13.815763 2.164565 5
8.734068 -16.258270 2.394412 3
8.724250 -16.357740 2.400201 3
6.919886 -13.872425 2.160518 1
6.638657 -13.654562 2.133876 11
6.579237 -13.757557 2.137724 3
8.531571 -16.774557 2.417831 3
8.195994 -16.499516 2.385263 15
8.124463 -16.508305 2.382661 3
7.636712 -15.869402 2.320064 13
7.139719 -15.217225 2.256223 31
7.070471 -15.223737 2.253629 12
8.416888 -17.458313 2.456805 16
7.185629 -15.735865 2.291870 9
7.109027 -15.727152 2.288040 3
8.579790 -18.235718 2.514460 2
7.331237 -16.684031 2.360240 4
7.311735 -16.769812 2.365113 3
7.326580 -16.927681 2.376188 3
5.374307 -13.699027 2.082286 16
5.609338 -14.203500 2.125376 11
5.226218 -13.646360 2.072811 15
6.318103 -15.672580 2.251896 6
5.059659 -13.557500 2.060236 2
5.544781 -14.529093 2.144607 10
7.894019 -19.022121 2.539001 2
7.813658 -19.174948 2.546241 4
3.458176 -11.283796 1.844658 228
3.433489 -11.323950 1.846462 227
3.406740 -11.360521 1.847957 227
3.377967 -11.393492 1.849141 227
3.349030 -11.426387 1.850326 228
3.323550 -11.466312 1.852132 211
3.303251 -11.516865 1.854869 51
3.237291 -11.652287 1.861846 0
3.205408 -11.681252 1.862722 0
3.199444 -11.763971 1.868252 1
3.168821 -11.796436 1.869439 1
3.057416 -11.853580 1.869594 234
3.032977 -11.900122 1.872023 180
4.129370 -14.516679 2.092348 18
3.953638 -14.246007 2.067490 7
4.794299 -16.255352 2.236685 5
5.161709 -17.231062 2.317521 40
5.685464 -18.582165 2.429965 18
5.497252 -18.316160 2.405095 7
4.500756 -16.161829 2.220616 5
4.508287 -16.319080 2.232023 11
4.448669 -16.327002 2.230720 20
4.378728 -16.317406 2.227866 9
3.772835 -15.001509 2.115324 31
3.695339 -14.951435 2.109381 7
3.479981 -14.552548 2.074318 39
3.663429 -15.291050 2.132770 12
4.513229 -17.600958 2.323861 4
4.238564 -17.066050 2.277333 60
4.126681 -16.942568 2.265195 3
3.262172 -14.839499 2.088577 3
3.762307 -16.313210 2.209329 1
3.701822 -16.306076 2.207111 1
3.132065 -14.926618 2.091225 2
2.980705 -14.812066 2.078745 10
4.400105 -18.938000 2.417493 3
3.118120 -15.508305 2.133160 26
3.218782 -15.959041 2.168725 8
3.273391 -16.286259 2.194071 6
3.266228 -16.617416 2.218131 4
2.838667 -15.688045 2.139094 12
2.806093 -15.753296 2.143080 22
2.755876 -15.773776 2.143349 73
2.695892 -15.763685 2.141143 45
3.253562 -18.121431 2.328615 3
2.516263 -15.915583 2.148113 22
2.333274 -15.870172 2.140580 12
2.238253 -15.930745 2.142990 2
2.179101 -15.910159 2.140175 1
2.168622 -16.074547 2.152213 8
2.107134 -16.066637 2.150324 5
2.035943 -16.011564 2.144724 2
1.985199 -16.021009 2.144388 20
1.933426 -16.026424 2.143742 5
1.828929 -16.065777 2.144615 2
1.768643 -16.048101 2.142114 1
1.722633 -16.076000 2.143328 1
-8.075642 -17.234442 2.291242 3
-8.071455 -17.052769 2.277974 19
-7.749660 -16.044493 2.195606 2
-7.885472 -16.240057 2.213769 2
-8.196703 -16.249521 2.223983 45
-8.240713 -16.205666 2.222229 13
-8.402202 -16.445293 2.244460 16
-8.443656 -16.393427 2.242086 13
-8.596741 -16.605875 2.262143 10
-8.693164 -16.538637 2.260510 15
-7.648733 -13.992367 2.045617 6
-7.700384 -13.987170 2.046967 12
-8.840690 -16.434885 2.258075 15
-8.896068 -16.414551 2.258511 30
-7.939320 -14.155682 2.066920 10
-8.917242 -16.177376 2.242550 11
-9.203650 -16.660231 2.286326 7
-7.879833 -13.669659 2.030761 28
-8.008614 -13.829574 2.046459 15
-8.145405 -14.003160 2.063409 11
-8.744084 -15.140328 2.163955 8
-8.173537 -13.830609 2.052399 4
-8.970558 -15.230038 2.178360 12
-8.913976 -14.991171 2.159761 11
-9.543083 -15.875712 2.244089 2
-7.604071 -11.868690 1.895945 11
-7.627151 -11.820767 1.893546 20
-7.664805 -11.801058 1.893644 25
-7.698656 -11.774169 1.893119 20
-7.745543 -11.771795 1.894781 19
-9.530203 -14.877920 2.175510 21
-9.440547 -14.599749 2.153146 68
-8.920943 -13.547478 2.061413 46
-9.829585 -15.081852 2.201210 24
-9.142401 -13.748212 2.083831 7
-9.518619 -14.309769 2.136776 7
-9.217454 -13.669064 2.081584 46
-9.116565 -13.386755 2.058581 87
-9.619910 -14.155190 2.130615 13
-9.303181 -13.513602 2.074768 67
-9.380985 -13.551163 2.080516 92
-9.418558 -13.515033 2.079704 9
-9.494877 -13.543808 2.084836 4
-9.773337 -13.906837 2.120627 7
-9.690361 -13.560553 2.094309 17
-9.750752 -13.565513 2.097250 7
-11.333142 -16.009558 2.325854 16
-9.859309 -13.544870 2.100645 7
-11.757220 -16.449587 2.373129 3
-11.727420 -16.284277 2.361084 3
-10.757093 -14.656405 2.212517 5
-10.351826 -13.926047 2.147215 3
-10.405449 -13.914982 2.148915 1
-10.950964 -14.539450 2.213738 8
-10.466959 -13.716765 2.139003 3
-11.094011 -14.458051 2.215117 12
-12.113562 -15.852838 2.350976 4
-11.679998 -15.105791 2.283448 3
-11.395500 -14.585047 2.237221 12
-11.586539 -14.758189 2.257130 31
-13.451694 -17.195410 2.498603 3
-13.484910 -17.122868 2.495656 7
-13.517288 -17.055542 2.493015 1
-13.589990 -17.032600 2.495097 3
-13.608201 -16.940491 2.490269 13
-13.621191 -16.842020 2.484813 1
-13.488955 -16.548111 2.460212 5
-13.553652 -16.415325 2.455246 3
-20.652792 -11.435077 2.651775 19
-36.105339 -11.056901 3.819699 42
-36.123081 -10.939293 3.818878 57
-36.209400 -10.841481 3.823872 21
-36.592506 -10.820904 3.853772 29
-36.708790 -10.716574 3.861087 7
-55.485794 -8.936204 5.350123 23
-55.432777 -8.747376 5.344345 23
-95.224052 -2.401357 8.594813 63
39.933224 -9.396626 6.134104 17
39.942711 -9.550853 6.138355 17
8.896647 -14.031481 2.965071 2
8.841034 -14.057218 2.963047 2
8.744775 -14.126433 2.961844 4
8.714032 -14.182338 2.964561 17
8.601871 -14.227077 2.960052 4
8.587915 -14.304378 2.966087 4
8.548762 -14.345640 2.966917 4
8.484902 -14.355565 2.963010 2
8.381166 -14.516796 2.970217 19
8.278577 -14.480342 2.959205 6
7.508239 -14.118192 2.868928 5
6.764967 -13.273247 2.735240 22
7.708585 -14.698029 2.938643 10
7.672248 -14.748065 2.940898 20
7.440439 -14.614568 2.911819 8
6.527370 -13.391630 2.730014 17
6.448275 -13.368867 2.722347 15
8.150361 -15.962855 3.091766 4
7.436725 -15.011831 2.950200 46
7.321352 -14.950589 2.936369 6
8.419699 -16.710218 3.183196 5
8.129330 -16.383232 3.131525 7
7.227697 -15.235948 2.958184 17
7.189137 -15.279821 2.959979 4
7.879169 -16.474676 3.123977 26
8.118100 -17.094542 3.201310 5
7.746341 -16.624434 3.130270 7
7.137844 -15.758703 3.004394 2
7.296110 -16.244297 3.063297 4
7.915143 -17.392651 3.218257 5
7.398697 -16.780874 3.123974 2
6.916557 -16.212368 3.036325 4
7.217242 -16.850958 3.119888 4
4.992647 -13.127084 2.603672 26
4.976035 -13.196219 2.609740 13
5.326014 -13.911152 2.704183 58
5.107406 -13.628692 2.662046 32
5.079151 -13.676455 2.665281 8
6.091487 -15.599578 2.923684 20
5.372122 -14.413319 2.758691 5
5.266353 -14.330891 2.743966 7
4.875707 -13.720449 2.657899 4
5.250332 -14.524769 2.763182 33
5.197573 -14.539474 2.761688 3
4.513601 -13.463295 2.610373 13
4.475639 -13.496530 2.611722 4
4.512041 -13.674454 2.632437 9
4.459230 -13.674748 2.629539 4
4.924678 -14.823680 2.776290 1
4.410145 -14.138844 2.675962 34
4.371826 -14.170750 2.677317 94
4.195228 -13.920785 2.641364 13
3.929517 -13.484285 2.580858 6
4.157005 -14.079749 2.656345 21
4.635961 -15.223943 2.803596 5
3.831040 -13.963253 2.627247 13
4.129049 -14.752486 2.727269 17
3.562296 -13.600398 2.574734 27
4.828249 -16.610489 2.962698 6
3.686661 -14.248160 2.651041 17
3.645144 -14.278891 2.652402 4
3.867266 -15.210893 2.764565 19
3.793644 -15.172468 2.756958 5
3.268755 -14.150886 2.620939 13
3.181856 -14.065832 2.607676 13
3.355772 -14.642026 2.678882 8
3.324060 -14.701353 2.684023 13
2.986499 -13.967397 2.588187 36
3.141698 -14.503452 2.654201 26
2.849219 -13.870962 2.571584 6
3.014145 -14.449704 2.642784 37
2.822267 -14.067599 2.592258 13
2.810817 -14.177613 2.604009 14
2.963475 -14.743408 2.673318 3
2.514278 -13.786183 2.548213 4
2.464466 -13.786862 2.546287 3
2.435474 -13.847414 2.551908 4
2.395834 -13.877850 2.553757 3
3.049185 -15.958982 2.812688 3
2.382559 -14.129729 2.581514 1
2.267734 -14.096555 2.573421 4
2.543954 -15.109384 2.697905 8
2.504470 -15.147078 2.700699 9
2.445681 -15.124050 2.695948 4
2.405894 -15.169819 2.699685 4
2.361031 -15.208650 2.702477 4
2.409569 -15.546855 2.742530 10
2.298635 -15.352139 2.716558 17
2.237085 -15.337324 2.712750 14
1.958785 -15.107571 2.677257 4
1.799587 -15.303487 2.694591 1
1.755776 -15.339713 2.697393 1
-8.267777 -17.082397 2.994960 2
-8.294710 -16.665812 2.950335 4
-8.319350 -16.570148 2.940983 6
-8.527769 -16.613024 2.955544 4
-8.614608 -16.666965 2.965610 2
-8.186895 -15.238365 2.789290 21
-8.214825 -15.174127 2.783713 5
-8.214273 -15.039779 2.769140 17
-8.079844 -14.608318 2.715716 21
-7.834585 -13.939066 2.631015 50
-8.362314 -14.977540 2.769955 54
-8.452470 -15.045451 2.781917 22
-8.395989 -14.795883 2.752177 12
-8.477715 -14.845402 2.761771 38
-8.203348 -14.140468 2.671836 16
-8.497065 -14.638522 2.740675 73
-8.631838 -14.674999 2.751811 12
-8.749342 -14.794430 2.770893 35
-9.906924 -17.022421 3.070643 4
-8.918433 -14.905778 2.791983 3
-8.642074 -14.115585 2.693127 17
-8.454756 -13.631520 2.631600 14
-8.489605 -13.591263 2.629342 3
-7.645612 -11.867961 2.400364 17
-7.653856 -11.796421 2.393344 27
-7.683988 -11.762574 2.391546 28
-7.728910 -11.756682 2.393543 23
-7.781388 -11.764597 2.397438 15
-8.516086 -13.024408 2.571671 13
-8.567646 -13.014377 2.573689 52
-8.632311 -13.037735 2.579966 12
-10.740907 -16.600487 3.074723 2
-9.720112 -14.558653 2.802571 8
-9.191282 -13.529611 2.664568 9
-9.236872 -13.507866 2.665167 3
-9.039886 -13.075653 2.608788 21
-9.847639 -14.240828 2.778077 52
-9.563199 -13.665942 2.701752 17
-9.496425 -13.460492 2.676705 24
-9.712966 -13.719398 2.716727 16
-11.020027 -15.755342 3.006115 12
-11.438987 -16.313646 3.089402 9
-9.598055 -13.230527 2.660132 29
-9.729713 -13.161683 2.661940 11
-9.971472 -13.445513 2.706263 3
-10.029854 -13.445694 2.710192 1
-11.564643 -15.702397 3.036837 6
-10.353894 -13.746496 2.761802 21
-11.467467 -15.333812 2.993905 2
-11.352123 -14.952458 2.948577 4
-11.963599 -15.752064 3.069020 2
-12.230592 -15.916101 3.103600 4
-10.917523 -13.907632 2.816536 3
-12.334275 -15.844308 3.103942 7
-12.546207 -15.821195 3.116821 2
-12.599980 -15.571897 3.096888 2
-12.575494 -15.432338 3.081836 7
-12.756434 -15.466458 3.098368 4
-12.625571 -15.192381 3.062839 4
-12.897665 -15.444877 3.106816 2
-12.892603 -15.334053 3.096046 2
-13.036698 -15.418873 3.114793 2
-13.031039 -15.307952 3.104023 2
-20.668318 -11.456083 3.533456 28
-36.204136 -11.241466 5.299822 9
-36.127598 -10.953158 5.281928 47
-36.177265 -10.838348 5.284365 28
-36.295307 -10.742806 5.295535 28
-36.275444 -10.608052 5.289240 28
-36.251232 -10.472500 5.282460 28
-36.237984 -10.340362 5.277133 28
-36.199627 -10.208222 5.268869 28
-36.213818 -10.077725 5.266963 19
-36.152966 -9.934170 5.255808 18
-36.128448 -9.806999 5.249481 18
-36.043400 -9.658512 5.235408 18
-36.019360 -9.526135 5.229102 18
-35.998669 -9.394981 5.223280 18
-35.972179 -9.269070 5.216948 27
-35.958229 -9.140270 5.212095 27
-35.933594 -9.003016 5.205808 18
-35.923878 -8.869633 5.201464 27
-35.892944 -8.737938 5.194664 27
-35.880875 -8.610896 5.190293 27
-35.886417 -8.494219 5.188326 27
-35.854042 -8.363256 5.181523 27
-35.832809 -8.235095 5.176177 27
-35.822758 -8.109615 5.172288 27
-35.814919 -7.990997 5.168860 27
-35.812939 -7.861494 5.165967 18
-35.797611 -7.735678 5.161589 27
-35.796257 -7.618993 5.159132 27
-35.796761 -7.490592 5.156723 27
-35.780060 -7.365244 5.152342 18
-35.794136 -7.245846 5.151854 18
-35.784344 -7.122192 5.148445 9
-36.093632 -7.061382 5.184925 18
-36.165306 -6.951158 5.191742 18
-36.166172 -6.828528 5.189797 18
-36.154846 -6.704010 5.186391 18
-36.146992 -6.580279 5.183472 18
-36.142609 -6.457297 5.181038 9
-36.149551 -6.336246 5.180065 9
-36.140366 -6.212823 5.177144 9
-35.946159 -6.062114 5.151323 9
-36.104942 -5.964088 5.169349 9
-36.239864 -5.861679 5.184455 9
-36.248631 -5.741039 5.183969 9
-35.852619 -2.479375 5.112521 8
-35.841583 -2.360564 5.111042 8
-35.790455 -2.240414 5.104672 8
-35.778389 -2.127827 5.103168 8
-35.762150 -2.009324 5.101198 8
-35.757549 -1.885362 5.100718 17
-35.720615 -1.766636 5.096301 8
-35.722851 -1.654804 5.096751 8
-35.704956 -1.536775 5.094778 8
-35.710464 -1.419160 5.095740 8
-35.691746 -1.301313 5.093766 8
-35.668644 -1.183583 5.091302 8
-35.661015 -1.066039 5.090795 8
40.016243 -9.461312 8.696051 14
40.036762 -9.618163 8.704738 14
8.043881 -12.864460 3.716940 1
8.412369 -13.562785 3.854571 2
8.341331 -13.570470 3.847402 2
8.240152 -13.536391 3.831090 2
8.049025 -13.559504 3.812443 2
8.370708 -14.058495 3.917893 2
8.004768 -13.775569 3.837428 14
7.582814 -13.325759 3.727527 5
8.144359 -14.141033 3.904048 6
7.551893 -13.464190 3.743490 3
8.045470 -14.394715 3.928911 20
7.363085 -13.572592 3.738131 3
7.228033 -13.486553 3.711283 3
7.753503 -14.385611 3.896096 30
7.538198 -14.283930 3.858591 10
7.455298 -14.261004 3.846529 4
7.238273 -14.048164 3.792969 2
7.147451 -14.020743 3.779494 2
8.328912 -15.803746 4.161310 2
8.171509 -15.692636 4.128834 6
7.138158 -14.300710 3.819271 6
7.336230 -14.685329 3.895829 6
7.277855 -14.810585 3.908272 12
6.781446 -14.171549 3.764013 8
7.410347 -15.323153 3.997265 10
7.341031 -15.326234 3.990831 6
6.738391 -14.609436 3.824699 30
6.610216 -14.518533 3.798584 36
7.114863 -15.420234 3.982680 46
6.545449 -14.620161 3.807537 12
6.456297 -14.583073 3.793383 12
6.487986 -14.734924 3.819304 14
6.501564 -14.869971 3.840996 6
6.469970 -14.921621 3.845828 44
6.788612 -15.552773 3.971557 17
6.794067 -15.682813 3.991839 10
6.765578 -15.745726 3.998776 2
6.119472 -14.769197 3.789942 6
6.047177 -14.761480 3.782119 2
6.070855 -14.907245 3.806633 2
5.924616 -14.995792 3.807072 4
6.103605 -15.428363 3.889904 28
4.956253 -13.484845 3.487190 3
6.182772 -15.803586 3.955082 6
5.394485 -14.484527 3.680973 1
5.112043 -14.077982 3.593067 1
5.299681 -14.647987 3.698303 9
5.680655 -15.480202 3.861218 4
5.672381 -15.587053 3.877296 4
4.677900 -13.916312 3.530805 24
5.254059 -15.271609 3.792684 6
4.977232 -14.846842 3.702696 1
4.904300 -14.821803 3.692790 1
4.961785 -15.052746 3.734164 1
5.297692 -15.853091 3.888621 4
4.575553 -14.746073 3.654522 1
4.545027 -14.930597 3.681779 3
4.553047 -15.074699 3.705591 1
4.085908 -14.556716 3.586660 1
3.891891 -14.500616 3.563310 1
3.803173 -14.547636 3.564603 3
3.834487 -14.752647 3.600355 3
3.924001 -15.099598 3.663489 3
3.639353 -14.825461 3.598730 5
3.320434 -14.308805 3.491914 1
3.079894 -14.103141 3.441924 1
-8.311020 -14.111679 3.538975 1
-8.341144 -14.057696 3.532750 1
-8.766299 -14.457851 3.631096 1
-8.691877 -14.195423 3.583322 1
-7.615874 -11.893080 3.129225 17
-7.652017 -11.865437 3.127920 22
-7.687977 -11.842152 3.127315 17
-7.736752 -11.843102 3.131641 15
-9.724113 -15.119490 3.816921 4
-9.691902 -14.939445 3.786058 2
-9.799328 -14.802599 3.774467 2
-9.825425 -14.615372 3.747967 7
-9.718658 -14.322330 3.693124 54
-9.776603 -14.320450 3.698184 30
-9.866597 -14.372610 3.714524 11
-9.905077 -14.331523 3.711839 9
-10.046501 -14.462627 3.745109 1
-9.995704 -14.272631 3.711406 24
-10.040090 -14.236503 3.710139 3
-10.106963 -14.237147 3.716629 1
-10.167269 -14.236982 3.722401 5
-10.658741 -14.923622 3.873443 4
-10.428552 -14.454569 3.780498 6
-10.075697 -13.788010 3.645950 1
-10.168816 -13.737936 3.647635 1
-10.262479 -13.597190 3.636052 1
-10.362827 -13.648887 3.653834 1
-10.547507 -13.648348 3.672587 5
-10.549350 -13.556624 3.659324 1
-10.532755 -13.434348 3.639717 1
-10.611790 -13.451533 3.650451 1
-20.668724 -11.611985 4.819682 15
-55.148476 -9.278527 10.741212 25
-55.438923 -9.123183 10.790058 25
-35.540443 -5.872578 7.117032 7
-35.890228 -2.589913 7.137567 22
-35.875759 -2.470752 7.134450 22
-35.860870 -2.351711 7.131333 15
-35.849499 -2.232933 7.128934 15
-35.841640 -2.114377 7.127253 15
-35.821568 -1.995550 7.123415 15
-35.816814 -1.877275 7.122452 15
-35.791977 -1.758615 7.117893 15
-35.782459 -1.640428 7.116210 15
-35.760643 -1.528033 7.112345 15
-35.746387 -1.409991 7.109941 15
-35.739628 -1.286229 7.109000 15
-35.728462 -1.168392 7.107315 15
-35.712948 -1.050632 7.104909 15
38.299404 -7.524973 11.827463 14
38.421513 -7.689493 11.866079 15
38.550583 -7.856229 11.906754 15
-7.646940 -11.870178 4.174006 22
-7.677456 -11.841114 4.171033 21
-7.722383 -11.834897 4.175223 18
-7.763695 -11.821674 4.177368 6
-6.564960 1.186618 -0.010267 1
-6.552351 1.202406 -0.009835 53
-6.478285 1.288812 -0.007294 1
-6.473517 1.294035 -0.007130 1
-6.414846 1.283844 0.008391 1
-6.446139 1.323295 -0.006190 1
-6.422666 1.347439 -0.005383 1
-6.399017 1.370934 -0.004569 53
-6.346705 1.325472 0.015928 1
-6.342037 1.329984 0.016088 1
-6.384731 1.384741 -0.004077 1
-6.379612 1.389619 -0.003901 1
-6.374721 1.394248 -0.003733 1
-6.369813 1.398860 -0.003564 1
-6.364889 1.403454 -0.003394 1
-6.359949 1.408031 -0.003224 1
-6.354993 1.412591 -0.003054 1
-6.352509 1.414865 -0.002968 1
-6.345034 1.421659 -0.002711 1
-6.340031 1.426167 -0.002538 1
-6.335263 1.430434 -0.002374 1
-6.329978 1.435130 -0.002192 1
-6.324927 1.439585 -0.002018 1
-6.320115 1.443802 -0.001852 1
-6.315289 1.448002 -0.001686 1
-6.310194 1.452405 -0.001510 1
-6.305084 1.456791 -0.001334 1
-6.299958 1.461159 -0.001157 1
-6.294817 1.465509 -0.000980 1
-6.289403 1.470058 -0.000793 1
-6.308276 1.504308 -0.011829 1
-6.310511 1.517410 -0.015022 1
-6.274103 1.482730 -0.000266 1
-6.268626 1.487202 -0.000077 1
-6.263133 1.491654 0.000113 1
-6.234362 1.465521 0.011490 1
-6.253151 1.499659 0.000457 1
-6.224036 1.473743 0.011847 1
-6.242322 1.508221 0.000831 1
-6.237017 1.512370 0.001014 1
-6.199128 1.478575 0.015822 53
-6.251248 1.564436 -0.012977 1
-6.210548 1.532631 0.001928 1
-6.194066 1.544886 0.002497 53
-6.188634 1.548866 0.002684 1
-6.183187 1.552826 0.002873 1
-6.178001 1.556571 0.003052 1
-6.199016 1.598225 -0.010135 1
-6.195875 1.605175 -0.011065 1
-6.129030 1.520701 0.020319 1
-6.173702 1.597295 -0.005107 1
-6.150501 1.575998 0.004002 1
-6.166481 1.611653 -0.006934 1
-6.139406 1.583633 0.004385 1
-6.151161 1.612814 -0.004328 1
-6.128259 1.591191 0.004771 1
-6.133203 1.611006 -0.000592 1
-6.144310 1.640538 -0.009282 1
-6.111721 1.602196 0.005342 1
-6.105808 1.606072 0.005547 1
-6.100163 1.609743 0.005742 1
-6.127895 1.660455 -0.010791 1
-6.101072 1.636570 -0.000519 1
-6.073009 1.604315 0.011873 1
-6.077455 1.624230 0.006527 1
-6.055703 1.601571 0.015586 1
-6.085966 1.664214 -0.004150 1
-6.070206 1.651351 0.001587 1
-6.054835 1.638223 0.007310 1
-6.039278 1.625182 0.013040 1
-6.058897 1.671698 -0.001137 1
-6.037528 1.648641 0.007909 1
-6.031734 1.652073 0.008109 1
-6.025929 1.655486 0.008310 1
-6.044840 1.702312 -0.005841 1
-6.014283 1.662249 0.008714 1
-6.008735 1.665433 0.008906 1
-6.021261 1.702543 -0.001910 1
-5.996727 1.672241 0.009321 1
-6.000069 1.692403 0.004015 1
-5.977638 1.665276 0.014135 1
-5.997266 1.715923 -0.001079 1
-6.007819 1.749594 -0.010789 1
-5.981908 1.715524 0.001529 1
-5.961602 1.691512 0.010538 1
-5.981760 1.737423 -0.003657 1
-5.950302 1.697511 0.010929 1
-5.965038 1.741894 -0.002039 1
-5.948190 1.724644 0.004773 1
-5.931781 1.707138 0.011571 1
-5.942917 1.744639 0.000804 1
-5.945605 1.764835 -0.004480 1
-5.926194 1.740150 0.004498 1
-5.908334 1.718964 0.012384 1
-5.902296 1.721945 0.012593 1
-5.916098 1.766584 -0.000343 1
-5.909894 1.769593 -0.000128 1
-5.895530 1.755155 0.005561 1
-5.878042 1.733656 0.013434 1
-5.878376 1.750517 0.009270 1
-5.878601 1.767403 0.005109 1
-5.878719 1.784312 0.000953 1
-5.858334 1.755568 0.011003 1
-5.852169 1.758375 0.011217 1
-5.847538 1.764684 0.010339 1
-5.839809 1.763922 0.011645 1
-5.841526 1.784204 0.006395 1
-5.838277 1.794034 0.004432 1
-5.821509 1.771948 0.012280 1
-5.809463 1.751996 0.018927 1
-5.804023 1.766873 0.016001 1
-5.802503 1.780046 0.012940 1
-5.798011 1.786094 0.012057 1
-5.786006 1.774400 0.016626 1
-5.796827 1.819883 0.003794 1
-5.779171 1.793815 0.012711 1
-5.778456 1.810695 0.008584 1
-5.780400 1.834778 0.002288 1
-5.775330 1.840910 0.001426 1
-5.748492 1.789392 0.017929 1
-5.758681 1.834977 0.005118 1
-5.752239 1.837436 0.005342 1
-5.748432 1.847105 0.003398 1
-5.727554 1.809695 0.015541 1
-5.732864 1.844677 0.006015 1
-5.721255 1.832523 0.010570 1
-5.714823 1.834851 0.010793 1
-5.714671 1.855355 0.005608 1
-5.709404 1.861304 0.004753 1
-5.700406 1.856294 0.007142 1
-5.696330 1.865855 0.005207 1
-5.694609 1.882726 0.001115 1
-5.691584 1.895947 -0.001894 1
-5.677567 1.864087 0.007935 1
-5.661908 1.848990 0.013670 1
-5.661197 1.869483 0.008504 1
-5.669494 1.919422 -0.005278 1
-5.650327 1.881061 0.006806 1
-5.641491 1.875768 0.009189 1
-5.632699 1.870436 0.011571 1
-5.622860 1.861370 0.015027 1
-5.619563 1.874450 0.012027 1
-5.621844 1.905942 0.003644 1
-5.605675 1.874568 0.013548 1
-5.605340 1.898752 0.007332 1
-5.597649 1.896961 0.008637 1
-5.594036 1.910010 0.005649 1
-5.581324 1.889568 0.012319 1
-5.571727 1.880233 0.015767 1
-5.567080 1.889494 0.013852 1
-5.564300 1.906210 0.009797 1
-5.555712 1.900519 0.012172 1
-5.551853 1.913484 0.009192 1
-5.538674 1.889027 0.016916 1
-5.540239 1.924424 0.007520 1
-5.529000 1.907377 0.013101 1
-5.524960 1.920289 0.010127 1
-5.520714 1.917360 0.011313 1
-5.514053 1.934824 0.007393 1
-5.499660 1.902578 0.017236 1
-5.500811 1.937931 0.007854 1
-5.490734 1.924421 0.012356 1
-5.482706 1.918328 0.014712 1
-5.478018 1.931216 0.011761 1
-5.468566 1.921440 0.015204 1
-5.459095 1.907698 0.019685 1
-5.456507 1.927946 0.014586 1
-5.453106 1.948340 0.009514 1
-5.443363 1.934584 0.014005 1
-5.438003 1.943520 0.012116 1
-5.432586 1.952443 0.010229 1
-5.422300 1.934789 0.015777 1
-5.420575 1.962589 0.008571 1
-5.411364 1.952531 0.012006 1
-5.399981 1.927162 0.019668 1
-5.398929 1.962608 0.010363 1
-5.395771 1.986651 0.004245 1
-5.382724 1.949752 0.015079 1
-5.379798 1.973708 0.008953 1
-5.367638 1.940524 0.018718 1
-5.364017 1.960639 0.013655 1
-5.358891 1.949733 0.016947 1
-5.349029 1.959060 0.015215 1
-5.342157 1.960088 0.015454 1
-5.336825 1.972562 0.012526 1
-5.328904 1.965896 0.014878 1
-5.325911 1.997473 0.006679 1
-5.315454 1.967741 0.015347 1
-5.307509 1.957115 0.018738 1
-5.305235 2.000199 0.007399 1
-5.295174 1.974235 0.015016 1
-5.289936 1.990419 0.011047 1
-5.282955 1.991240 0.011290 1
-5.274786 1.980521 0.014688 1
-5.267840 1.981290 0.014931 1
-5.261996 1.993560 0.012021 1
-5.253940 1.982754 0.015415 1
-5.248017 1.991105 0.013546 1
-5.245993 2.045589 -0.000915 1
-5.233767 1.984705 0.016119 1
-5.236181 2.104627 -0.016141 1
-5.242083 -2.124701 -0.014133 1
-5.242599 -2.043228 0.007560 1
-5.250710 -2.054084 0.004175 1
-5.263832 -2.122612 -0.014894 1
-5.271199 -2.121853 -0.015151 1
-5.278564 -2.121068 -0.015409 1
-5.281211 -2.074174 -0.003095 1
-5.285159 -2.042645 0.005038 1
-5.292007 -2.072937 -0.003473 1
-5.298466 -2.033288 0.006640 1
-5.304533 -2.020865 0.009529 1
-5.314202 -2.039083 0.004022 1
-5.320451 -2.034368 0.004837 1
-5.331050 -2.064092 -0.003805 1
-5.345078 -2.112797 -0.017736 1
-5.341619 -2.031433 0.004096 1
-5.353055 -2.064864 -0.005609 1
-5.355009 -2.029459 0.003628 1
-5.362956 -2.032150 0.002316 1
-5.373196 -2.050076 -0.003212 1
-5.382854 -2.068068 -0.008720 1
-5.387894 -2.055516 -0.005794 1
-5.394170 -2.046645 -0.003946 1
-5.401627 -2.045372 -0.004207 1
-5.417866 -2.101283 -0.020284 1
-5.417045 -2.054409 -0.007849 1
-5.423871 -2.049250 -0.007054 1
-5.425599 -2.017546 0.001156 1
-5.434657 -2.027613 -0.002262 1
-5.439594 -2.014879 0.000666 1
-5.448722 -2.024883 -0.002755 1
-5.455397 -2.023551 -0.002989 1
-5.472079 -2.091009 -0.022182 1
-5.482961 -2.088771 -0.022564 1
-5.480268 -2.038103 -0.009029 1
-5.478004 -1.991261 0.003456 1
-5.484912 -1.989758 0.003214 1
-5.491815 -1.988231 0.002972 1
-5.501982 -2.001754 -0.001519 1
-5.503113 -1.973807 0.005678 1
-5.515865 -1.998555 -0.002006 1
-5.513891 -1.959404 0.008402 1
-5.529727 -1.995258 -0.002492 1
-5.528701 -1.959795 0.006849 1
-5.548940 -2.014365 -0.009368 1
-5.546494 -1.975232 0.001056 1
-5.553346 -1.973490 0.000816 1
-5.564865 -1.990425 -0.004757 1
-5.567031 -1.969934 0.000336 1
-5.578667 -1.986786 -0.005241 1
-5.587507 -1.992391 -0.007619 1
-5.587511 -1.964420 -0.000382 1
-5.588989 -1.944015 0.004735 1
-5.592361 -1.931062 0.007718 1
-5.607593 -1.958789 -0.001086 1
-5.607121 -1.930851 0.006167 1
-5.613940 -1.940909 0.002826 1
-5.627954 -1.952852 -0.001800 1
-5.634727 -1.950825 -0.002038 1
-5.636045 -1.930292 0.003085 1
-5.642739 -1.928238 0.002850 1
-5.655004 -1.944603 -0.002749 1
-5.656106 -1.924060 0.002381 1
-5.661638 -1.918255 0.003221 1
-5.667958 -1.916219 0.002999 1
-5.673106 -1.910490 0.003852 1
-5.675346 -1.893525 0.007909 1
-5.695020 -1.931636 -0.004153 1
-5.702054 -1.929261 -0.004400 1
-5.715426 -1.924667 -0.004870 53
-5.715884 -1.904105 0.000283 1
-5.719975 -1.894489 0.002207 1
-5.720201 -1.873957 0.007368 1
-5.742074 -1.915199 -0.005805 1
-5.741917 -1.894756 -0.000631 1
-5.745874 -1.885085 0.001298 1
-5.756366 -1.893504 -0.002172 1
-5.750950 -1.858505 0.007322 1
-5.769488 -1.888533 -0.002633 1
-5.772763 -1.887275 -0.002748 1
-5.788051 -1.897867 -0.007420 1
-5.776671 -1.848554 0.006419 1
-5.789727 -1.864086 0.000791 1
-5.793377 -1.854326 0.002730 1
-5.802320 -1.859014 0.000349 1
-5.820535 -1.884844 -0.008561 1
-5.812635 -1.846451 0.002054 1
-5.824860 -1.858038 -0.002511 1
-5.840110 -1.876679 -0.009249 1
-5.839213 -1.856143 -0.004049 1
-5.815786 -1.782412 0.017449 1
-5.849061 -1.843508 -0.002327 1
-5.850899 -1.830098 0.000709 1
-5.864892 -1.844955 -0.004951 1
-5.863259 -1.824610 0.000275 1
-5.865235 -1.811058 0.003306 1
-5.876214 -1.818751 -0.000181 1
-5.887255 -1.826389 -0.003670 1
-5.887219 -1.809441 0.000466 1
-5.895094 -1.810010 -0.000845 1
-5.898136 -1.800067 0.001116 1
-5.907630 -1.804073 -0.001286 1
-5.905373 -1.783815 0.003962 1
-5.905174 -1.775364 0.006036 1
-5.932700 -1.809035 -0.006302 1
-5.920535 -1.767844 0.005496 1
-5.905262 -1.721726 0.018954 2
-5.913225 -1.722038 0.017640 2
-5.931176 -1.743139 0.009773 3
-5.928596 -1.722860 0.015032 3
-5.927620 -1.706054 0.019201 6
-5.940523 -1.716695 0.014612 6
-5.947932 -1.717158 0.013318 11
-5.954767 -1.715726 0.012561 11
-5.965169 -1.721084 0.009610 13
-5.964849 -1.705976 0.013239 13
-5.964435 -1.690892 0.016872 12
-5.974839 -1.696169 0.013921 12
-5.984375 -1.699701 0.011518 15
-5.991185 -1.698122 0.010762 15
-5.990577 -1.683038 0.014401 15
-5.995474 -1.678068 0.014745 15
-6.004103 -1.679797 0.012891 15
-6.013408 -1.683329 0.010496 15
-6.016098 -1.675114 0.011952 16
-6.018077 -1.665063 0.013949 16
-6.021921 -1.658349 0.014847 18
-6.028651 -1.663306 0.012543 18
-6.040207 -1.663142 0.010585 15
-6.046255 -1.659506 0.010372 15
-6.047078 -1.647769 0.012927 16
-6.049812 -1.639341 0.014381 16
-6.055205 -1.636022 0.014191 15
-6.064878 -1.639071 0.011783 15
-6.069546 -1.633887 0.012135 16
-6.072164 -1.625423 0.013593 16
-6.077511 -1.622029 0.013405 15
-6.084152 -1.620065 0.012654 15
-6.093882 -1.622941 0.010244 20
-6.098746 -1.617491 0.010589 20
-6.098374 -1.603952 0.013703 19
-6.104697 -1.602083 0.012963 19
-6.107862 -1.595366 0.013885 12
-6.123187 -1.605919 0.008694 12
-6.122639 -1.592380 0.011813 14
-6.126011 -1.585439 0.012728 14
-6.121820 -1.567348 0.017526 11
-6.136975 -1.577900 0.012341 11
-6.144337 -1.577462 0.011048 6
-6.144338 -1.565732 0.013631 6
-6.150584 -1.563677 0.012894 1
-6.168689 -1.583812 0.005021 1
-6.177181 -1.577744 0.004722 1
-6.173732 -1.561281 0.008977 1
-6.205997 -1.594828 -0.004563 1
-6.171031 -1.534719 0.015273 1
-6.198672 -1.562071 0.003963 1
-6.194997 -1.545660 0.008226 1
-6.209202 -1.554225 0.003591 1
-6.214849 -1.549971 0.003392 1
-6.220214 -1.545900 0.003202 1
-6.207056 -1.517277 0.011934 1
-6.260839 -1.577673 -0.011667 1
-6.235955 -1.533782 0.002646 1
-6.229538 -1.514425 0.008040 1
-6.211223 -1.479964 0.019020 1
-6.251834 -1.521292 0.002085 1
-6.257360 -1.516882 0.001890 1
-6.293648 -1.551771 -0.012826 1
-6.279833 -1.523424 -0.004071 1
-6.297147 -1.534082 -0.009850 1
-6.309711 -1.538671 -0.013394 1
-6.258907 -1.466071 0.012168 1
-6.288370 -1.491508 0.000794 1
-6.293530 -1.487181 0.000611 1
-6.328014 -1.523399 -0.014041 1
-6.303804 -1.478472 0.000248 1
-6.308918 -1.474091 0.000067 1
-6.298822 -1.452375 0.006624 1
-6.319100 -1.465275 -0.000293 1
-6.291527 -1.423080 0.014114 1
-6.296448 -1.418744 0.013940 1
-6.334006 -1.452142 -0.000821 1
-6.359608 -1.470452 -0.009992 1
-6.311120 -1.405632 0.013421 1
-6.349275 -1.438403 -0.001361 1
-6.315682 -1.391104 0.015326 1
-6.359207 -1.429306 -0.001713 1
-6.348360 -1.407964 0.004870 1
-6.348028 -1.397781 0.006948 1
-6.347640 -1.387618 0.009028 1
-6.352437 -1.383085 0.008859 1
-6.344069 -1.364557 0.014321 1
-6.354065 -1.365611 0.011900 1
-6.393223 -1.397158 -0.002917 1
-6.350195 -1.342647 0.017203 1
-6.370846 -1.354656 0.010273 1
-6.407664 -1.383029 -0.003429 1
-6.385569 -1.350892 0.007685 1
-6.414828 -1.375907 -0.003683 1
-6.456656 -1.404602 -0.018595 1
-6.426214 -1.364435 -0.004087 1
-6.403684 -1.332607 0.007043 1
-6.419224 -1.338648 0.002359 1
-6.412877 -1.323135 0.006717 1
-6.444975 -1.345104 -0.004752 1
-6.449623 -1.340230 -0.004917 1
-6.437626 -1.319421 0.001707 1
-6.403258 -1.277564 0.017388 1
-6.463465 -1.325513 -0.005408 1
-6.468044 -1.320575 -0.005570 1
-6.436102 -1.281641 0.008992 1
-6.440308 -1.277042 0.008842 1
-6.458848 -1.285159 0.003020 1
-6.449112 -1.267317 0.008530 1
-6.453489 -1.262431 0.008374 1
-6.452143 -1.252401 0.010488 1
-6.462191 -1.252613 0.008065 1
-6.466516 -1.247682 0.007912 1
-6.485222 -1.255404 0.002083 1
-6.483780 -1.245345 0.004200 1
-6.517050 -1.265472 -0.007310 1
-6.483645 -1.227805 0.007303 1
-6.479946 -1.220308 0.009500 1
-6.471643 -1.200400 0.014959 1
-6.475786 -1.195437 0.014812 1
-6.538719 -1.239696 -0.008081 1
-6.484020 -1.185467 0.014519 1
-6.517478 -1.205126 0.003002 1
-6.507014 -1.187592 0.008538 1
-6.517061 -1.187345 0.006115 1
-6.521159 -1.182222 0.005969 1
-6.525238 -1.177085 0.005824 1
-6.568294 -1.202983 -0.009133 1
-6.572238 -1.197945 -0.009273 1
-6.500978 -1.133437 0.019079 1
-6.580487 -1.187296 -0.009567 1
-6.584584 -1.181950 -0.009713 1
-6.588662 -1.176590 -0.009858 1
-6.537848 -1.129370 0.010538 1
-6.535630 -1.119547 0.012682 1
-6.554814 -1.125877 0.006836 1
-6.564842 -1.125207 0.004414 1
-6.608770 -1.149577 -0.010574 1
-6.612735 -1.144132 -0.010715 1
-6.616681 -1.138674 -0.010856 1
-6.620608 -1.133202 -0.010996 1
-6.582157 -1.101300 0.003797 1
-6.550222 -1.066812 0.017325 1
-6.598908 -1.077393 0.003199 53
-6.564818 -1.045790 0.016804 1
-6.647369 -1.094797 -0.011951 1
-6.651142 -1.089218 -0.012085 1
-6.575572 -1.029891 0.016420 1
-6.595022 -1.035257 0.010564 1
-6.662346 -1.072402 -0.012485 1
-6.608526 -1.028689 0.008017 1
-6.669717 -1.061127 -0.012749 1
-6.673373 -1.055470 -0.012879 1
-6.677009 -1.049801 -0.013009 1
-6.629156 -0.996412 0.007280 1
-6.609870 -0.976640 0.015195 1
-6.613231 -0.971196 0.015074 1
-6.643098 -0.973736 0.006781 1
-6.708494 -0.998792 -0.014135 1
-6.710216 -0.995897 -0.014197 1
-6.642785 -0.921402 0.014016 53
-6.738871 -0.945945 -0.015224 53
-6.745358 -0.934138 -0.015457 53
-6.754775 -0.916641 -0.015795 1
-6.673594 -0.865326 0.012911 1
-6.761213 -0.904426 -0.016026 1
-6.709198 -0.854883 0.004411 53
-6.743091 -0.784729 0.003191 53
-6.816676 -0.789113 -0.018023 53
-6.822067 -0.776766 -0.018218 53
-6.911267 -0.523456 -0.021465 53
-6.822553 -0.485098 0.007510 53
-6.833542 -0.442004 0.007104 1
-6.843552 -0.398343 0.006731 53
-6.956793 -0.313209 -0.023165 53
-6.845404 -0.225722 0.013828 1
-6.872366 -0.225775 0.005635 1
-6.849551 -0.187803 0.013663 1
-6.880028 -0.146156 0.005326 53
-6.856359 -0.093799 0.013376 53
-6.883391 -0.088661 0.005178 1
-6.864542 -0.081505 0.011012 1
-6.883894 -0.075872 0.005154 1
-6.884006 -0.072674 0.005148 1
-6.865509 -0.049860 0.010962 1
-6.884865 -0.037488 0.005100 1
-6.858234 -0.024473 0.013274 1
-6.911587 0.020550 -0.003115 53
-6.884413 0.038660 0.005076 1
-6.884231 0.045057 0.005079 1
-6.883525 0.064883 0.005093 1
-6.882972 0.077349 0.005106 1
-6.863714 0.079591 0.010957 1
-6.881570 0.102909 0.005141 1
-6.973532 0.155884 -0.023995 53
-6.877115 0.160329 0.005267 53
-6.876508 0.166700 0.005285 1
-6.875880 0.173069 0.005303 1
-6.874556 0.185799 0.005343 53
-6.873861 0.192161 0.005364 1
-6.846543 0.195444 0.013567 1
-6.872404 0.204876 0.005408 1
-6.966566 0.222886 -0.023787 1
-6.870052 0.223930 0.005480 53
-6.964020 0.242935 -0.023709 1
-6.958352 0.282615 -0.023532 1
-6.862858 0.274293 0.005705 1
-6.860828 0.286930 0.005769 53
-6.859780 0.293243 0.005803 1
-6.855369 0.318457 0.005944 1
-6.880532 0.329690 -0.002192 1
-6.879335 0.336072 -0.002154 1
-6.849360 0.349885 0.006137 53
-6.848156 0.355844 0.006176 1
-6.910369 0.506093 -0.021973 1
-6.624668 0.982982 0.006400 1
-6.598642 0.973951 0.014565 1
-6.589249 1.037006 0.007609 1
-6.740826 1.325199 0.003509 1
-6.757267 1.348079 -0.003379 1
-6.776575 1.373529 -0.011270 1
-6.737216 1.360656 -0.000885 1
-6.696640 1.336903 0.011349 1
-6.782069 1.428036 -0.020493 11
-6.777040 1.434070 -0.020321 1
-6.698312 1.377313 0.004967 1
-6.761830 1.452068 -0.019799 11
-6.704145 1.412275 -0.001558 1
-6.668909 1.411494 0.005976 11
-6.684134 1.435212 -0.000871 1
-6.658950 1.422750 0.006318 1
-6.725613 1.493436 -0.018556 1
-6.668917 1.452231 -0.000348 1
-6.664061 1.457587 -0.000182 1
-6.672871 1.476655 -0.005001 1
-6.653522 1.469089 0.000180 1
-6.650681 1.472162 0.000278 1
-6.634727 1.472247 0.003536 1
-6.632985 1.491037 0.000886 1
-6.677853 1.545017 -0.016915 1
-6.611656 1.502092 0.003426 11
-6.592591 1.493919 0.008598 1
-6.606559 1.518410 0.001795 1
-6.582059 1.504639 0.008960 1
-6.604037 1.537483 -0.000828 1
-6.639391 1.584304 -0.015593 1
-6.582357 1.548098 0.001724 1
-6.544916 1.519699 0.013850 1
-6.590752 1.577802 -0.004887 1
-6.585203 1.583166 -0.004696 1
-6.566334 1.574427 0.000469 1
-6.600266 1.622368 -0.014247 1
-6.594561 1.627767 -0.014050 1
-6.562537 1.604692 -0.003916 1
-6.543794 1.595685 0.001245 1
-6.532962 1.595157 0.003424 1
-6.537752 1.611811 -0.000353 1
-6.529731 1.608648 0.001729 1
-6.534139 1.630823 -0.002938 1
-6.510416 1.615686 0.004201 1
-6.484537 1.597243 0.012317 1
-6.478639 1.602483 0.012520 1
-6.488240 1.625019 0.006771 1
-6.460046 1.603350 0.015870 1
-6.525248 1.690457 -0.011662 1
-6.494210 1.666059 -0.001562 1
-6.513346 1.700709 -0.011252 1
-6.507368 1.705803 -0.011046 1
-6.501372 1.710876 -0.010839 1
-6.458044 1.671345 0.004200 1
-6.469071 1.697477 -0.002502 1
-6.448723 1.684130 0.003618 1
-6.443100 1.688755 0.003812 1
-6.444144 1.702915 0.001067 1
-6.428201 1.695878 0.005229 1
-6.398494 1.670026 0.015283 1
-6.424046 1.714117 0.002663 1
-6.420103 1.722195 0.001897 1
-6.399816 1.708565 0.008014 1
-6.383183 1.699426 0.012651 1
-6.377510 1.703832 0.012847 5
-6.367479 1.696883 0.015902 5
-6.365518 1.713046 0.013261 5
-6.357179 1.714514 0.014452 5
-6.345383 1.711272 0.017116 9
-6.347410 1.726709 0.013886 9
-6.337913 1.726524 0.015569 9
-6.341781 1.745357 0.011372 9
-6.332252 1.745127 0.013056 12
-6.315981 1.735384 0.017680 12
-6.315795 1.747476 0.015430 10
-6.307424 1.748706 0.016622 10
-6.307140 1.760808 0.014374 12
-6.297639 1.760399 0.016057 12
-6.288157 1.759944 0.017739 11
-6.279477 1.761261 0.018942 11
-6.276553 1.770352 0.017688 9
-6.271416 1.776225 0.017415 9
-6.269797 1.786711 0.015665 11
-6.261065 1.787930 0.016870 11
-6.250522 1.785657 0.019040 11
-6.250608 1.799577 0.016328 11
-6.247767 1.808426 0.015072 12
-6.237952 1.807902 0.016766 12
-6.225345 1.802219 0.019910 10
-6.226024 1.811019 0.018081 10
-6.220921 1.823510 0.016452 10
-6.212466 1.824287 0.017647 10
-6.211158 1.836579 0.015436 9
-6.201666 1.835653 0.017118 9
-6.190178 1.831369 0.019772 9
-6.179736 1.828688 0.021939 9
-6.182608 1.847396 0.017777 6
-6.174139 1.847997 0.018973 6
-6.157796 1.835190 0.024052 3
-6.154290 1.844063 0.022820 3
-6.143919 1.841186 0.024984 1
-6.151003 1.868531 0.018420 1
-6.163680 1.906061 0.008954 1
-6.137867 1.876160 0.018875 1
-6.133511 1.883135 0.018123 1
-6.147340 1.924384 0.007714 1
-6.131202 1.911211 0.012787 1
-6.154327 1.969432 -0.002457 1
-6.104799 1.894827 0.020020 1
-6.107351 1.915577 0.015418 1
-6.102793 1.922491 0.014673 1
-6.112402 1.957017 0.006216 1
-6.103727 1.957273 0.007419 1
-6.096694 1.952228 0.009468 1
-6.085314 1.953864 0.010765 1
-6.083423 1.968005 0.008123 1
-6.077927 1.975236 0.007411 1
-6.091939 2.020422 -0.003907 1
-6.060583 1.975407 0.009817 1
-6.064327 1.999622 0.004271 1
-6.047399 1.982056 0.010274 1
-6.030254 1.964570 0.016284 1
-6.040218 2.002952 0.006912 1
-6.036536 2.013399 0.005235 1
-6.011194 1.978220 0.016042 1
-6.014147 2.002651 0.010524 1
-6.005482 2.002478 0.011727 1
-6.008202 2.026959 0.006217 1
-6.001089 2.030287 0.006464 1
-5.987565 2.019435 0.010543 1
-5.982066 2.026235 0.009831 1
-5.979681 2.040122 0.007206 1
-5.967834 2.032683 0.010325 1
-5.954500 2.021625 0.014398 1
-5.958531 2.049573 0.007940 1
-5.951340 2.052727 0.008189 1
-5.944138 2.055857 0.008439 1
-5.946562 2.071732 0.004745 1
-5.918566 2.037227 0.015644 1
-5.922104 2.065245 0.009204 1
-5.904975 2.042932 0.016116 1
-5.907965 2.071124 0.009694 1
-5.900698 2.074102 0.009946 1
-5.904829 2.105966 0.002583 1
-5.886135 2.079981 0.010452 1
-5.885841 2.101002 0.005949 1
-5.877082 2.100274 0.007156 1
-5.869715 2.103144 0.007412 1
-5.857253 2.091293 0.011455 1
-5.849917 2.094093 0.011709 1
-5.862638 2.151592 -0.002270 1
-5.835215 2.099617 0.012220 1
-5.831787 2.113313 0.009631 1
-5.824374 2.116025 0.009889 1
-5.825959 2.144380 0.003516 1
-5.815889 2.139728 0.005671 1
-5.813429 2.157089 0.002146 1
-5.808360 2.167099 0.000517 1
-5.787169 2.129194 0.011181 1
-5.793149 2.172334 0.001046 1
-5.777063 2.149054 0.007922 1
-5.769686 2.139230 0.010886 1
-5.763164 2.157772 0.007503 1
-5.750912 2.145417 0.011538 1
-5.735281 2.121871 0.018399 1
-5.728984 2.127959 0.017715 1
-5.730577 2.160064 0.010440 1
-5.731955 2.192207 0.003172 1
-5.716525 2.168481 0.010026 1
-5.714386 2.189445 0.005588 1
-5.697365 2.158020 0.014302 1
-5.701541 2.201386 0.004230 1
-5.688549 2.184932 0.009194 1
-5.686095 2.205874 0.004767 1
-5.669103 2.174328 0.013480 1
-5.664525 2.187732 0.010931 1
-5.652844 2.174831 0.014948 1
-5.646206 2.180678 0.014276 1
-5.633679 2.163920 0.019224 1
-5.628017 2.173474 0.017616 1
-5.623245 2.186788 0.015075 1
-5.618386 2.200095 0.012536 1
-5.608825 2.194505 0.014674 1
-5.604771 2.211563 0.011205 1
-5.592532 2.194559 0.016143 1
-5.592247 2.210645 0.012543 1
-5.581489 2.217239 0.012015 1
-5.574572 2.222870 0.011353 1
-5.557875 2.182826 0.021861 1
-5.559369 2.226381 0.011882 1
-5.549496 2.216645 0.014933 1
-5.545361 2.237487 0.010565 1
-5.538706 2.246902 0.008992 1
-5.528888 2.237071 0.012041 1
-5.517608 2.219570 0.016946 1
-5.508685 2.217447 0.018159 1
-5.509035 2.261051 0.008220 1
-5.501833 2.266459 0.007568 1
-5.488905 2.241241 0.014335 1
-5.487334 2.277206 0.006268 1
-5.479065 2.274811 0.007458 1
-5.466661 2.253366 0.013305 1
-5.461396 2.270145 0.009879 1
-5.452793 2.267725 0.011081 1
-5.442949 2.257593 0.014131 1
-5.438744 2.282002 0.008863 1
-5.426301 2.252518 0.016515 1
-5.421957 2.276894 0.011252 1
-5.419010 2.308902 0.004136 1
-5.410383 2.278742 0.011655 1
-5.396499 2.273007 0.013944 1
-5.387456 2.266488 0.016064 1
-5.384229 2.302362 0.008055 1
-5.372074 2.272639 0.015697 1
-5.363611 2.269885 0.016895 1
-5.359928 2.301809 0.009804 1
-5.352263 2.302821 0.010071 1
-5.341044 2.280713 0.015876 1
-5.333494 2.285578 0.015237 1
-5.324622 2.278811 0.017351 1
-5.316218 2.275880 0.018547 1
-5.310662 2.300027 0.013326 1
-5.301821 2.293171 0.015439 1
-5.293783 2.294032 0.015719 1
-5.286469 2.302619 0.014169 1
-5.279853 2.315022 0.011693 1
-5.269448 2.284732 0.019275 1
-5.263058 2.304883 0.014986 1
-5.254050 2.293963 0.018007 1
-5.271392 -2.445941 -0.010729 1
-5.276543 -2.406347 -0.001926 1
-5.285596 -2.413302 -0.004039 1
-5.292115 -2.396997 -0.000674 1
-5.301188 -2.403893 -0.002788 1
-5.313416 -2.441756 -0.012198 1
-5.321897 -2.440822 -0.012495 1
-5.330374 -2.439859 -0.012792 1
-5.334611 -2.439366 -0.012940 1
-5.347319 -2.437844 -0.013384 1
-5.356208 -2.436738 -0.013695 1
-5.360392 -2.396945 -0.004859 1
-5.365401 -2.372721 0.000356 1
-5.375212 -2.387113 -0.003581 1
-5.383916 -2.385907 -0.003885 1
-5.387490 -2.350005 0.004074 1
-5.406504 -2.429859 -0.015455 1
-5.410128 -2.397828 -0.008396 1
-5.423377 -2.427312 -0.016046 1
-5.420682 -2.348926 0.002014 1
-5.427841 -2.343838 0.002662 1
-5.437983 -2.357959 -0.001286 1
-5.445963 -2.352680 -0.000667 1
-5.453909 -2.347374 -0.000047 1
-5.463583 -2.357541 -0.003081 1
-5.470704 -2.352322 -0.002432 1
-5.476598 -2.335429 0.000955 1
-5.483339 -2.326265 0.002515 1
-5.494205 -2.340058 -0.001458 1
-5.501619 -2.334669 -0.000820 1
-5.509001 -2.329257 -0.000180 1
-5.523312 -2.362118 -0.008766 1
-5.525928 -2.353648 -0.007061 1
-5.534368 -2.332047 -0.002865 1
-5.540911 -2.322718 -0.001298 1
-5.551344 -2.332424 -0.004358 1
-5.558639 -2.326854 -0.003715 1
-5.567533 -2.328871 -0.004925 1
-5.569812 -2.300442 0.001283 1
-5.574427 -2.283422 0.004714 1
-5.588346 -2.308149 -0.002061 1
-5.595958 -2.306353 -0.002328 1
-5.609660 -2.327075 -0.008198 1
-5.613260 -2.306179 -0.003833 1
-5.621266 -2.304201 -0.004113 1
-5.625179 -2.287178 -0.000658 1
-5.641531 -2.319145 -0.009315 1
-5.644842 -2.298203 -0.004940 1
-5.660508 -2.326270 -0.012675 1
-5.660790 -2.293999 -0.005499 1
-5.673690 -2.310667 -0.010442 1
-5.672708 -2.274649 -0.002324 1
-5.688311 -2.302617 -0.010057 1
-5.683601 -2.255467 0.000887 1
-5.695977 -2.268125 -0.003140 1
-5.698589 -2.247138 0.001260 1
-5.708176 -2.264600 -0.003568 1
-5.723883 -2.276190 -0.007712 1
-5.727419 -2.258895 -0.004243 1
-5.739676 -2.271434 -0.008266 1
-5.747560 -2.269015 -0.008542 1
-5.750915 -2.251686 -0.005067 1
-5.751871 -2.226928 0.000289 1
-5.770004 -2.257880 -0.008431 1
-5.768102 -2.225814 -0.001179 1
-5.795511 -2.286399 -0.017410 1
-5.779959 -2.209653 0.001100 1
-5.790042 -2.214486 -0.001051 1
-5.813979 -2.259747 -0.013567 1
-5.813187 -2.231261 -0.007252 1
-5.820930 -2.228585 -0.007524 1
-5.828664 -2.225883 -0.007795 1
-5.842749 -2.241520 -0.012781 1
-5.837679 -2.202054 -0.003621 1
-5.845320 -2.199294 -0.003889 1
-5.865668 -2.233243 -0.013586 1
-5.861516 -2.197490 -0.005356 1
-5.866470 -2.187346 -0.003734 1
-5.882147 -2.206358 -0.009673 1
-5.881639 -2.181599 -0.004266 1
-5.886793 -2.183783 -0.005346 1
-5.884294 -2.143069 0.003724 1
-5.912710 -2.194534 -0.010747 1
-5.904426 -2.151832 -0.000576 1
-5.916162 -2.159688 -0.003683 1
-5.930457 -2.174862 -0.008676 1
-5.935483 -2.164411 -0.007056 1
-5.950297 -2.179312 -0.012067 1
-5.946069 -2.147396 -0.004734 1
-5.957977 -2.155028 -0.007847 1
-5.954963 -2.126755 -0.001454 1
-5.963852 -2.127166 -0.002664 1
-5.978849 -2.141836 -0.007682 1
-5.986280 -2.138583 -0.007943 1
-5.982859 -2.110364 -0.001536 1
-6.002296 -2.135724 -0.009404 1
-5.999062 -2.107359 -0.003004 1
-6.031744 -2.160776 -0.018523 1
-6.008876 -2.090067 -0.000654 1
-6.024178 -2.104385 -0.005683 1
-6.026608 -2.090387 -0.003074 1
-6.038764 -2.097539 -0.006196 1
-6.044392 -2.090560 -0.005496 1
-6.047963 -2.080230 -0.003825 1
-6.054902 -2.085505 -0.005866 1
-6.067431 -2.083719 -0.007204 1
-6.083136 -2.097627 -0.012247 1
-6.086634 -2.087216 -0.010574 1
-6.077035 -2.048587 -0.001256 1
-6.096264 -2.069323 -0.008219 1
-6.110417 -2.079539 -0.012309 1
-6.114117 -2.068900 -0.010643 1
-6.115987 -2.054805 -0.008015 1
-6.115637 -2.037457 -0.004410 1
-6.126287 -2.040618 -0.006581 1
-6.144186 -2.057481 -0.012599 1
-6.164032 -2.077674 -0.019584 1
-6.158442 -2.049797 -0.013101 1
-6.141634 -2.001473 -0.000835 1
-6.167090 -2.031777 -0.010712 1
-6.168544 -2.017651 -0.008069 1
-6.153036 -1.972949 0.003254 1
-6.178748 -2.003014 -0.006632 1
-6.185693 -1.999065 -0.006877 1
-6.192278 -1.995291 -0.007109 1
-6.208457 -2.008359 -0.012169 1
-6.201888 -1.980744 -0.005651 1
-6.193195 -1.949842 0.001839 1
-6.196577 -1.947846 0.001720 1
-6.226383 -1.975274 -0.008310 1
-6.233573 -1.970952 -0.008563 1
