# .PCD v.7 - Point Cloud Data file format
VERSION .7
FIELDS x y z intensity
SIZE 4 4 4 1
TYPE F F F U
COUNT 1 1 1 1
WIDTH 1497
HEIGHT 1
VIEWPOINT 0 0 0 1 0 0 0
POINTS 1497
DATA ascii
8.622135 -7.502497 -0.107672 1
8.616404 -7.549978 -0.109487 1
8.620633 -7.603799 -0.112309 1
8.612251 -7.647429 -0.113782 1
8.609278 -7.697172 -0.115933 1
8.599355 -7.742706 -0.117412 1
8.597142 -7.790695 -0.119556 1
8.591376 -7.836587 -0.121365 1
8.597600 -7.893037 -0.124524 1
8.578995 -7.936197 -0.125338 1
6.441156 -6.580713 0.087890 0
6.350071 -6.602598 0.093057 1
6.210548 -6.552979 0.105046 0
6.177982 -6.572650 0.106286 0
6.152933 -6.595241 0.106859 0
6.024130 -6.550442 0.117847 0
5.986090 -6.563385 0.119767 0
5.920951 -6.559250 0.124375 0
5.877778 -6.572173 0.126624 0
5.859312 -6.598267 0.126528 0
5.860216 -6.638206 0.124415 0
5.704694 -6.567791 0.138448 0
5.693975 -6.603017 0.137336 0
5.645469 -6.608672 0.140268 0
5.629113 -6.637690 0.139835 0
5.507977 -6.586992 0.150516 0
5.475714 -6.603626 0.151768 0
5.421132 -6.603329 0.155378 0
5.377150 -6.608654 0.157983 0
5.325899 -6.610194 0.161259 0
5.281049 -6.616302 0.163861 0
5.223639 -6.612404 0.167813 0
5.172632 -6.613077 0.171091 0
5.118574 -6.611001 0.174708 0
5.064619 -6.608615 0.178326 0
5.023236 -6.615856 0.180597 0
4.979759 -6.619164 0.183210 0
4.969462 -6.651010 0.182111 0
4.894106 -6.630022 0.188093 1
4.852892 -6.636368 0.190367 1
4.808644 -6.639958 0.192980 1
4.767519 -6.645856 0.195256 0
4.698933 -6.628508 0.200569 0
4.639692 -6.618458 0.204871 0
4.592756 -6.618383 0.207825 0
4.539844 -6.612867 0.211455 0
4.481010 -6.601849 0.215761 0
4.440400 -6.606158 0.218043 0
4.403817 -6.611756 0.219993 0
4.361281 -6.611911 0.222618 0
4.307910 -6.606122 0.226249 0
4.301242 -6.637620 0.224824 0
4.231166 -6.614316 0.230488 0
4.187938 -6.614650 0.233113 0
4.054702 -6.571520 0.243770 0
4.076274 -6.630476 0.238966 0
4.025514 -6.620747 0.242611 0
3.997188 -6.633576 0.243551 0
3.963045 -6.640808 0.245167 0
3.914471 -6.634150 0.248474 0
3.857374 -6.618959 0.252796 0
3.832042 -6.633844 0.253400 0
3.789506 -6.631976 0.256034 0
3.749907 -6.632664 0.258330 0
3.713216 -6.635938 0.260289 0
3.673740 -6.636220 0.262587 0
3.621197 -6.621245 0.266580 0
3.598788 -6.638011 0.266850 0
3.559509 -6.637691 0.269150 0
3.523094 -6.640007 0.271112 0
3.475596 -6.630729 0.274429 0
3.455969 -6.649810 0.274363 0
3.425220 -6.657334 0.275650 1
3.413760 -6.684883 0.274569 0
3.306149 -6.611234 0.285336 1
3.256074 -6.636503 0.286563 0
3.274412 -6.695691 0.281759 0
3.258257 -6.716080 0.281360 0
3.232946 -6.728525 0.281975 0
3.105661 -6.628863 0.295460 0
3.086042 -6.646652 0.295399 0
3.071686 -6.670304 0.294660 0
3.036011 -6.670122 0.296632 0
2.979268 -6.645884 0.301316 0
2.970115 -6.675207 0.299901 0
2.869003 -6.678607 0.305148 0
2.741069 -6.604435 0.316904 0
2.726676 -6.627047 0.316169 1
2.703526 -6.641277 0.316450 0
2.674662 -6.644584 0.317754 0
2.652454 -6.657794 0.318038 0
2.606496 -6.643977 0.321372 1
2.580267 -6.649947 0.322338 1
2.548056 -6.650400 0.323980 1
2.522394 -6.660813 0.324603 1
2.488759 -6.657073 0.326588 1
2.459159 -6.660203 0.327893 1
2.435500 -6.668690 0.328522 1
2.410846 -6.677853 0.329149 1
2.386182 -6.686913 0.329777 1
2.354224 -6.686388 0.331423 2
2.327157 -6.692048 0.332391 3
2.304917 -6.703941 0.332680 3
2.279257 -6.713311 0.333307 3
2.254582 -6.721826 0.333936 4
2.230897 -6.729499 0.334569 6
2.200489 -6.732126 0.335876 7
2.183867 -6.749243 0.335491 9
2.164837 -6.763087 0.335445 14
2.136767 -6.768609 0.336414 15
2.109717 -6.773286 0.337386 19
2.089601 -6.787597 0.337339 25
2.078611 -6.814875 0.335933 34
2.043382 -6.805502 0.338268 40
2.025426 -6.822856 0.337882 40
2.002877 -6.833591 0.338176 37
1.937303 -6.868580 0.338721 0
1.950068 -6.931997 0.333578 0
1.934839 -6.951707 0.332856 0
1.921827 -6.979407 0.331449 0
1.918427 -7.019757 0.328686 0
1.911511 -7.052783 0.326604 0
1.907673 -7.093215 0.323840 0
1.901455 -7.130333 0.321416 0
1.890760 -7.160749 0.319672 0
1.886263 -7.201286 0.316908 0
1.883639 -7.245248 0.313804 0
1.878659 -7.285878 0.311040 0
1.881785 -7.340133 0.306915 0
1.877393 -7.380196 0.304152 0
1.878969 -7.430528 0.300369 0
1.877996 -7.482295 0.296582 0
1.879872 -7.536888 0.292456 0
1.873306 -7.577846 0.289692 0
1.877730 -7.635353 0.285228 0
1.882654 -7.697084 0.280421 0
1.888008 -7.763062 0.275271 0
1.892139 -7.825027 0.270464 0
1.891952 -7.880171 0.266337 0
1.902409 -7.952081 0.260510 0
1.939122 -8.077703 0.249572 0
1.958847 -8.171610 0.241699 0
3.923239 -11.898872 -0.118304 89
3.796196 -11.750140 -0.102018 48
3.824575 -11.888741 -0.113655 19
3.919299 -12.163437 -0.138240 19
3.854347 -12.134666 -0.133534 38
3.809965 -12.144438 -0.132574 38
3.763862 -12.145950 -0.130929 31
3.734208 -12.179184 -0.132348 23
3.512400 -11.844978 -0.098345 45
3.364943 -11.651625 -0.077964 60
3.297538 -11.605206 -0.071884 55
3.244676 -11.587017 -0.068528 23
3.089818 -11.370128 -0.046096 11
3.065869 -11.412910 -0.048534 11
3.076357 -11.527424 -0.057786 8
3.153233 -11.782328 -0.080330 20
3.091700 -11.749843 -0.075611 17
3.047416 -11.753126 -0.074299 21
3.015151 -11.777031 -0.075029 17
2.967529 -11.772765 -0.073034 19
2.945107 -11.818169 -0.075809 24
2.893958 -11.810816 -0.073474 19
2.869573 -11.852432 -0.075907 21
2.849553 -11.909414 -0.079705 29
2.806378 -11.919824 -0.079073 23
2.747850 -11.884577 -0.074345 25
2.665554 -11.798675 -0.064844 66
2.629458 -11.818560 -0.065230 35
2.593279 -11.838325 -0.065616 30
2.511004 -11.743290 -0.055428 30
2.479662 -11.773688 -0.056835 33
2.490333 -11.911628 -0.068135 34
2.509929 -12.062975 -0.080794 24
2.495244 -12.137770 -0.086294 28
2.370495 -11.938793 -0.066554 41
2.322500 -11.923589 -0.063864 36
2.335351 -12.068463 -0.075843 30
2.294813 -12.084280 -0.075885 33
2.242357 -12.057542 -0.072171 8
2.606175 -13.130205 -0.169098 12
2.215708 -12.221173 -0.084530 33
2.115907 -12.186042 -0.078804 18
2.085083 -12.222808 -0.080888 30
2.336674 -13.043036 -0.154287 13
2.439797 -13.471784 -0.191862 18
1.973493 -12.288220 -0.083045 17
1.947244 -12.339656 -0.086492 69
1.882342 -12.286225 -0.080386 8
1.523463 -11.355976 0.004902 5
1.503164 -11.409146 0.001119 8
1.448675 -11.372763 0.005524 7
1.411818 -11.376574 0.006179 8
1.369465 -11.369473 0.007857 8
1.331450 -11.369210 0.008855 9
1.290460 -11.365586 0.010192 12
1.251925 -11.369406 0.010848 14
1.214585 -11.376889 0.011163 12
1.173088 -11.377172 0.012160 13
1.134094 -11.372381 0.013502 14
1.093359 -11.367986 0.014842 14
1.048633 -11.356320 0.016866 15
1.014328 -11.366374 0.016843 19
0.973776 -11.361514 0.018186 17
0.932206 -11.352663 0.019870 17
0.892884 -11.351324 0.020873 18
0.854669 -11.353678 0.021534 14
0.818276 -11.355398 0.022197 13
0.782169 -11.365174 0.022177 14
0.741158 -11.363747 0.023180 17
0.702000 -11.361686 0.024186 16
0.663884 -11.363338 0.024850 18
0.626614 -11.360527 0.025857 17
0.590490 -11.369635 0.025839 17
0.550619 -11.371322 0.026504 17
0.513445 -11.368107 0.027513 17
0.475441 -11.369066 0.028180 17
0.438375 -11.373767 0.028506 17
0.399506 -11.370569 0.029516 18
0.363349 -11.378883 0.029501 15
0.324605 -11.367223 0.031196 16
0.288546 -11.367093 0.031866 16
0.251555 -11.371126 0.032195 17
0.217063 -11.386719 0.031499 23
0.175932 -11.370996 0.033537 22
0.137356 -11.366820 0.034550 23
0.097250 -11.354691 0.036247 18
0.061150 -11.361950 0.036237 19
0.023494 -11.361260 0.036910 20
-0.013380 -11.364348 0.037242 24
-0.050251 -11.367306 0.037575 28
-0.086036 -11.365878 0.038251 27
-0.122885 -11.368576 0.038585 30
-0.159032 -11.375067 0.038578 29
-0.195886 -11.377505 0.038912 26
-0.234744 -11.368027 0.040273 30
-0.270889 -11.374127 0.040267 27
-0.307697 -11.376168 0.040604 26
-0.346935 -11.374432 0.041282 31
-0.383101 -11.380140 0.041278 30
-0.418680 -11.377567 0.041958 27
-0.454269 -11.386968 0.041613 25
-0.491626 -11.384414 0.042294 26
-0.527826 -11.389618 0.042292 26
-0.565137 -11.386799 0.042974 23
-0.602410 -11.383847 0.043656 23
-0.636797 -11.388426 0.043656 21
-0.674022 -11.385217 0.044339 21
-0.710223 -11.389784 0.044340 23
-0.748252 -11.394443 0.044341 21
-0.785876 -11.386876 0.045368 20
-0.820272 -11.390846 0.045370 19
-0.856929 -11.390942 0.045714 21
-0.893150 -11.394870 0.045717 18
-0.929793 -11.394708 0.046062 18
-0.967606 -11.382519 0.047433 18
-1.003416 -11.390028 0.047096 25
-1.039999 -11.389477 0.047443 21
-1.076567 -11.388797 0.047790 20
-1.112100 -11.399899 0.047113 19
-1.148350 -11.402938 0.047120 18
-1.185234 -11.397902 0.047811 19
-1.221477 -11.400685 0.047818 17
-1.257445 -11.407316 0.047485 15
-1.293991 -11.405870 0.047836 14
-1.328447 -11.408155 0.047844 17
-1.365454 -11.398504 0.048879 16
-1.401469 -11.404636 0.048548 15
-1.437518 -11.410644 0.048217 17
-1.473603 -11.416526 0.047887 16
-1.510096 -11.414320 0.048240 16
-1.544754 -11.411908 0.048594 18
-1.578906 -11.421326 0.047923 18
-1.617191 -11.418818 0.048278 15
-1.655452 -11.416170 0.048634 16
-1.689941 -11.417257 0.048648 14
-1.724433 -11.418230 0.048662 13
-1.760651 -11.423114 0.048336 12
-1.796979 -11.423888 0.048352 13
-1.835125 -11.424563 0.048369 11
-1.869640 -11.425055 0.048385 15
-1.905974 -11.425448 0.048403 16
-1.944104 -11.429709 0.048080 15
-1.978627 -11.433825 0.047756 17
-2.014996 -11.437823 0.047434 20
-2.053131 -11.425744 0.048479 20
-2.089500 -11.429482 0.048157 18
-2.124078 -11.433114 0.047835 17
-2.160499 -11.436604 0.047515 17
-2.196796 -11.431997 0.047878 17
-2.234789 -11.423240 0.048584 17
-2.269505 -11.430373 0.047923 16
-2.304269 -11.437391 0.047262 19
-2.340513 -11.432284 0.047627 17
-2.378976 -11.438933 0.046969 16
-2.415355 -11.437549 0.046994 16
-2.450082 -11.440097 0.046676 16
-2.486650 -11.442445 0.046360 17
-2.525060 -11.444573 0.046047 18
-2.563493 -11.446561 0.045733 20
-2.597849 -11.440658 0.046100 21
-2.632896 -11.446575 0.045444 20
-2.669300 -11.444304 0.045472 20
-2.708325 -11.453712 0.044479 22
-2.742933 -11.451306 0.044506 24
-2.777532 -11.448787 0.044535 27
-2.814253 -11.449985 0.044224 26
-2.853137 -11.454876 0.043573 27
-2.887409 -11.448020 0.043944 22
-2.925990 -11.448669 0.043636 21
-2.962399 -11.445374 0.043669 23
-2.998797 -11.441954 0.043701 23
-3.034544 -11.450483 0.042710 22
-3.071366 -11.450775 0.042402 23
-3.107782 -11.446974 0.042437 21
-3.144184 -11.443045 0.042471 22
-3.181470 -11.446909 0.041824 20
-3.216976 -11.450852 0.041176 19
-3.253391 -11.446543 0.041213 21
-3.290770 -11.450016 0.040567 22
-3.326679 -11.441495 0.040946 21
-3.364612 -11.448658 0.039961 20
-3.403371 -11.447537 0.039660 19
-3.440864 -11.450473 0.039017 20
-3.475456 -11.445639 0.039054 21
-3.513671 -11.440163 0.039096 20
-3.549987 -11.446914 0.038112 20
-3.586387 -11.441442 0.038153 21
-3.623994 -11.443718 0.037513 20
-3.661637 -11.445859 0.036873 20
-3.698673 -11.443931 0.036574 22
-3.735716 -11.441871 0.036277 23
-3.774103 -11.447537 0.035298 24
-3.811185 -11.445210 0.035001 22
-3.847149 -11.446996 0.034362 24
-3.883144 -11.448659 0.033723 25
-3.922812 -11.449528 0.033089 25
-3.958870 -11.450930 0.032452 27
-3.998601 -11.451510 0.031819 28
-4.036541 -11.452295 0.031185 26
-4.072957 -11.445125 0.031233 26
-4.110138 -11.441732 0.030940 24
-4.148930 -11.446015 0.029967 22
-4.184321 -11.442734 0.029673 22
-4.222365 -11.442843 0.029042 22
-4.260565 -11.434629 0.029095 23
-4.298635 -11.434461 0.028465 22
-4.335860 -11.430264 0.028175 24
-4.372151 -11.430234 0.027544 24
-4.412062 -11.445610 0.025550 22
-4.449358 -11.432821 0.025946 21
-4.489373 -11.431528 0.025322 21
-4.527594 -11.430523 0.024695 21
-4.566792 -11.433248 0.023728 19
-4.604105 -11.428092 0.023443 16
-4.642539 -11.434854 0.022134 20
-4.680052 -11.437614 0.021166 20
-4.721251 -11.439292 0.020204 21
-4.759879 -11.445623 0.018897 22
-4.799119 -11.439288 0.018618 21
-4.836533 -11.433301 0.018336 17
-4.876362 -11.443048 0.016691 22
-4.915632 -11.436276 0.016413 24
-4.956337 -11.441374 0.015112 17
-4.994912 -11.438653 0.014492 21
-5.034617 -11.439617 0.013533 20
-5.070983 -11.428963 0.013594 18
-5.112338 -11.441636 0.011612 21
-5.152172 -11.442155 0.010655 19
-5.189713 -11.434901 0.010378 17
-5.229602 -11.435125 0.009422 18
-5.267144 -11.427592 0.009146 17
-5.306476 -11.431897 0.007848 15
-5.346472 -11.431677 0.006893 14
-5.385273 -11.427514 0.006279 14
-5.427824 -11.434565 0.004646 14
-5.469766 -11.433276 0.003697 14
-5.512473 -11.439986 0.002065 14
-5.551409 -11.435208 0.001453 14
-5.592954 -11.437820 0.000163 14
-5.633247 -11.436507 -0.000787 14
-5.675733 -11.446956 -0.002760 14
-5.714797 -11.441572 -0.003369 13
-5.753399 -11.440447 -0.004320 9
-5.792945 -11.430367 -0.004584 7
-5.832965 -11.432693 -0.005875 8
-5.876679 -11.433517 -0.007157 7
-5.917230 -11.431115 -0.008102 5
-5.960643 -11.436007 -0.009727 5
-6.002708 -11.437000 -0.011010 3
-6.043387 -11.434113 -0.011954 2
-6.091371 -11.449619 -0.014595 1
-6.125947 -11.435997 -0.014522 0
-6.174139 -11.451135 -0.017161 0
-6.218007 -11.454978 -0.018781 0
-6.242367 -11.410674 -0.015987 0
-6.820474 -12.594965 -0.127840 13
-7.304200 -12.394733 -0.127759 1
-7.022786 -11.597762 -0.056035 20
-7.030303 -11.523535 -0.050526 10
-7.098375 -11.472945 -0.048985 1
-7.777141 -12.760366 -0.172591 1
-7.524728 -11.682393 -0.080522 69
-8.074924 -12.649637 -0.174920 33
-7.567481 -11.588124 -0.074914 14
-7.606220 -11.572147 -0.075155 8
-7.626044 -11.516402 -0.071666 1
-8.452744 -12.963445 -0.213084 1
-8.482970 -12.919850 -0.210941 1
-7.975464 -11.298541 -0.068981 0
-9.442151 -13.608086 -0.300750 3
-9.257668 -12.464069 -0.208705 1
-9.297082 -12.268361 -0.196183 1
-8.954510 -11.578072 -0.131103 1
-9.048018 -11.559086 -0.133906 21
-9.080324 -11.527811 -0.133113 16
-9.987227 -11.947870 -0.204949 3
-10.005969 -11.889642 -0.201777 3
-10.982235 -13.130777 -0.335130 57
-10.957678 -13.009946 -0.325545 35
-10.637596 -12.497715 -0.274512 20
-10.140691 -11.759175 -0.199230 13
-10.149117 -11.692681 -0.195053 20
-11.073252 -12.817370 -0.317877 93
-6.872076 -7.309287 0.267685 5
-6.871942 -7.263961 0.270796 2
-6.669596 -6.961740 0.301520 2
-6.670527 -6.920403 0.304290 11
-6.646379 -6.847967 0.310427 12
-6.599322 -6.747802 0.319591 21
-6.581700 -6.685226 0.324715 35
-6.578802 -6.641387 0.327819 33
-6.568069 -6.588392 0.331932 29
-6.556058 -6.536336 0.336040 35
-6.556495 -6.499745 0.338465 37
-6.550013 -6.453250 0.341903 37
-6.549343 -6.412167 0.344671 24
-6.558759 -6.383309 0.346094 36
-6.554133 -6.340114 0.349194 20
-6.566554 -6.318944 0.349936 24
-6.568436 -6.285709 0.352024 19
-6.578929 -6.260727 0.353106 19
-6.602469 -6.250698 0.352507 30
-6.604847 -6.216702 0.354598 36
-6.607044 -6.182754 0.356688 36
-6.609060 -6.148854 0.358778 36
-6.610896 -6.115004 0.360868 35
-6.615236 -6.084149 0.362621 36
-6.624808 -6.059199 0.363703 37
-6.634262 -6.034245 0.364784 37
-6.632736 -5.997614 0.367208 38
-6.631011 -5.961057 0.369633 38
-6.637294 -5.933268 0.371049 38
-6.646186 -5.908384 0.372130 38
-6.654961 -5.883499 0.373211 39
-6.660853 -5.855742 0.374627 39
-6.661056 -5.822283 0.376715 39
-6.675012 -5.803134 0.377124 39
-6.682469 -5.779083 0.378201 40
-6.696255 -5.759879 0.378611 40
-6.707149 -5.737814 0.379356 40
-6.720771 -5.718544 0.379766 40
-6.734316 -5.699236 0.380176 40
-6.750628 -5.682683 0.380251 40
-6.769737 -5.668855 0.379991 40
-6.785944 -5.652178 0.380066 40
-6.804965 -5.638207 0.379807 40
-6.826831 -5.626912 0.379213 40
-6.851570 -5.618262 0.378284 40
-6.867599 -5.601300 0.378361 40
-6.889393 -5.589725 0.377768 40
-6.911165 -5.578054 0.377175 40
-6.935846 -5.568989 0.376248 40
-6.957584 -5.557115 0.375656 40
-6.982249 -5.547826 0.374730 37
-7.091946 -5.551052 0.367940 3
-7.116700 -5.541170 0.367016 1
-7.171409 -5.557458 0.362748 1
-7.184219 -5.536762 0.363163 1
-7.242164 -5.555150 0.358564 0
-7.257971 -5.536825 0.358645 1
-7.297185 -5.540063 0.356049 1
-7.362180 -5.531202 0.352539 8
-7.402375 -5.532902 0.349949 3
-7.443436 -5.533425 0.347365 4
-7.505325 -5.552401 0.342439 6
-7.551190 -5.559353 0.339181 0
-7.588671 -5.557537 0.336930 3
-7.598278 -5.532999 0.337684 4
-7.607781 -5.508449 0.338438 2
-7.639026 -5.501248 0.336856 1
-7.767297 -5.570423 0.324929 1
-7.742362 -5.518310 0.329356 0
-7.805193 -5.502475 0.326198 22
-7.833467 -5.491886 0.324954 20
-7.880769 -5.495637 0.321709 21
-7.915446 -5.489501 0.319799 21
-7.956530 -5.487962 0.317223 21
-7.994478 -5.483809 0.314981 22
-8.026058 -5.474706 0.313407 21
-8.076930 -5.479586 0.309834 21
-8.111799 -5.472431 0.307928 21
-8.156383 -5.472093 0.305024 22
-8.197800 -5.469174 0.302453 21
-8.239271 -5.466020 0.299884 21
-8.277542 -5.460328 0.297649 21
-8.319111 -5.456713 0.295081 20
-8.363226 -5.456253 0.292177 20
-8.405679 -5.451043 0.289617 19
-8.457263 -5.453476 0.286054 19
-8.498287 -5.450002 0.283486 19
-8.546734 -5.449632 0.280258 19
-8.582021 -5.440087 0.278362 18
-8.627272 -5.436982 0.275469 17
-8.679230 -5.438014 0.271912 45
-8.727943 -5.436548 0.268689 45
-8.776728 -5.434796 0.265467 43
-8.818886 -5.428429 0.262911 43
-8.867793 -5.426126 0.259691 41
-8.920129 -5.425676 0.256140 38
-8.979285 -5.429172 0.251926 40
-9.028417 -5.425956 0.248710 38
-9.074226 -5.420346 0.245827 38
-9.123474 -5.416563 0.242614 36
-9.182980 -5.418735 0.238405 33
-9.242587 -5.420545 0.234198 37
-9.295466 -5.417875 0.230656 31
-9.344994 -5.412845 0.227448 30
-9.404859 -5.413624 0.223245 33
-9.457948 -5.409994 0.219707 42
-9.504217 -5.402026 0.216835 44
-9.550522 -5.393789 0.213963 42
-9.607228 -5.391240 0.210097 41
-9.664008 -5.388348 0.206233 40
-9.717391 -5.383151 0.202702 41
-9.774306 -5.379584 0.198840 39
-9.824324 -5.371798 0.195643 39
-9.874381 -5.363715 0.192447 34
-9.960595 -5.339055 0.187384 1
-10.014248 -5.332018 0.183860 2
-10.103118 -5.343425 0.177026 0
-10.171023 -5.343078 0.172181 1
-10.278828 -5.326402 0.165145 7
-10.368220 -5.335850 0.158319 2
-10.493271 -5.362875 0.148186 3
-10.494167 -5.325993 0.149637 2
-10.526967 -5.305268 0.148110 3
-10.538316 -5.273702 0.148568 1
-13.822520 -6.860999 -0.153881 1
-13.845419 -6.823518 -0.154044 1
-13.851276 -6.775171 -0.152545 1
-13.857938 -6.724785 -0.151037 1
-13.870597 -6.679930 -0.150199 1
-13.874900 -6.633721 -0.148710 1
-13.898047 -6.593930 -0.148863 1
-13.899368 -6.543973 -0.147035 1
-13.900485 -6.494076 -0.145207 1
-13.931368 -6.455382 -0.146012 1
-13.943016 -6.410423 -0.145174 1
-13.942646 -6.362652 -0.143355 1
-13.969453 -6.322075 -0.143829 1
-13.965083 -6.272742 -0.141681 1
-13.990672 -6.234126 -0.142163 1
-13.975863 -6.178049 -0.139017 1
-13.980037 -6.127869 -0.137511 1
-13.979445 -6.078269 -0.135685 1
-13.938199 -6.011818 -0.130233 1
-13.926101 -5.957919 -0.127419 1
-13.917460 -5.905676 -0.124936 1
-13.889289 -5.848133 -0.120814 1
-13.873630 -5.791149 -0.117664 1
-13.879114 -5.745255 -0.116501 1
-13.868770 -5.695611 -0.114028 1
-13.862748 -5.645466 -0.111878 1
-13.860241 -5.596856 -0.110056 2
-13.853024 -5.548965 -0.107915 2
-13.865829 -5.504085 -0.107403 2
-13.863529 -5.453588 -0.105574 2
-13.867731 -5.408005 -0.104413 2
-13.864270 -5.359707 -0.102593 2
-13.841875 -5.304706 -0.099129 14
-13.867291 -5.269447 -0.099951 23
-13.875286 -5.223264 -0.099111 25
-13.885410 -5.182546 -0.098616 20
-13.899882 -5.141035 -0.098442 5
-13.917064 -5.054028 -0.097107 1
-13.926609 -5.013224 -0.096613 1
-13.929135 -4.967813 -0.095453 1
-13.947330 -4.925304 -0.095598 2
-13.942609 -4.875368 -0.093773 2
-13.956009 -4.833659 -0.093599 1
-13.988274 -4.797895 -0.095066 2
-14.000749 -4.758121 -0.094899 1
-14.024523 -4.721826 -0.095718 1
-14.030396 -4.675414 -0.094877 1
-14.043097 -4.633399 -0.094702 1
-14.077960 -4.600244 -0.096503 1
-14.086572 -4.556944 -0.096000 1
-14.102689 -4.515841 -0.096152 1
-14.103332 -4.470297 -0.094992 1
-14.100560 -4.421600 -0.093496 1
-14.108533 -4.378277 -0.092993 1
-14.104236 -4.333897 -0.091515 1
-14.092652 -4.285391 -0.089374 1
-14.081439 -4.234899 -0.087224 1
-14.092602 -4.192709 -0.087049 1
-14.080460 -4.144492 -0.084909 1
-14.086905 -4.103431 -0.084415 1
-14.089876 -4.059279 -0.083585 1
-14.073861 -4.008245 -0.081111 1
-14.099726 -3.969861 -0.082245 1
-14.090581 -3.922955 -0.080434 1
-14.092896 -3.878901 -0.079605 1
-14.102815 -3.836674 -0.079430 1
-14.093158 -3.789962 -0.077621 1
-14.102767 -3.747734 -0.077446 1
-14.107867 -3.706723 -0.076953 1
-14.112829 -3.665709 -0.076461 1
-14.122459 -3.621298 -0.076277 1
-14.154885 -3.583906 -0.078063 1
-14.132106 -3.537108 -0.075283 1
-14.133019 -3.493153 -0.074456 1
-14.145927 -3.449451 -0.074599 1
-14.138700 -3.403968 -0.073118 1
-14.139132 -3.360074 -0.072291 2
-14.150756 -3.320550 -0.072452 2
-14.154807 -3.277396 -0.071951 2
-14.151247 -3.230693 -0.070789 1
-14.154979 -3.187566 -0.070288 2
-14.138923 -3.141009 -0.068157 1
-14.150559 -3.097178 -0.068300 1
-14.161325 -3.057534 -0.068461 1
-14.164444 -3.014428 -0.067961 1
-14.171004 -2.974081 -0.067796 1
-14.165950 -2.929731 -0.066644 1
-14.184378 -2.889068 -0.067447 1
-14.186899 -2.845937 -0.066947 1
-14.177745 -2.798955 -0.065462 1
-14.167804 -2.756311 -0.063994 1
-14.154061 -2.711082 -0.062192 1
-14.155953 -2.668113 -0.061693 1
-14.161646 -2.625673 -0.061520 1
-14.163237 -2.582705 -0.061021 1
-14.160719 -2.539252 -0.060197 1
-14.177835 -2.498237 -0.061000 1
-14.163138 -2.453389 -0.059200 1
-14.160160 -2.410019 -0.058377 1
-14.157027 -2.366688 -0.057554 1
-14.149776 -2.322971 -0.056405 1
-14.142367 -2.279320 -0.055258 1
-14.138769 -2.236135 -0.054435 1
-14.142748 -2.195877 -0.054272 1
-14.126945 -2.151634 -0.052475 1
-14.119113 -2.106113 -0.051320 1
-14.114717 -2.065236 -0.050507 1
-14.106562 -2.019844 -0.049353 1
-14.093926 -1.978434 -0.047891 1
-14.097373 -1.934103 -0.047712 1
-14.120386 -1.893304 -0.049163 1
-14.091409 -1.850922 -0.046405 1
-14.102206 -1.809231 -0.046882 1
-14.104901 -1.766984 -0.046711 1
-14.107449 -1.724728 -0.046540 1
-14.109849 -1.682463 -0.046370 1
-14.092194 -1.639170 -0.044578 1
-14.066419 -1.595629 -0.042138 1
-14.048453 -1.552628 -0.040348 1
-14.042286 -1.510245 -0.039530 1
-14.031985 -1.467764 -0.038388 1
-14.025519 -1.425495 -0.037571 1
-14.018905 -1.383277 -0.036754 1
-14.004171 -1.340897 -0.035290 1
-14.001246 -1.298902 -0.034797 1
-13.982230 -1.256617 -0.033010 1
-13.982997 -1.214792 -0.032842 1
-13.975644 -1.172862 -0.032027 1
-13.984072 -1.133226 -0.032514 1
-13.988395 -1.091419 -0.032669 1
-13.968650 -1.049524 -0.030884 1
10.297944 0.018369 0.074695 1
10.313413 -0.023601 0.073681 1
10.316804 -0.066590 0.073507 1
10.335962 -0.108415 0.072213 1
10.331096 -0.152042 0.072598 1
10.361907 -0.193228 0.070464 1
10.364706 -0.236386 0.070289 1
10.415151 -0.276691 0.066752 1
10.409689 -0.320483 0.067138 1
10.423768 -0.358837 0.066139 1
10.441929 -0.401417 0.064843 1
10.447987 -0.444668 0.064387 1
10.449906 -0.488125 0.064211 1
10.467538 -0.528786 0.062923 1
10.485192 -0.573916 0.061616 1
10.462802 -0.620448 0.063115 1
10.472024 -0.661550 0.062387 1
10.461274 -0.707566 0.063045 1
10.458241 -0.748979 0.063160 1
10.479046 -0.792105 0.061581 1
10.467784 -0.835845 0.062248 1
10.488264 -0.876963 0.060677 1
10.488674 -0.920557 0.060502 1
10.492924 -0.964135 0.060046 1
10.505000 -1.007733 0.059027 1
10.508945 -1.051395 0.058571 1
10.512736 -1.095084 0.058115 1
10.508374 -1.140908 0.058212 1
10.531832 -1.182698 0.056358 1
10.543143 -1.226640 0.055338 1
10.574247 -1.271061 0.052911 2
10.545411 -1.312109 0.054715 9
10.552220 -1.358304 0.053968 10
10.546963 -1.401997 0.054074 10
10.541627 -1.443469 0.054190 2
10.563984 -1.488137 0.052324 1
10.550301 -1.531505 0.052995 1
10.552413 -1.575488 0.052538 1
10.550385 -1.619302 0.052363 1
10.524295 -1.661883 0.053880 1
10.533917 -1.706253 0.052860 1
10.539400 -1.750466 0.052121 1
10.556809 -1.793271 0.050545 1
10.522168 -1.835026 0.052628 1
10.531177 -1.879552 0.051607 1
10.551966 -1.925012 0.049740 1
10.560654 -1.969724 0.048719 1
10.565205 -2.014194 0.047980 1
10.601410 -2.061336 0.044981 1
10.602040 -2.101262 0.044542 1
10.629971 -2.148085 0.042107 1
10.629916 -2.192535 0.041649 1
10.641621 -2.238147 0.040344 1
10.625368 -2.281079 0.041017 1
10.652627 -2.328426 0.038581 1
10.628133 -2.370464 0.039820 1
10.635227 -2.415852 0.038797 1
10.646375 -2.459550 0.037500 1
10.617483 -2.500896 0.039023 1
10.612225 -2.544932 0.038849 1
10.634528 -2.592398 0.036694 1
10.644780 -2.638519 0.035387 1
10.646953 -2.683689 0.034646 1
10.633148 -2.726758 0.035039 1
10.627100 -2.770847 0.034865 1
10.616949 -2.814353 0.034975 1
10.626389 -2.860687 0.033668 1
10.627767 -2.905930 0.032927 1
10.644758 -2.953618 0.031053 1
10.622151 -2.995278 0.032013 1
10.623400 -3.038385 0.031282 1
10.643827 -3.086943 0.029123 1
10.628653 -3.129752 0.029517 1
10.621199 -3.173823 0.029344 1
10.625382 -3.219922 0.028320 1
10.645112 -3.268871 0.026160 1
10.641098 -3.313711 0.025703 1
10.636925 -3.358550 0.025246 1
10.624751 -3.401908 0.025357 1
10.612429 -3.445210 0.025469 1
10.615621 -3.491524 0.024444 1
10.630820 -3.538027 0.022575 1
10.625851 -3.582896 0.022119 1
10.640259 -3.631798 0.020241 1
10.646670 -3.679190 0.018931 1
10.629495 -3.721651 0.019328 1
10.639468 -3.769963 0.017733 1
10.633675 -3.814929 0.017277 1
10.643292 -3.863390 0.015682 1
10.633277 -3.907507 0.015510 1
10.661972 -3.960615 0.012492 1
10.639968 -4.002048 0.013174 1
10.657158 -4.050452 0.011018 1
10.638736 -4.092732 0.011416 1
10.647288 -4.141612 0.009820 1
10.655653 -4.190590 0.008224 1
10.648362 -4.235731 0.007767 1
10.637048 -4.279864 0.007596 1
10.637157 -4.326987 0.006570 1
10.637094 -4.374151 0.005543 1
10.625295 -4.418243 0.005373 1
10.609494 -4.461244 0.005487 1
10.593547 -4.504176 0.005602 1
10.577454 -4.547039 0.005718 1
10.565676 -4.588729 0.005556 1
10.564631 -4.635881 0.004531 1
10.543620 -4.679675 0.004924 1
10.558187 -4.729163 0.002764 1
10.548973 -4.774122 0.002310 1
10.551053 -4.822532 0.000998 1
10.556762 -4.872172 -0.000599 1
10.550846 -4.918348 -0.001340 1
10.559985 -4.969317 -0.003223 1
10.511893 -5.002246 -0.000819 1
10.506202 -5.046162 -0.001550 1
10.517900 -5.100630 -0.003728 1
10.511146 -5.146801 -0.004468 1
10.517032 -5.192396 -0.006049 1
10.525062 -5.243713 -0.007934 1
10.524587 -5.294748 -0.009254 1
10.539746 -5.348857 -0.011712 1
10.536611 -5.394361 -0.012730 1
10.509965 -5.434114 -0.012038 1
10.510278 -5.480936 -0.013343 1
10.505089 -5.530821 -0.014377 1
10.519239 -5.585382 -0.016836 1
10.522738 -5.633770 -0.018427 1
10.531899 -5.689389 -0.020608 1
10.545381 -5.744355 -0.023068 1
10.551172 -5.796634 -0.024955 1
10.564199 -5.851874 -0.027416 1
10.591869 -5.913044 -0.031025 1
10.608987 -5.967892 -0.033765 1
10.625005 -6.025110 -0.036514 1
10.640777 -6.082500 -0.039264 1
10.656301 -6.140061 -0.042015 1
10.645725 -6.187228 -0.042757 1
10.646037 -6.238950 -0.044359 1
10.636014 -6.283927 -0.045093 1
10.646969 -6.340381 -0.047557 1
10.642995 -6.390736 -0.048874 1
10.632436 -6.435777 -0.049607 1
10.638115 -6.493141 -0.051793 1
10.640852 -6.546814 -0.053684 1
10.625119 -6.592517 -0.054139 1
10.613847 -6.637601 -0.054872 1
10.622267 -6.696888 -0.057346 1
10.616891 -6.747512 -0.058663 1
10.607689 -6.796505 -0.059692 1
10.641753 -6.865597 -0.064172 1
10.633133 -6.912548 -0.065194 1
10.654750 -6.979209 -0.068821 1
10.641064 -7.026772 -0.069563 1
10.635453 -7.075557 -0.070872 1
10.642959 -7.133522 -0.073340 1
10.635870 -7.184615 -0.074658 1
10.661882 -7.249381 -0.078559 1
10.643620 -7.295316 -0.079013 1
10.639462 -7.348344 -0.080619 1
10.645769 -7.406816 -0.083089 1
10.644713 -7.461787 -0.084983 1
10.648110 -7.516444 -0.087158 1
10.660768 -7.578907 -0.090205 1
10.641317 -7.624911 -0.090659 1
10.653466 -7.687597 -0.093707 1
10.667678 -7.754532 -0.097052 1
10.696820 -7.826987 -0.101544 1
10.730323 -7.899402 -0.106317 1
10.727236 -7.955253 -0.108213 1
10.751887 -8.026535 -0.112419 1
10.748277 -8.082606 -0.114316 1
10.759605 -8.144293 -0.117360 1
10.765934 -8.206405 -0.120124 1
10.761575 -8.262739 -0.122022 1
10.756977 -8.319130 -0.123920 1
10.740883 -8.363157 -0.124647 1
10.748361 -8.429855 -0.127708 1
10.736172 -8.482379 -0.129029 1
10.727206 -8.536938 -0.130638 1
10.736480 -8.599504 -0.133685 1
10.749649 -8.670771 -0.137326 1
10.760401 -8.737943 -0.140671 1
10.712929 -8.769979 -0.139100 1
10.723175 -8.837283 -0.142445 2
10.733106 -8.904754 -0.145790 3
10.732566 -8.966051 -0.148268 3
10.736529 -9.027343 -0.151028 3
10.730667 -9.088923 -0.153225 3
10.736031 -9.154789 -0.156283 3
10.764086 -9.229290 -0.161061 1
10.794150 -9.315086 -0.166444 3
10.785141 -9.372789 -0.168345 1
6.417289 -6.561210 0.208524 2
6.361314 -6.566301 0.211602 5
6.342867 -6.593999 0.211500 1
6.223098 -6.557687 0.220080 0
6.177297 -6.568439 0.222293 0
6.172994 -6.603103 0.221040 0
6.179737 -6.649694 0.218617 1
6.061672 -6.610015 0.227209 1
5.986503 -6.599282 0.232035 0
5.911507 -6.588093 0.236862 0
5.865977 -6.597217 0.239082 2
5.823727 -6.608409 0.241012 2
5.791209 -6.626365 0.242073 11
5.675651 -6.581945 0.250683 3
5.611068 -6.575776 0.254648 1
5.588405 -6.599947 0.254842 0
5.472698 -6.555165 0.263453 0
5.437334 -6.569288 0.264810 0
5.386017 -6.571247 0.267619 0
5.344321 -6.580140 0.269558 0
5.264585 -6.559781 0.274983 0
5.124331 -6.571795 0.282263 0
5.076655 -6.574462 0.284789 0
5.038436 -6.584287 0.286444 0
4.954389 -6.555424 0.292463 0
4.922565 -6.569685 0.293539 0
4.885489 -6.577577 0.295201 0
4.825796 -6.568865 0.298894 0
4.763161 -6.557276 0.302880 0
4.716081 -6.558009 0.305413 0
4.677317 -6.567293 0.307070 0
4.642605 -6.577768 0.308441 0
4.585433 -6.565205 0.312149 0
4.535602 -6.562357 0.314977 0
4.501039 -6.572184 0.316351 0
4.454389 -6.571431 0.318889 0
4.413855 -6.575644 0.320847 0
4.358338 -6.566530 0.324261 0
4.353916 -6.601857 0.322726 0
4.280602 -6.576422 0.327889 0
4.240309 -6.579736 0.329850 0
4.197101 -6.580172 0.332103 0
4.181581 -6.603366 0.331739 0
4.135485 -6.600752 0.334285 0
4.080657 -6.589800 0.337706 0
4.049440 -6.600173 0.338797 0
4.003611 -6.596821 0.341346 0
3.960792 -6.595942 0.343604 0
3.926764 -6.603039 0.344988 0
3.895655 -6.612711 0.346082 0
3.844357 -6.602946 0.349217 0
3.793200 -6.592891 0.352354 0
3.779434 -6.618631 0.351700 0
3.734147 -6.613700 0.354254 0
3.684248 -6.601939 0.357397 0
3.659048 -6.616138 0.357911 0
3.614030 -6.610523 0.360469 0
3.586022 -6.621612 0.361276 0
3.541163 -6.615566 0.363835 0
3.499212 -6.612120 0.366103 0
3.460140 -6.611303 0.368080 0
3.418364 -6.607419 0.370349 0
3.393285 -6.620552 0.370868 0
3.398509 -6.665294 0.368174 1
3.376015 -6.681211 0.368401 1
3.271368 -6.609970 0.377392 0
3.229223 -6.600305 0.379964 0
3.211445 -6.622355 0.379606 0
3.210798 -6.661026 0.377498 0
3.219027 -6.707670 0.374516 0
3.202262 -6.771499 0.371757 0
3.105833 -6.702664 0.380176 0
3.135414 -6.777907 0.374557 0
2.943356 -6.601679 0.393502 0
2.955448 -6.654850 0.389933 0
2.878013 -6.606008 0.396309 0
2.985932 -6.765933 0.382217 0
2.908549 -6.716815 0.388593 0
2.736918 -6.595891 0.403399 0
2.725135 -6.621541 0.402465 0
2.714809 -6.651057 0.401236 0
2.704330 -6.680573 0.400007 0
2.623598 -6.623114 0.406976 0
2.599927 -6.632246 0.407510 1
2.572747 -6.638987 0.408334 2
2.538055 -6.636297 0.410037 1
2.509411 -6.638871 0.411158 1
2.479819 -6.642099 0.412277 1
2.450259 -6.645189 0.413396 1
2.430589 -6.660689 0.413344 1
2.398599 -6.660393 0.414757 1
2.372536 -6.665487 0.415588 2
2.343069 -6.668067 0.416709 2
2.320899 -6.680022 0.416951 3
2.293879 -6.685534 0.417780 3
2.269273 -6.694113 0.418317 3
2.251821 -6.712178 0.417975 2
2.231918 -6.726985 0.417926 1
2.207234 -6.735299 0.418463 1
2.182544 -6.743509 0.419001 2
2.155505 -6.748387 0.419833 3
2.131816 -6.755663 0.420374 5
2.102481 -6.757072 0.421500 6
2.082423 -6.771358 0.421453 12
2.060017 -6.782313 0.421700 18
2.035298 -6.789913 0.422240 24
2.019676 -6.810518 0.421608 30
1.992641 -6.814660 0.422442 26
1.961123 -6.812099 0.423864 11
1.928441 -6.805401 0.425582 3
1.923822 -6.842236 0.423484 1
1.930082 -6.895689 0.419918 0
1.918366 -6.922667 0.418699 0
1.908704 -6.952965 0.417188 0
1.906470 -6.992603 0.414797 0
1.910602 -7.047040 0.411228 0
1.889533 -7.060655 0.411185 0
1.874860 -7.084280 0.410261 0
1.883567 -7.144937 0.406106 0
1.883400 -7.192221 0.403126 0
1.887175 -7.246346 0.399559 0
1.869612 -7.266661 0.398928 0
1.877020 -7.327711 0.394773 0
1.871588 -7.368453 0.392380 0
1.874178 -7.422886 0.388812 0
1.879616 -7.480158 0.384952 0
1.871327 -7.517651 0.382852 0
1.875003 -7.575769 0.378990 0
1.878320 -7.633992 0.375127 0
1.869243 -7.671628 0.373027 0
1.877072 -7.736247 0.368578 0
1.884129 -7.805807 0.363831 0
1.872228 -7.840139 0.362025 0
1.879709 -7.909229 0.357279 0
1.889915 -7.981258 0.352241 0
1.917796 -8.089002 0.344261 0
3.598201 -11.289500 0.077734 12
3.552822 -11.291434 0.079145 11
3.509383 -11.296693 0.080262 12
3.464103 -11.298251 0.081675 9
3.418812 -11.295144 0.083385 9
3.364415 -11.278648 0.086270 11
3.326725 -11.293771 0.086508 9
3.281700 -11.294564 0.087924 9
3.240340 -11.297808 0.089049 9
3.134262 -11.181648 0.100174 12
3.027287 -11.056840 0.111892 12
2.962021 -11.009150 0.117140 20
3.006410 -11.187458 0.103845 10
2.953380 -11.169024 0.106737 8
2.976975 -11.308349 0.096678 6
2.935919 -11.310410 0.097807 5
2.910233 -11.349195 0.095991 8
3.123848 -11.901263 0.052367 11
2.932478 -11.585648 0.079405 9
2.987671 -11.801930 0.063161 15
3.021216 -11.979712 0.050152 60
2.930644 -11.871952 0.060119 12
2.864635 -11.831746 0.064780 18
2.838222 -11.874167 0.062670 22
2.816699 -11.922994 0.059974 25
2.769003 -11.917815 0.061694 24
2.711884 -11.890476 0.065182 31
2.707285 -11.979349 0.059247 20
2.673674 -12.006728 0.058318 23
2.681744 -12.133264 0.049435 22
2.614869 -12.087758 0.054396 34
2.586433 -12.134100 0.051992 39
2.527983 -12.102036 0.055779 25
2.480721 -12.091108 0.057801 29
2.435652 -12.096349 0.058641 23
2.402829 -12.126599 0.057420 31
2.409696 -12.252537 0.048540 23
2.379116 -12.290173 0.046731 19
2.299647 -12.201138 0.054943 18
2.327262 -12.391310 0.041051 13
2.356230 -12.576556 0.027457 100
2.318639 -12.599168 0.026827 63
2.258848 -12.561779 0.030915 33
2.221973 -12.592303 0.029696 37
2.191018 -12.633237 0.027595 36
2.156498 -12.658343 0.026675 31
2.120440 -12.692308 0.025162 20
2.090176 -12.736753 0.022767 20
2.048683 -12.742712 0.023323 20
1.976788 -12.666172 0.030365 32
1.858270 -12.449430 0.048318 42
1.887785 -12.670950 0.032066 33
1.890811 -12.817045 0.021712 39
1.745285 -12.503728 0.047043 22
1.737400 -12.623696 0.038752 19
1.759766 -12.834339 0.023386 40
1.732847 -12.893058 0.019816 48
1.681902 -12.875541 0.022145 34
1.650749 -12.914381 0.020052 41
1.605960 -12.923865 0.020317 30
1.097505 -11.502071 0.131763 9
1.058652 -11.505162 0.132329 23
1.020919 -11.511943 0.132601 15
0.979904 -11.507076 0.133758 6
1.348197 -12.961626 0.022811 9
1.314988 -13.004001 0.020426 41
1.263643 -12.964333 0.024240 29
1.199081 -12.890916 0.030707 14
1.164784 -12.928999 0.028619 13
1.134303 -12.982423 0.025351 21
1.144390 -13.194135 0.009986 11
1.152051 -13.402194 -0.005083 3
1.019503 -13.057155 0.022042 20
0.966927 -13.025024 0.025268 41
0.930652 -13.058565 0.023478 25
0.892319 -13.084240 0.022279 12
0.846782 -13.070473 0.024032 15
0.839024 -13.227983 0.012801 41
0.807950 -13.288372 0.008947 13
0.767725 -13.309775 0.008045 15
0.728247 -13.334942 0.006849 14
0.637675 -13.126123 0.023360 16
0.561128 -12.975334 0.035446 16
0.504139 -12.922184 0.040153 13
0.225654 -11.794457 0.126023 15
0.388870 -12.770864 0.052819 19
0.318926 -12.634392 0.063728 8
0.059133 -11.721914 0.133656 1
0.233401 -12.850116 0.049234 4
0.128889 -12.516591 0.074903 2
0.061756 -12.593655 0.070165 12
-0.125954 -11.768017 0.132731 4
-0.003009 -12.714284 0.062180 38
-0.063586 -12.603150 0.071029 54
-0.107822 -12.574080 0.073680 34
-0.205218 -12.480602 0.081640 5
-0.233780 -12.561719 0.076028 34
-0.290601 -12.457348 0.084290 10
-0.446297 -11.669838 0.143617 1
-0.462695 -11.821321 0.132693 15
0.181109 -16.738007 -0.234213 1
0.000999 -16.218935 -0.194366 4
-0.658811 -11.489587 0.158961 0
-0.656390 -12.457868 0.087827 2
-0.693434 -12.470188 0.087239 6
-0.749643 -12.327979 0.098164 11
-0.787012 -12.352108 0.096691 12
-0.837265 -12.253109 0.104370 1
-0.881654 -12.205501 0.108211 2
-0.985060 -11.542265 0.157805 6
-1.021437 -11.549717 0.157515 17
-1.059218 -11.521120 0.159882 15
-1.097383 -11.528474 0.159593 9
-0.525906 -18.914305 -0.388510 12
-0.589023 -18.911390 -0.387908 4
-0.484154 -21.043814 -0.545803 2
-0.773524 -18.009226 -0.320292 1
-0.863337 -18.507198 -0.356564 1
-0.997260 -18.311609 -0.341479 3
-1.058728 -18.295090 -0.339985 1
-1.109106 -18.433571 -0.350002 1
-1.451853 -12.563410 0.085030 1
-1.533607 -12.539057 0.087124 4
-1.365729 -18.085550 -0.323358 5
-1.426394 -18.055767 -0.320974 1
-2.085775 -18.436220 -0.348106 1
-2.142523 -17.953152 -0.312374 1
-2.253121 -12.505841 0.090424 2
-2.289601 -12.441135 0.095167 1
-2.412362 -12.469301 0.092886 1
-2.496419 -12.561797 0.085862 11
-2.580353 -12.665726 0.077955 2
-2.623137 -12.703465 0.075036 17
-2.662344 -12.673342 0.077131 11
-2.741927 -12.640570 0.079257 1
-2.780736 -12.642027 0.078992 1
-2.897487 -12.569585 0.083809 7
-2.917494 -12.291878 0.104187 0
-2.963259 -12.364129 0.098619 1
-2.970864 -11.578547 0.156466 17
-3.007345 -11.571124 0.156794 15
-3.043516 -11.579637 0.155942 14
-3.160393 -12.357705 0.097911 14
-3.245613 -12.404847 0.093860 1
-3.291856 -12.110589 0.115156 0
-3.329146 -12.094131 0.116079 0
-3.428956 -12.584303 0.079285 2
-3.466805 -12.575545 0.079619 17
-3.386366 -11.644746 0.148606 12
-3.422926 -11.635889 0.148939 13
-3.883463 -12.878680 0.053507 1
-3.913484 -12.789013 0.059743 1
-3.972875 -12.892448 0.051546 2
-3.996959 -12.783237 0.059251 1
-4.151340 -12.958719 0.044676 20
-4.280050 -13.162188 0.028301 6
-4.315684 -13.118895 0.031005 3
-4.347225 -13.055923 0.035181 2
-4.382241 -13.012444 0.037885 2
-4.515658 -12.630315 0.063764 2
-4.995467 -11.594125 0.130398 24
-5.029069 -11.572103 0.131341 21
-5.063667 -11.553806 0.131991 11
-6.319182 -12.888400 0.011215 3
-6.474142 -12.924678 0.005012 2
-6.599254 -13.129018 -0.012205 24
-6.585101 -12.972167 -0.000980 3
-6.754385 -13.278864 -0.026398 2
-6.826270 -13.336481 -0.032172 1
-6.931010 -12.643297 0.012799 1
-6.981972 -12.539024 0.018545 2
-7.297226 -12.709220 -0.001784 1
-7.361240 -12.741449 -0.005786 2
-7.385051 -12.691008 -0.003060 3
-7.422402 -12.664907 -0.002377 2
-6.981351 -11.616040 0.081125 2
-7.011481 -11.584172 0.082385 17
-7.041331 -11.556702 0.083348 17
-7.085029 -11.553411 0.082268 9
-7.786855 -12.791262 -0.021668 2
-8.348015 -13.173240 -0.064483 8
-7.611366 -11.672133 0.058070 2
-7.667243 -11.687714 0.055247 6
-7.700690 -11.660835 0.055930 10
-7.684718 -11.542596 0.064209 2
-7.658449 -11.407084 0.073948 1
-7.714096 -11.431225 0.070531 1
-7.765755 -11.434644 0.068592 2
-7.802085 -11.414456 0.068692 3
-7.846172 -11.408048 0.067624 3
-7.892252 -11.404928 0.066266 4
-7.944325 -11.412002 0.064033 9
-7.982569 -11.394647 0.063843 10
-8.032793 -11.397844 0.061903 11
-8.079078 -11.393934 0.060548 16
-8.129468 -11.396697 0.058610 16
-8.173827 -11.388950 0.057549 20
-8.222556 -11.392368 0.055607 20
-8.264929 -11.380828 0.054839 20
-8.311450 -11.375931 0.053487 20
-8.364276 -11.381033 0.051262 21
-8.415115 -11.382500 0.049330 20
-8.466043 -11.383738 0.047398 20
-8.511001 -11.379128 0.046045 20
-8.559614 -11.372046 0.044704 20
-8.615046 -11.379348 0.042193 20
-8.660165 -11.374132 0.040842 20
-8.711105 -11.369738 0.039212 19
-8.758115 -11.362948 0.037869 20
-8.809546 -11.362621 0.035944 21
-8.865468 -11.368710 0.033437 20
-8.919708 -11.375741 0.030926 20
-8.971422 -11.374690 0.029004 20
-9.016495 -11.363501 0.027957 18
-9.066077 -11.358708 0.026328 18
-9.115710 -11.353697 0.024700 18
-9.174491 -11.361576 0.021909 19
-9.231128 -11.365900 0.019410 19
-9.283288 -11.363430 0.017494 20
-9.333211 -11.357469 0.015870 20
-9.392459 -11.364268 0.013083 20
-9.447182 -11.364304 0.010879 19
-9.501995 -11.364083 0.008677 18
-9.549837 -11.353941 0.007347 18
-9.609523 -11.359657 0.004565 18
-9.666965 -11.361877 0.002075 16
-9.724514 -11.363822 -0.000414 14
-9.773763 -11.361828 -0.002333 12
-9.828490 -11.355529 -0.004232 13
-9.892958 -11.361653 -0.007292 11
-9.950905 -11.362507 -0.009777 10
-9.986971 -11.334692 -0.009646 3
-6.774508 -7.141718 0.374937 2
-6.741993 -7.060790 0.381104 7
-6.703674 -6.969094 0.388149 9
-6.692111 -6.912070 0.391999 3
-6.675486 -6.807794 0.398827 0
-6.667973 -6.757399 0.402094 0
-6.670279 -6.719470 0.404201 0
-6.657141 -6.663134 0.408048 0
-6.646217 -6.610027 0.411604 0
-6.583765 -6.495883 0.420958 0
-6.590002 -6.464600 0.422482 0
-6.609765 -6.411200 0.424660 3
-6.625960 -6.392054 0.425024 0
-6.649918 -6.381902 0.424519 0
-6.652868 -6.347610 0.426333 0
-6.653000 -6.310368 0.428436 0
-6.652929 -6.273189 0.430538 0
-6.657054 -6.242843 0.432057 0
-6.667268 -6.217651 0.433001 0
-6.653279 -6.165820 0.436550 0
-6.652417 -6.128899 0.438651 0
-6.636557 -6.040610 0.444298 36
-6.654061 -6.024395 0.444373 40
-6.649691 -5.984825 0.446761 39
-6.647840 -5.948249 0.448860 37
-6.651284 -5.917531 0.450381 37
-6.654571 -5.886851 0.451901 37
-6.668770 -5.867701 0.452264 38
-6.674560 -5.839920 0.453495 39
-6.685788 -5.817866 0.454147 39
-6.694121 -5.792948 0.455089 40
-6.705145 -5.770865 0.455741 40
-6.713255 -5.745939 0.456683 40
-6.721248 -5.721014 0.457624 40
-6.737636 -5.704506 0.457699 40
-6.751119 -5.685146 0.458062 40
-6.764524 -5.665749 0.458426 40
-6.783585 -5.651865 0.458213 40
-6.799730 -5.635140 0.458289 40
-6.821589 -5.623869 0.457787 40
-6.840531 -5.609756 0.457575 40
-6.855731 -5.593680 0.457647 40
-6.880414 -5.584880 0.456858 40
-6.896326 -5.567817 0.456935 40
-6.921768 -5.557955 0.456151 40
-6.940527 -5.543442 0.455940 40
-6.962198 -5.531538 0.455441 40
-6.991941 -5.528429 0.454074 40
-7.092695 -5.523482 0.449124 1
-7.117384 -5.513577 0.448340 1
-7.169130 -5.527151 0.444964 1
-7.278341 -5.590035 0.436119 0
-7.333597 -5.605395 0.432459 0
-7.343509 -5.581570 0.433118 0
-7.435491 -5.627384 0.426006 0
-7.366514 -5.504900 0.435670 5
-7.415916 -5.514166 0.432589 13
-7.521284 -5.536878 0.425857 1
-7.537024 -5.517579 0.425942 1
-7.555802 -5.500729 0.425741 2
-7.574531 -5.483803 0.425539 1
-7.630684 -5.496595 0.421890 1
-7.730836 -5.543657 0.414220 0
-7.752880 -5.528548 0.413734 0
-7.768443 -5.476083 0.415348 30
-7.806130 -5.472917 0.413427 22
-7.840691 -5.467125 0.411794 22
-7.884054 -5.469391 0.409297 22
-7.921891 -5.465593 0.407379 22
-7.966172 -5.466352 0.404887 23
-8.016944 -5.471603 0.401824 23
-8.051747 -5.464744 0.400195 22
-8.093023 -5.462398 0.397994 23
-8.131124 -5.457478 0.396081 23
-8.169266 -5.452345 0.394168 23
-8.220438 -5.456267 0.391110 23
-8.258688 -5.450665 0.389199 22
-8.293710 -5.442555 0.387576 22
-8.335296 -5.438819 0.385380 23
-8.373652 -5.432577 0.383472 23
-8.421905 -5.432898 0.380706 22
-8.473535 -5.435184 0.377654 23
-8.518650 -5.432691 0.375177 23
-8.547268 -5.418811 0.374131 22
-8.592466 -5.415852 0.371656 21
-8.634396 -5.410429 0.369467 21
-8.679702 -5.406957 0.366994 54
-8.735092 -5.409757 0.363663 55
-8.773832 -5.401390 0.361764 53
-8.815954 -5.394960 0.359579 50
-8.868209 -5.394721 0.356538 52
-8.907054 -5.385642 0.354642 51
-8.966199 -5.389065 0.351032 51
-9.005127 -5.379480 0.349137 49
-9.057652 -5.378060 0.346101 50
-9.106850 -5.374243 0.343352 46
-9.152698 -5.368062 0.340890 43
-9.212255 -5.369857 0.337286 43
-9.268487 -5.369240 0.333970 44
-9.317941 -5.364210 0.331226 41
-9.367448 -5.358887 0.328483 46
-9.423897 -5.357296 0.325170 45
-9.476972 -5.353364 0.322145 41
-9.537027 -5.353091 0.318550 44
-9.579842 -5.342569 0.316382 41
-9.650456 -5.347515 0.311935 41
-9.714239 -5.348116 0.308059 41
-9.778118 -5.348325 0.304186 41
-9.819625 -5.339302 0.302011 39
-9.863409 -5.325944 0.299856 17
-9.988142 -5.322025 0.292403 2
-10.188884 -5.395163 0.277426 5
-10.214692 -5.372157 0.276695 6
-10.229843 -5.343457 0.276818 2
-10.263338 -5.322478 0.275525 1
-10.356312 -5.333874 0.269389 9
-10.381984 -5.310134 0.268661 6
-10.475194 -5.320570 0.262529 3
-10.518678 -5.305306 0.260381 13
-10.539990 -5.280597 0.259933 6
-10.676419 -5.310899 0.250396 6
-10.731509 -5.298383 0.247406 30
-10.825358 -5.306227 0.241285 9
-10.962508 -5.334235 0.231757 4
-16.395821 -7.826252 -0.193386 1
-16.376150 -7.755649 -0.189765 1
-16.377878 -7.695347 -0.187847 1
-16.382982 -7.636783 -0.186214 1
-16.366072 -7.568336 -0.182879 1
-16.369543 -7.512448 -0.181258 1
-16.353197 -7.441816 -0.177914 1
-16.353655 -7.381977 -0.175999 1
-16.322445 -7.314380 -0.171838 1
-16.319826 -7.250702 -0.169630 1
-16.316931 -7.187129 -0.167423 1
-16.331047 -7.133987 -0.166645 1
-16.337616 -7.077716 -0.165299 1
-16.340284 -7.019934 -0.163671 1
-16.324295 -6.954571 -0.160626 1
-16.330173 -6.898479 -0.159282 1
-16.332136 -6.840917 -0.157655 1
-16.329165 -6.784425 -0.155755 1
-16.350212 -6.731870 -0.155533 1
-16.358942 -6.677358 -0.154473 1
-16.376657 -6.632223 -0.154282 1
-16.385010 -6.577693 -0.153222 1
-16.371756 -6.512116 -0.150454 1
-16.384340 -6.456585 -0.149667 1
-16.384558 -6.399356 -0.148042 1
-16.403263 -6.349114 -0.147830 1
-16.406805 -6.293321 -0.146488 1
-16.415812 -6.245317 -0.145733 1
-16.431126 -6.191103 -0.145228 1
-16.434954 -6.132849 -0.143876 1
-16.439663 -6.083516 -0.142839 1
-16.445955 -6.029162 -0.141780 1
-16.418076 -5.963180 -0.138182 1
-16.417217 -5.903903 -0.136549 1
-16.430408 -5.852283 -0.136056 1
-16.409323 -5.789347 -0.133024 1
-16.417490 -5.739058 -0.132260 1
-16.411926 -5.678822 -0.130347 1
-16.397707 -5.618776 -0.127881 1
-16.390858 -5.561289 -0.125979 1
-16.368544 -5.499156 -0.122951 1
-16.371893 -5.447960 -0.121907 1
-16.349867 -5.383649 -0.118870 1
-16.345919 -5.327797 -0.117253 1
-16.345581 -5.273160 -0.115918 1
-16.317453 -5.156299 -0.111278 26
-16.335655 -5.107393 -0.111351 26
-16.380579 -5.065975 -0.113393 22
-16.386938 -5.013620 -0.112622 5
-16.379150 -4.906235 -0.109684 1
-16.354755 -4.843239 -0.106653 1
-16.325577 -4.781963 -0.103353 1
-16.283264 -4.722923 -0.099232 1
-16.261961 -4.661665 -0.096486 1
-16.251383 -4.606019 -0.094594 1
-16.236717 -4.549532 -0.092422 1
-16.260593 -4.502657 -0.093058 1
-16.256561 -4.451615 -0.091739 1
-16.257410 -4.396584 -0.090681 1
-16.249693 -4.342268 -0.089072 1
-16.245663 -4.288939 -0.087744 1
-16.257563 -4.236707 -0.087528 1
-16.253138 -4.183463 -0.086200 1
-16.259665 -4.135331 -0.085724 1
-16.270466 -4.085538 -0.085519 1
-16.268856 -4.035726 -0.084483 1
-16.279310 -3.985902 -0.084277 1
-16.293499 -3.936840 -0.084352 1
-16.300196 -3.883651 -0.083856 1
-16.302290 -3.832179 -0.083090 1
-16.288044 -3.780197 -0.081215 1
-16.281923 -3.727335 -0.079890 1
-16.267763 -3.673091 -0.078005 1
-16.261250 -3.620410 -0.076681 1
-16.262398 -3.569211 -0.075917 1
-16.263363 -3.518036 -0.075153 1
-16.256279 -3.465536 -0.073830 1
-16.276548 -3.417742 -0.074464 1
-16.269096 -3.365307 -0.073142 1
-16.249632 -3.311053 -0.070981 1
-16.249674 -3.260061 -0.070218 1
-16.241644 -3.207886 -0.068897 1
-16.245262 -3.157570 -0.068414 1
-16.240442 -3.108584 -0.067382 1
-16.255917 -3.057508 -0.067727 1
-16.243195 -3.004981 -0.066128 1
-16.246098 -2.954716 -0.065646 1
-16.236956 -2.902886 -0.064326 1
-16.235540 -2.852161 -0.063565 1
-16.241861 -2.802461 -0.063363 1
-16.244051 -2.752258 -0.062881 1
-16.253693 -2.705484 -0.062967 1
-16.255539 -2.655266 -0.062486 1
-16.257208 -2.605057 -0.062004 1
-16.302341 -2.559553 -0.064588 1
-16.263985 -2.505076 -0.061320 1
-16.269096 -2.455278 -0.061118 1
-16.285948 -2.406620 -0.061750 1
-16.262905 -2.354145 -0.059599 1
-16.263515 -2.303994 -0.059118 1
-16.252022 -2.252824 -0.057803 1
-16.276136 -2.204720 -0.058992 1
-16.272243 -2.154250 -0.058233 1
-16.248278 -2.102310 -0.056084 1
-16.263922 -2.053435 -0.056717 1
-16.239590 -2.001719 -0.054569 1
-16.227016 -1.950968 -0.053256 1
-16.214262 -1.900316 -0.051943 1
-16.185249 -1.851310 -0.049529 1
-16.192062 -1.802011 -0.049607 1
-16.178780 -1.751646 -0.048295 1
-16.193338 -1.700249 -0.048918 1
-16.187666 -1.650348 -0.048163 1
-16.157898 -1.599517 -0.045742 1
-16.139912 -1.549349 -0.044155 1
-16.121662 -1.501778 -0.042579 1
-16.111305 -1.452117 -0.041548 1
-16.100775 -1.402534 -0.040517 1
-16.114006 -1.353596 -0.041151 1
-16.107119 -1.304169 -0.040398 1
-16.084099 -1.254527 -0.038536 1
-16.056915 -1.204998 -0.036399 1
-16.045519 -1.155815 -0.035370 1
-16.029961 -1.106690 -0.034065 1
-16.050142 -1.057772 -0.035253 1
-17.512682 -1.034993 -0.046102 1
11.352863 0.107123 0.078704 1
11.344768 0.059539 0.079285 1
11.372321 0.014797 0.077556 1
11.379821 -0.031594 0.077110 1
11.418850 -0.073442 0.074619 1
11.426200 -0.122366 0.074163 1
11.449158 -0.167977 0.072689 1
