# .PCD v.7 - Point Cloud Data file format
VERSION .7
FIELDS x y z intensity
SIZE 4 4 4 1
TYPE F F F U
COUNT 1 1 1 1
WIDTH 1549
HEIGHT 1
VIEWPOINT 0 0 0 1 0 0 0
POINTS 1549
DATA ascii
-6.686071 -1.373312 0.012687 1
-6.672771 -1.352963 0.018543 1
-6.674468 -1.344821 0.019379 1
-6.702997 -1.358878 0.011188 1
-6.692721 -1.340829 0.016039 1
-6.748395 -1.376655 -0.001193 1
-6.693648 -1.327341 0.017800 1
-6.706556 -1.323575 0.015547 1
-6.762602 -1.358810 -0.001698 1
-6.746042 -1.336014 0.005171 1
-6.750657 -1.330091 0.005007 1
-6.703350 -1.283680 0.021940 1
-6.741456 -1.303978 0.010716 1
-6.727319 -1.284210 0.016602 1
-6.728676 -1.276006 0.017450 1
-6.736166 -1.272484 0.016287 1
-6.740560 -1.266597 0.016130 1
-6.735627 -1.253747 0.018997 1
-6.771052 -1.270915 0.008765 1
-6.791028 -1.276376 0.003569 1
-6.795434 -1.270297 0.003412 1
-6.762215 -1.236937 0.015358 1
-6.804183 -1.258092 0.003100 1
-6.773881 -1.227218 0.014046 1
-6.787588 -1.227916 0.010866 1
-6.794990 -1.224078 0.009705 1
-6.900745 -1.288913 -0.022765 1
-6.793874 -1.205263 0.012436 1
-6.810576 -1.208259 0.008252 1
-6.798562 -1.191500 0.013165 1
-6.813415 -1.197163 0.009048 1
-6.803550 -1.177117 0.013884 1
-6.827121 -1.183586 0.007662 1
-6.832233 -1.168725 0.008376 11
-6.836264 -1.162504 0.008232 1
-6.807790 -1.135235 0.018215 1
-6.834295 -1.144054 0.010992 1
-6.828452 -1.131582 0.013891 1
-6.851971 -1.137791 0.007670 1
-6.796909 -1.094460 0.025777 1
-6.859794 -1.125196 0.007391 1
-6.886514 -1.133441 0.000159 1
-6.850656 -1.103060 0.012200 1
-6.842052 -1.079847 0.016990 1
-6.882284 -1.095460 0.005689 1
-6.872754 -1.081159 0.009616 1
-6.893143 -1.084619 0.004404 1
-6.913579 -1.087949 -0.000810 1
-6.917327 -1.081443 -0.000944 1
-6.897396 -1.061741 0.006044 1
-6.901052 -1.055292 0.005913 1
-6.887855 -1.039300 0.010868 1
-6.889647 -1.036094 0.010803 1
-6.911887 -1.035870 0.005525 1
-6.922694 -1.016008 0.005137 11
-6.950032 -1.022309 -0.002117 1
-6.933077 -1.004744 0.003868 1
-6.956872 -1.009362 -0.002363 1
-6.960346 -1.002705 -0.002487 1
-6.963797 -0.996036 -0.002611 1
-6.942400 -0.935212 0.008908 1
-6.903576 -0.900036 0.021950 1
-6.906669 -0.893569 0.021839 1
-7.000205 -0.921902 -0.003922 11
-7.003216 -0.915434 -0.004030 1
-6.981961 -0.896884 0.003005 1
-6.985042 -0.890141 0.002894 1
-6.923422 -0.857481 0.021235 1
-6.927683 -0.848000 0.021081 1
-7.008697 -0.836158 0.002040 1
-7.042385 -0.825619 -0.005445 11
-7.045217 -0.818665 -0.005547 1
-6.958440 -0.775391 0.019969 1
-6.963732 -0.762066 0.019777 11
-7.056166 -0.791099 -0.005944 1
-7.015773 -0.766925 0.006258 1
-6.976553 -0.728592 0.019312 1
-6.979048 -0.721871 0.019221 1
-7.072197 -0.748591 -0.006526 1
-7.031179 -0.725630 0.005698 1
-6.986389 -0.701655 0.018954 1
-6.987592 -0.698278 0.018911 1
-6.991047 -0.688474 0.018785 1
-6.993402 -0.681702 0.018699 1
-7.087085 -0.706465 -0.007068 1
-7.037066 -0.673352 0.008166 1
-7.002694 -0.654194 0.018360 1
-7.004817 -0.647723 0.018283 1
-7.007029 -0.640903 0.018202 1
-7.009217 -0.634076 0.018122 1
-7.011381 -0.627241 0.018043 1
-7.114329 -0.620971 -0.008064 1
-7.023764 -0.586422 0.017589 1
-7.092562 -0.598989 -0.001013 1
-7.027735 -0.572644 0.017443 1
-7.029685 -0.565745 0.017371 1
-7.031611 -0.558839 0.017300 1
-7.081948 -0.565295 0.003841 1
-7.035390 -0.545007 0.017161 1
-7.085677 -0.551463 0.003704 1
-7.038069 -0.534963 0.017062 1
-7.040788 -0.524558 0.016962 1
-7.072514 -0.525319 0.008652 1
-7.081702 -0.520517 0.006528 1
-7.141592 -0.519834 -0.009069 1
-7.049455 -0.489775 0.016641 1
-7.051116 -0.482800 0.016580 1
-7.052752 -0.475820 0.016519 1
-7.054284 -0.469184 0.016462 1
-7.093635 -0.470417 0.006085 1
-7.057514 -0.454846 0.016341 1
-7.060567 -0.440835 0.016228 1
-7.061983 -0.434173 0.016175 1
-7.063376 -0.427506 0.016122 1
-7.064820 -0.420484 0.016068 1
-7.066238 -0.413456 0.016015 1
-7.105538 -0.413945 0.005639 1
-7.069002 -0.399386 0.015911 1
-7.070347 -0.392343 0.015861 1
-7.071668 -0.385297 0.015811 1
-7.073028 -0.377892 0.015759 1
-7.142756 -0.383161 -0.002879 1
-7.074986 -0.366954 0.015685 1
-7.076765 -0.356711 0.015618 1
-7.116062 -0.356087 0.005242 1
-7.109572 -0.347976 0.007265 1
-7.080279 -0.335491 0.015484 1
-7.081401 -0.328410 0.015441 1
-7.082499 -0.321325 0.015399 1
-7.083518 -0.314591 0.015360 1
-7.084568 -0.307498 0.015320 1
-7.085541 -0.300757 0.015282 1
-7.086542 -0.293658 0.015243 1
-7.087518 -0.286555 0.015206 1
-7.126819 -0.284199 0.004828 1
-7.120098 -0.275961 0.006860 1
-7.159348 -0.273576 -0.003516 1
-7.091175 -0.258111 0.015063 1
-7.092027 -0.250992 0.015029 1
-7.092854 -0.243870 0.014997 1
-7.093697 -0.236389 0.014964 1
-7.094473 -0.229262 0.014933 1
-7.141339 -0.226962 0.002491 1
-7.118980 -0.217694 0.008669 1
-7.119691 -0.210477 0.008640 1
-7.097296 -0.201083 0.014819 1
-7.116863 -0.199292 0.009633 1
-7.129372 -0.189485 0.006490 1
-7.137685 -0.182876 0.004396 1
-7.138275 -0.175594 0.004371 1
-7.100313 -0.165362 0.014695 1
-7.131644 -0.160825 0.006396 1
-7.101345 -0.151060 0.014652 1
-7.151944 -0.147210 0.001178 1
-7.102277 -0.136751 0.014612 1
-7.133563 -0.131410 0.006314 1
-7.103109 -0.122436 0.014575 1
-7.103470 -0.115634 0.014559 1
-7.123138 -0.109046 0.009367 1
-7.104171 -0.100953 0.014527 1
-7.104475 -0.093790 0.014513 1
-7.104753 -0.086626 0.014499 1
-7.128176 -0.080251 0.008276 1
-7.128397 -0.073366 0.008264 1
-7.105430 -0.065486 0.014464 1
-7.144237 -0.059235 0.004102 1
-7.128950 -0.051256 0.008233 1
-7.129080 -0.044006 0.008225 1
-7.106005 -0.036454 0.014429 1
-7.106084 -0.029285 0.014423 1
-7.129295 -0.025879 0.008208 1
-7.125485 -0.014993 0.009236 1
-7.106170 -0.007776 0.014408 1
-7.106149 -0.000607 0.014405 1
-7.137011 0.006814 0.006121 1
-7.136943 0.013729 0.006120 1
-7.156163 0.021296 0.000943 1
-7.136724 0.028284 0.006120 1
-7.144303 0.035732 0.004050 1
-7.136405 0.042838 0.006123 1
-7.105310 0.049215 0.014408 1
-7.135983 0.057389 0.006130 1
-7.104845 0.063547 0.014417 1
-7.104280 0.077875 0.014429 11
-7.103960 0.085037 0.014437 1
-7.142203 0.094138 0.004093 1
-7.141826 0.101434 0.004102 1
-7.102850 0.106518 0.014464 1
-7.133283 0.115552 0.006194 1
-7.102008 0.120473 0.014486 1
-7.140113 0.129875 0.004147 1
-7.151147 0.138352 0.001057 1
-7.131324 0.144600 0.006247 1
-7.100204 0.146221 0.014536 1
-7.099386 0.156585 0.014559 1
-7.098822 0.163372 0.014575 1
-7.098235 0.170158 0.014592 1
-7.097593 0.177299 0.014611 1
-7.096926 0.184438 0.014630 1
-7.096234 0.191574 0.014651 1
-7.133953 0.202668 0.004324 1
-7.133197 0.209935 0.004347 1
-7.094010 0.212968 0.014717 1
-7.091519 0.234693 0.014793 11
-7.090696 0.241454 0.014818 1
-7.088890 0.255679 0.014874 1
-7.085995 0.276992 0.014964 11
-7.150502 0.316132 -0.003516 11
-7.130274 0.320397 0.001690 1
-7.129694 0.324024 0.001708 1
-7.146971 0.338093 -0.003404 1
-7.077186 0.333667 0.015242 1
-7.075974 0.340733 0.015280 1
-7.074737 0.347795 0.015320 1
-7.073475 0.354853 0.015360 1
-7.072189 0.361906 0.015401 1
-7.161524 0.409052 -0.010252 11
-7.053319 0.452806 0.016013 1
-7.051691 0.459789 0.016066 1
-7.050039 0.466765 0.016120 1
-7.043188 0.494612 0.016345 1
-7.041414 0.501559 0.016403 1
-7.086336 0.528395 0.003116 11
-7.030265 0.543105 0.016770 11
-7.095211 0.569134 -0.001717 1
-7.018250 0.584409 0.017168 11
-7.094965 0.662376 -0.008060 1
-7.090222 0.676626 -0.007902 1
-7.045129 0.665180 0.004483 1
-7.059822 0.681956 -0.000541 1
-6.991756 0.665876 0.018051 1
-7.077930 0.712104 -0.007491 11
-7.075397 0.719173 -0.007407 1
-7.037514 0.816827 -0.006135 1
-6.940179 0.798863 0.019782 11
-6.935919 0.808737 0.019926 11
-6.995192 0.846889 0.001630 1
-6.919859 0.844747 0.020468 1
-6.979945 0.880677 0.002145 1
-7.001475 0.898589 -0.004919 1
-6.998133 0.905730 -0.004806 1
-6.994925 0.912519 -0.004698 1
-6.985326 0.932483 -0.004373 11
-6.954332 0.934170 0.003011 11
-6.995930 0.972024 -0.011066 11
-6.934147 0.973808 0.003695 11
-6.951266 0.999399 -0.003219 11
-6.896879 0.978093 0.012197 1
-6.905349 0.986850 0.009196 1
-6.916874 1.006186 0.004281 1
-6.918633 1.058574 -0.002110 1
-6.938289 1.078719 -0.009109 1
-6.887783 1.057867 0.005270 1
-6.907345 1.078068 -0.001726 1
-6.880474 1.070340 0.005519 1
-6.899706 1.090997 -0.001466 1
-6.862776 1.077380 0.008834 1
-6.872173 1.091766 0.004897 1
-6.888080 1.110291 -0.001070 1
-6.861154 1.102407 0.006177 1
-6.840864 1.098453 0.011389 1
-6.876252 1.129461 -0.000667 1
-6.868255 1.142172 -0.000394 11
-6.856094 1.161133 0.000020 1
-6.854048 1.164281 0.000090 1
-6.817544 1.170429 0.007664 1
-6.835598 1.192137 0.000720 1
-6.849448 1.219965 -0.006081 11
-6.814353 1.223090 0.001445 1
-6.810040 1.229236 0.001593 1
-6.775072 1.231634 0.009115 1
-6.755126 1.226196 0.014316 1
-6.788374 1.259433 0.002334 1
-6.765085 1.251923 0.008553 1
-6.760671 1.257896 0.008704 1
-6.851975 1.336178 -0.022436 1
-6.847267 1.342458 -0.022275 1
-6.765737 1.289850 0.003108 1
-6.761191 1.295826 0.003264 1
-6.733981 1.293113 0.009618 1
-6.935485 1.599461 0.012118 52
-6.924209 1.612571 0.012505 52
-6.971267 1.665568 -0.002913 1
-6.912840 1.625601 0.012895 1
-6.907122 1.632087 0.013091 1
-6.901381 1.638552 0.013288 1
-6.849007 1.695514 0.015087 1
-6.843046 1.701777 0.015292 1
-6.822009 1.723529 0.016015 52
-6.835317 1.754557 0.009425 1
-6.807125 1.738602 0.016527 1
-6.801320 1.744412 0.016727 1
-6.795187 1.750508 0.016938 1
-6.789034 1.756581 0.017149 1
-6.776665 1.768664 0.017575 1
-6.818955 1.825583 0.002322 1
-6.764211 1.780661 0.018004 1
-6.806104 1.837877 0.002764 1
-6.751988 1.792273 0.018424 1
-6.745689 1.798195 0.018641 1
-6.739370 1.804096 0.018859 1
-6.726670 1.815831 0.019296 1
-6.713889 1.827477 0.019737 1
-6.707146 1.833555 0.019969 1
-6.700381 1.839609 0.020202 1
-6.694241 1.845064 0.020413 1
-6.688083 1.850499 0.020626 1
-6.675061 1.861875 0.021074 1
-6.720024 1.921153 0.004963 1
-6.661631 1.873440 0.021537 1
-6.648779 1.884351 0.021980 1
-6.687008 1.944110 0.006868 1
-6.635521 1.895451 0.022438 1
-6.628531 1.901242 0.022679 1
-6.621852 1.906733 0.022909 1
-6.634745 1.936570 0.016334 1
-6.632820 1.948193 0.014867 1
-6.613841 1.938382 0.019354 1
-6.619461 1.958908 0.015328 1
-6.612237 1.964640 0.015577 1
-6.581386 1.939184 0.024305 1
-6.611176 2.005174 0.009484 1
-6.561585 1.954564 0.024989 1
-6.613546 2.037864 0.004038 1
-6.568294 2.037655 0.010964 1
-6.576861 2.065346 0.005305 1
-6.553609 2.048455 0.011471 1
-6.508618 1.994164 0.026817 1
-6.555785 2.080679 0.006033 1
-6.514674 2.037992 0.018946 1
-6.514248 2.052694 0.016662 1
-6.507042 2.057786 0.016911 1
-6.497599 2.059634 0.018004 1
-6.492578 2.067894 0.017411 1
-6.483121 2.069676 0.018504 1
-6.504173 2.149952 0.002453 52
-6.481939 2.131902 0.008584 1
-6.427671 2.097446 0.021953 52
-6.431214 2.118471 0.018000 1
-6.444358 2.156538 0.009884 1
-6.384703 2.078635 0.031100 1
-6.421986 2.170764 0.010658 1
-6.414369 2.175534 0.010921 1
-6.376170 2.130195 0.023734 1
-6.376938 2.166444 0.017579 1
-6.400862 2.215988 0.006026 1
-6.326264 2.114800 0.033122 1
-6.368321 2.203594 0.012515 1
-6.360590 2.208176 0.012782 1
-6.352843 2.212732 0.013050 1
-6.345080 2.217260 0.013319 1
-6.360484 2.262586 0.003593 1
-6.329507 2.226235 0.013858 1
-6.369399 2.316074 -0.006675 1
-6.327145 2.259058 0.008577 1
-6.353136 2.325221 -0.006111 1
-6.275708 2.202629 0.024914 1
-6.271701 2.213771 0.023520 1
-6.295355 2.276647 0.009678 1
-6.256544 2.222022 0.024045 1
-6.259463 2.264847 0.016284 52
-6.260524 2.286419 0.012417 1
-6.243560 2.273222 0.016835 1
-6.248024 2.301777 0.011318 1
-6.218775 2.264022 0.021524 1
-6.219596 2.285578 0.017665 1
-6.223762 2.314179 0.012159 1
-6.215646 2.318256 0.012440 1
-6.182311 2.260534 0.026617 1
-6.195964 2.319278 0.014654 1
-6.159081 2.263251 0.028955 1
-6.183041 2.334282 0.013570 1
-6.171522 2.331134 0.015502 1
-6.174925 2.359862 0.010022 1
-6.146950 2.321127 0.020183 1
-6.150627 2.349659 0.014694 1
-6.137535 2.342787 0.017446 1
-6.134135 2.357274 0.015266 1
-6.105165 2.314547 0.026228 1
-6.146031 2.429247 0.001066 1
-6.137514 2.433054 0.001362 1
-6.090107 2.347006 0.022155 1
-6.100388 2.393798 0.012607 1
-6.081285 2.372217 0.018631 1
-6.076002 2.383015 0.017283 1
-6.063133 2.375732 0.020027 1
-6.056295 2.382868 0.019498 1
-6.047940 2.386360 0.019788 1
-6.041797 2.418534 0.014640 1
-6.052065 2.469304 0.004327 1
-6.014822 2.399867 0.020938 1
-6.007770 2.394248 0.022714 1
-6.002194 2.417500 0.019078 1
-5.988154 2.406159 0.022629 1
-6.008665 2.486394 0.005833 1
-5.991222 2.493017 0.006439 1
-5.982483 2.496283 0.006742 1
-5.973733 2.499519 0.007046 1
-5.947888 2.454757 0.017900 1
-5.939713 2.457715 0.018184 1
-5.930667 2.460954 0.018499 1
-5.938622 2.512154 0.008266 1
-5.929818 2.515236 0.008572 1
-5.921443 2.518135 0.008863 1
-5.912617 2.521158 0.009169 1
-5.884192 2.464609 0.022411 1
-5.894934 2.527109 0.009784 1
-5.853093 2.487206 0.021194 1
-5.859446 2.538640 0.011017 1
-5.841380 2.511473 0.017772 1
-5.841642 2.544220 0.011636 1
-5.832726 2.546963 0.011946 1
-5.828265 2.548323 0.012101 1
-5.814865 2.552356 0.012566 1
-5.805921 2.555006 0.012877 1
-5.786292 2.519920 0.021218 1
-5.788004 2.560211 0.013500 1
-5.770501 2.565166 0.014109 52
-5.761962 2.567536 0.014406 1
-5.752965 2.570001 0.014719 1
-5.743959 2.572434 0.015032 1
-5.734945 2.574836 0.015346 1
-5.725923 2.577206 0.015659 1
-5.716892 2.579545 0.015974 1
-5.717220 2.619911 0.008304 1
-5.698354 2.584240 0.016618 1
-5.689299 2.586483 0.016933 1
-5.680236 2.588694 0.017249 1
-5.671166 2.590873 0.017564 1
-5.662542 2.592914 0.017864 1
-5.653912 2.594926 0.018165 1
-5.644364 2.597116 0.018497 1
-5.634810 2.599272 0.018830 1
-5.636775 2.651039 0.008806 1
-5.617500 2.603084 0.019432 1
-5.612941 2.604068 0.019591 1
-5.598340 2.607162 0.020099 1
-5.599117 2.659052 0.010117 1
-5.587555 2.649403 0.012817 1
-5.571375 2.612655 0.021038 1
-5.562679 2.614364 0.021341 1
-5.553520 2.616133 0.021659 1
-5.526006 2.621246 0.022618 1
-5.516364 2.622967 0.022953 1
-5.507175 2.624574 0.023273 1
-5.503008 2.657116 0.017292 1
-5.494611 2.726088 0.004567 52
-5.461610 2.632053 0.024861 52
-5.452851 2.633398 0.025166 1
-5.450758 2.685271 0.015284 1
-5.442422 2.694420 0.014043 1
-5.431471 2.688061 0.015956 1
-5.428143 2.736046 0.006882 1
-5.415104 2.710106 0.012697 1
-5.403682 2.691833 0.016924 1
-5.398968 2.692444 0.017088 1
-5.378923 2.643572 0.027742 1
-5.369664 2.644698 0.028065 1
-5.368502 2.719889 0.013556 1
-5.356499 2.697572 0.018569 1
-5.347051 2.698621 0.018898 1
-5.338370 2.707446 0.017669 1
-5.329631 2.716243 0.016443 1
-5.318685 2.701570 0.019887 1
-5.300231 2.703327 0.020531 52
-5.296807 2.778487 0.006101 1
-5.301671 -2.798632 0.008851 52
-5.337898 -2.767518 0.012916 52
-5.349781 -2.793883 0.007168 1
-5.351775 -2.718666 0.021570 1
-5.363319 -2.737108 0.017358 1
-5.379381 -2.790543 0.006133 1
-5.433412 -2.755895 0.009574 52
-5.435649 -2.704074 0.019397 1
-5.441951 -2.715059 0.016891 1
-5.456099 -2.712976 0.016396 1
-5.476691 -2.721722 0.013391 1
-5.483171 -2.700834 0.016972 1
-5.489510 -2.679935 0.020558 1
-5.498820 -2.678389 0.020232 1
-5.515120 -2.719387 0.011284 1
-5.521416 -2.642631 0.025534 1
-5.537359 -2.679609 0.017360 1
-5.548959 -2.693427 0.013907 1
-5.557614 -2.687815 0.014366 1
-5.571248 -2.709167 0.009318 1
-5.577742 -2.691921 0.012137 1
-5.585608 -2.682365 0.013385 1
-5.595392 -2.680389 0.013042 1
-5.602392 -2.666938 0.015082 1
-5.614008 -2.676525 0.012390 1
-5.612485 -2.624730 0.022344 1
-5.636182 -2.691816 0.007805 1
-5.638946 -2.659087 0.013801 1
-5.649857 -2.664681 0.011896 1
-5.648911 -2.616643 0.021068 1
-5.664595 -2.665337 0.010618 1
-5.675389 -2.650733 0.012524 1
-5.687264 -2.659994 0.009823 1
-5.707337 -2.703540 -0.000019 1
-5.702988 -2.644053 0.011557 1
-5.710313 -2.634144 0.012824 1
-5.711922 -2.601386 0.018860 1
-5.730516 -2.637083 0.010592 1
-5.742583 -2.646091 0.007884 1
-5.743460 -2.613423 0.013946 1
-5.739603 -2.561702 0.023982 1
-5.756115 -2.589711 0.017310 1
-5.765109 -2.587236 0.016995 1
-5.786501 -2.630099 0.007106 1
-5.783520 -2.582063 0.016349 1
-5.792487 -2.579492 0.016035 1
-5.801445 -2.576890 0.015721 1
-5.818887 -2.571726 0.015109 52
-5.827818 -2.569031 0.014796 1
-5.828173 -2.536140 0.020876 1
-5.834701 -2.525915 0.022170 1
-5.854554 -2.560760 0.013858 1
-5.863002 -2.558083 0.013561 1
-5.867445 -2.556663 0.013405 1
-5.880758 -2.552355 0.012938 1
-5.902106 -2.586586 0.004574 1
-5.898917 -2.546355 0.012301 1
-5.907759 -2.543382 0.011991 1
-5.916149 -2.540528 0.011696 1
-5.924970 -2.537494 0.011387 1
-5.933781 -2.534429 0.011077 1
-5.942581 -2.531333 0.010768 1
-5.951371 -2.528207 0.010460 1
-5.960149 -2.525050 0.010152 1
-5.968916 -2.521863 0.009844 1
-5.977673 -2.518644 0.009536 1
-5.985980 -2.515559 0.009245 1
-5.994714 -2.512281 0.008938 1
-6.012148 -2.505634 0.008326 52
-6.006885 -2.465668 0.016125 1
-6.007414 -2.440223 0.020676 1
-6.020152 -2.447821 0.017944 1
-6.064595 -2.484788 0.006483 52
-6.073222 -2.481236 0.006180 1
-6.077530 -2.479448 0.006029 1
-6.063465 -2.408912 0.020230 1
-6.068804 -2.398140 0.021565 1
-6.107172 -2.466911 0.004987 1
-6.100380 -2.427186 0.012840 1
-6.104161 -2.412720 0.014992 1
-6.104732 -2.391074 0.018779 1
-6.141348 -2.451928 0.003786 1
-6.134002 -2.412307 0.011658 1
-6.166842 -2.440379 0.002889 52
-6.175312 -2.436470 0.002592 1
-6.157601 -2.375614 0.015397 1
-6.151015 -2.339776 0.022482 1
-6.200220 -2.424767 0.001716 1
-6.208216 -2.420943 0.001434 1
-6.216618 -2.416889 0.001139 1
-6.208046 -2.377523 0.009055 1
-6.197505 -2.334726 0.017801 1
-6.214211 -2.348294 0.013406 1
-6.250085 -2.400383 -0.000038 1
-6.235100 -2.328996 0.014194 52
-6.239643 -2.317868 0.015557 1
-6.279178 -2.385558 -0.001062 1
-6.291590 -2.379095 -0.001499 1
-6.300259 -2.374533 -0.001804 1
-6.284857 -2.325104 0.008636 1
-6.316313 -2.365976 -0.002369 1
-6.298944 -2.295266 0.011947 52
-6.340488 -2.352823 -0.003220 1
-6.326567 -2.288933 0.009452 1
-6.364933 -2.339192 -0.004081 1
-6.338608 -2.273149 0.010550 1
-6.350490 -2.257309 0.011654 1
-6.394487 -2.208385 0.013911 52
-6.417799 -2.193965 0.013089 1
-6.370462 -2.108208 0.033790 1
-6.447162 -2.207821 0.006725 1
-6.415133 -2.140092 0.022319 1
-6.416255 -2.125420 0.024563 1
-6.438407 -2.143695 0.018453 1
-6.441595 -2.132272 0.019863 1
-6.442585 -2.117575 0.022112 1
-6.452074 -2.115978 0.021016 1
-6.470198 -2.127391 0.016570 1
-6.460225 -2.096388 0.023012 1
-6.474034 -2.101202 0.020241 1
-6.507617 -2.135099 0.009922 1
-6.501804 -2.110614 0.014694 1
-6.495839 -2.086196 0.019472 1
-6.474143 -2.039335 0.030133 1
-6.521469 -2.092107 0.014762 1
-6.517485 -2.070963 0.018708 1
-6.524306 -2.066092 0.018467 1
-6.501967 -2.019539 0.029151 1
-6.531772 -2.046233 0.020487 1
-6.538866 -2.041055 0.020237 1
-6.534428 -2.020051 0.024199 1
-6.552998 -2.030626 0.019738 1
-6.555387 -2.019086 0.021176 1
-6.568210 -2.029020 0.017679 1
-6.550595 -1.983522 0.027434 1
-6.576328 -2.003234 0.020436 1
-6.606953 -2.029011 0.011743 1
-6.583059 -1.983237 0.022482 1
-6.601882 -1.993352 0.018011 1
-6.584784 -1.957073 0.026227 1
-6.606034 -1.970175 0.020909 1
-6.608017 -1.958601 0.022361 1
-6.619670 -1.959278 0.020427 1
-6.636234 -1.966001 0.016798 1
-6.630776 -1.945245 0.020796 1
-6.669558 -1.979166 0.009531 1
-6.631529 -1.919325 0.024574 1
-6.648120 -1.925869 0.020944 1
-6.664776 -1.932320 0.017311 1
-6.671471 -1.926679 0.017074 1
-6.658013 -1.897089 0.023638 1
-6.664586 -1.891472 0.023405 1
-6.671139 -1.885833 0.023174 1
-6.690411 -1.894989 0.018687 1
-6.709766 -1.904033 0.014197 1
-6.690678 -1.868777 0.022482 1
-6.696828 -1.863334 0.022265 1
-6.700058 -1.860460 0.022150 1
-6.710039 -1.851518 0.021797 1
-6.716452 -1.845720 0.021570 1
-6.722525 -1.840191 0.021355 1
-6.729217 -1.834056 0.021118 1
-6.735569 -1.828191 0.020894 1
-6.741900 -1.822304 0.020669 1
-6.748211 -1.816395 0.020446 1
-6.754502 -1.810464 0.020223 1
-6.760771 -1.804511 0.020001 1
-6.766708 -1.798835 0.019791 1
-6.786118 -1.807269 0.015299 1
-6.779145 -1.786822 0.019350 1
-6.785641 -1.780480 0.019120 1
-6.791806 -1.774418 0.018902 1
-6.797950 -1.768335 0.018684 1
-6.803766 -1.762536 0.018478 1
-6.798536 -1.745646 0.021706 1
-6.815949 -1.750265 0.018046 1
-6.822009 -1.744098 0.017831 1
-6.828046 -1.737909 0.017617 1
-6.833762 -1.732011 0.017414 1
-6.839757 -1.725781 0.017202 1
-6.845731 -1.719531 0.016990 1
-6.848710 -1.716398 0.016884 1
-6.857909 -1.706652 0.016558 1
-6.863521 -1.700655 0.016359 1
-6.869112 -1.694639 0.016160 1
-6.874978 -1.688286 0.015952 1
-6.880820 -1.681913 0.015745 1
-6.886931 -1.675199 0.015528 1
-6.892728 -1.668784 0.015322 1
-6.898502 -1.662349 0.015117 1
-6.903967 -1.656217 0.014923 1
-6.909698 -1.649743 0.014719 1
-6.915406 -1.643249 0.014517 1
-6.921375 -1.636408 0.014305 1
-6.927036 -1.629873 0.014103 1
-6.932675 -1.623319 0.013903 1
-6.938010 -1.617073 0.013714 1
-6.943604 -1.610480 0.013515 1
-6.949175 -1.603868 0.013317 1
-6.954722 -1.597236 0.013120 1
-6.959971 -1.590918 0.012933 1
-6.965474 -1.584248 0.012737 1
-6.970953 -1.577560 0.012542 1
-6.976409 -1.570852 0.012348 1
-6.981841 -1.564125 0.012155 1
-6.984549 -1.560755 0.012059 1
-6.992635 -1.550615 0.011771 1
-6.997997 -1.543832 0.011580 1
-7.003335 -1.537030 0.011390 1
-7.013939 -1.523370 0.011013 1
-7.019206 -1.516512 0.010825 1
-7.024187 -1.509981 0.010648 1
-7.029407 -1.503087 0.010462 1
-7.034602 -1.496176 0.010277 1
-7.039774 -1.489246 0.010093 1
-7.044921 -1.482299 0.009910 1
-7.050044 -1.475333 0.009727 1
-7.060217 -1.461349 0.009364 52
-7.065267 -1.454330 0.009184 1
-7.070292 -1.447293 0.009005 1
-7.037158 -1.413040 0.019309 1
-7.080269 -1.433168 0.008649 1
-7.085220 -1.426079 0.008473 1
-7.090147 -1.418973 0.008297 1
-7.095049 -1.411850 0.008122 1
-7.099683 -1.405067 0.007957 1
-7.104294 -1.398269 0.007792 1
-7.080890 -1.377130 0.014708 1
-7.113928 -1.383908 0.007448 1
-7.118946 -1.376341 0.007269 1
-7.123935 -1.368756 0.007091 1
-7.128662 -1.361515 0.006922 1
-7.133363 -1.354258 0.006754 1
-7.138039 -1.346984 0.006587 1
-7.142457 -1.340059 0.006429 1
-7.147083 -1.332754 0.006264 1
-7.151684 -1.325432 0.006099 1
-7.156259 -1.318095 0.005936 1
-7.160809 -1.310741 0.005773 1
-7.165107 -1.303741 0.005619 1
-7.174080 -1.288957 0.005298 52
-7.178749 -1.281170 0.005131 1
-7.183170 -1.273738 0.004973 1
-7.187564 -1.266291 0.004815 1
-7.191933 -1.258829 0.004659 1
-7.196276 -1.251351 0.004503 1
-7.204668 -1.236726 0.004203 1
-7.208934 -1.229204 0.004050 1
-7.213173 -1.221667 0.003898 1
-7.215282 -1.217893 0.003822 1
-7.221572 -1.206549 0.003596 1
-7.225939 -1.198589 0.003440 1
-7.230071 -1.190993 0.003291 1
-7.234177 -1.183382 0.003144 1
-7.203894 -1.157283 0.011825 1
-7.242309 -1.168118 0.002852 1
-7.246133 -1.160848 0.002715 1
-7.250134 -1.153182 0.002571 1
-7.254107 -1.145502 0.002428 1
-7.258054 -1.137807 0.002286 1
-7.284927 -1.083569 0.001320 1
-7.292361 -1.067953 0.001052 1
-7.296037 -1.060126 0.000919 1
-7.299504 -1.052678 0.000794 1
-7.303307 -1.044433 0.000657 1
-7.306901 -1.036568 0.000528 1
-7.308866 -1.032236 0.000457 1
-7.317518 -1.012897 0.000145 52
-7.321002 -1.004982 0.000019 1
-7.327886 -0.989116 -0.000230 1
-7.331287 -0.981165 -0.000353 1
-7.338005 -0.965228 -0.000596 52
-7.341322 -0.957242 -0.000716 1
-7.344612 -0.949244 -0.000835 1
-7.347874 -0.941235 -0.000953 1
-7.357491 -0.917140 -0.001301 52
-7.360483 -0.909489 -0.001410 1
-7.369920 -0.884859 -0.001752 52
-7.372957 -0.876762 -0.001863 1
-7.378945 -0.860537 -0.002080 1
-7.386272 -0.840196 -0.002347 52
-7.393280 -0.820201 -0.002602 52
-7.396091 -0.812023 -0.002704 1
-7.399012 -0.803425 -0.002811 1
-7.401764 -0.795227 -0.002911 1
-7.404489 -0.787019 -0.003011 1
-7.407050 -0.779213 -0.003104 1
-7.412357 -0.762752 -0.003298 1
-7.414968 -0.754507 -0.003394 1
-7.420102 -0.737991 -0.003582 52
-7.422626 -0.729719 -0.003674 1
-7.429904 -0.705268 -0.003941 52
-7.432314 -0.696962 -0.004030 1
-7.439370 -0.671996 -0.004289 52
-7.441664 -0.663657 -0.004374 1
-7.443929 -0.655311 -0.004457 1
-7.446053 -0.647375 -0.004535 1
-7.447161 -0.643195 -0.004576 1
-7.460895 -0.588686 -0.005084 52
-7.464871 -0.571853 -0.005232 52
-7.468731 -0.554993 -0.005376 52
-7.470616 -0.546553 -0.005446 1
-7.472472 -0.538106 -0.005515 1
-7.474299 -0.529653 -0.005583 1
-7.476007 -0.521616 -0.005647 1
-7.477688 -0.513574 -0.005710 1
-7.479429 -0.505103 -0.005775 1
-7.481140 -0.496626 -0.005840 1
-7.482822 -0.488143 -0.005903 1
-7.484474 -0.479654 -0.005965 1
-7.487689 -0.462658 -0.006086 1
-7.439487 -0.444585 0.005516 1
-7.490862 -0.445216 -0.006206 1
-7.491692 -0.440532 -0.006237 1
-7.493837 -0.428177 -0.006319 1
-7.495280 -0.419650 -0.006374 1
-7.496624 -0.411544 -0.006425 1
-7.500754 -0.385492 -0.006583 52
-7.501984 -0.377369 -0.006630 1
-7.503250 -0.368813 -0.006679 1
-7.504425 -0.360682 -0.006724 1
-7.505632 -0.352118 -0.006771 1
-7.506809 -0.343550 -0.006816 1
-7.508014 -0.334550 -0.006863 1
-7.470475 -0.320966 0.002078 1
-7.510216 -0.317393 -0.006949 1
-7.511220 -0.309239 -0.006988 1
-7.512248 -0.300652 -0.007029 1
-7.513246 -0.292061 -0.007068 1
-7.514262 -0.283037 -0.007108 1
-7.515198 -0.274440 -0.007145 1
-7.516105 -0.265839 -0.007181 1
-7.516938 -0.257665 -0.007215 1
-7.517786 -0.249058 -0.007249 1
-7.479799 -0.236797 0.001708 1
-7.480190 -0.232559 0.001692 1
-7.520150 -0.223221 -0.007345 1
-7.482036 -0.211361 0.001617 1
-7.521575 -0.205983 -0.007404 1
-7.522243 -0.197360 -0.007432 1
-7.522849 -0.189166 -0.007457 1
-7.473505 -0.168152 0.004183 1
-7.524612 -0.162848 -0.007532 1
-7.525129 -0.154214 -0.007555 1
-7.525616 -0.145580 -0.007577 1
-7.526051 -0.137375 -0.007596 1
-7.526500 -0.128305 -0.007616 1
-7.456810 -0.116537 0.008558 1
-7.527263 -0.111025 -0.007652 1
-7.527599 -0.102383 -0.007668 1
-7.527905 -0.093740 -0.007684 1
-7.528168 -0.085528 -0.007697 1
-7.528416 -0.076883 -0.007710 1
-7.528633 -0.068237 -0.007722 1
-7.478171 -0.058146 0.003963 1
-7.528984 -0.050511 -0.007744 1
-7.478446 -0.041207 0.003944 1
-7.529204 -0.033216 -0.007761 1
-7.478574 -0.028502 0.003933 1
-7.529304 -0.015919 -0.007773 1
-7.529308 -0.007270 -0.007778 1
-7.529283 0.001378 -0.007782 1
-7.529227 0.010027 -0.007784 1
-7.529031 0.026890 -0.007786 52
-7.528886 0.035537 -0.007786 1
-7.528711 0.044184 -0.007784 1
-7.528506 0.052830 -0.007781 1
-7.528271 0.061476 -0.007778 1
-7.528006 0.070120 -0.007773 1
-7.527710 0.078764 -0.007767 1
-7.527384 0.087406 -0.007760 1
-7.526226 0.113326 -0.007733 52
-7.524796 0.139232 -0.007697 1
-7.524287 0.147432 -0.007684 1
-7.445978 0.150381 0.010324 1
-7.523127 0.164690 -0.007652 1
-7.521125 0.190992 -0.007596 1
-7.517323 0.233198 -0.007485 52
-7.516459 0.241804 -0.007460 1
-7.515564 0.250406 -0.007433 1
-7.513637 0.268030 -0.007375 52
-7.510642 0.293367 -0.007283 1
-7.509568 0.301948 -0.007250 1
-7.508463 0.310526 -0.007216 1
-7.506166 0.327669 -0.007145 1
-7.504972 0.336235 -0.007108 1
-7.478388 0.489594 -0.006260 52
-7.420736 0.715333 -0.004365 1
-7.413143 0.739689 -0.004112 52
-7.300956 1.028953 -0.000346 52
-7.297500 1.036405 -0.000229 1
-7.293651 1.044629 -0.000099 1
-7.271080 1.091347 0.000664 52
-7.255492 1.122226 0.001193 52
-7.239677 1.152501 0.001729 52
-7.233768 1.163560 0.001930 52
-7.193456 1.235631 0.003300 1
-7.180299 1.257989 0.003747 52
-7.171399 1.272817 0.004050 52
-7.162395 1.287583 0.004357 52
-7.148927 1.309246 0.004816 1
-7.139436 1.324218 0.005140 1
-7.134768 1.331497 0.005299 1
-7.130075 1.338760 0.005459 1
-7.121088 1.352513 0.005766 1
-7.116321 1.359727 0.005928 1
-7.111529 1.366925 0.006092 1
-7.087106 1.361300 0.011530 1
-7.077239 1.365441 0.013018 2
-7.067851 1.368823 0.014489 2
-7.052053 1.367704 0.017715 5
-7.059778 1.383981 0.014381 5
-7.037364 1.378603 0.019367 4
-7.048411 1.396832 0.015154 4
-7.051670 1.409125 0.013124 3
-7.024303 1.400455 0.019430 3
-7.027262 1.413068 0.017411 5
-7.014412 1.414188 0.019768 5
-7.026957 1.433429 0.015120 5
-7.024788 1.442986 0.014427 5
-7.002522 1.436996 0.019408 3
-7.000577 1.446145 0.018707 3
-6.986160 1.445853 0.021502 3
-6.998118 1.465642 0.016874 3
-7.002232 1.479576 0.014432 5
-6.975440 1.469614 0.020718 5
-6.968987 1.474781 0.021323 3
-6.974072 1.484149 0.019231 3
-7.304409 2.069189 -0.004985 1
-7.245503 2.131279 -0.002960 1
-7.055890 2.309793 0.003568 17
-7.019223 2.340986 0.004832 17
-6.902512 2.433964 0.008859 17
-6.893974 2.440409 0.009154 1
-6.798598 2.509316 0.012448 17
-6.784345 2.604616 0.001626 17
-6.743864 2.663697 -0.001374 17
-6.436927 2.834962 0.009255 17
-6.376906 2.971593 -0.004374 17
-6.335168 2.989813 -0.002926 17
-6.324695 2.994277 -0.002563 1
-6.272449 2.956306 0.008047 17
-6.256772 3.022187 -0.000205 17
-6.219656 3.036690 0.001083 1
-6.198370 3.044773 0.001822 1
-6.177026 3.052707 0.002564 1
-6.156164 3.060299 0.003288 1
-6.102439 3.079115 0.005154 17
-6.091655 3.082766 0.005529 1
-6.070050 3.089953 0.006280 1
-6.059228 3.093491 0.006656 1
-6.037549 3.100452 0.007409 17
-6.004940 3.110609 0.008543 1
-5.999494 3.112268 0.008732 1
-5.961303 3.082525 0.016342 17
-5.939411 3.129895 0.010821 1
-5.928999 3.132823 0.011183 1
-5.918578 3.135716 0.011545 1
-5.907598 3.138724 0.011927 1
-5.885606 3.144625 0.012692 17
-5.874595 3.147517 0.013075 1
-5.863574 3.150372 0.013458 1
-5.852543 3.153187 0.013842 1
-5.840950 3.156102 0.014245 1
-5.829899 3.158839 0.014630 1
-5.818839 3.161537 0.015015 1
-5.797245 3.166687 0.015766 17
-5.786712 3.169143 0.016133 1
-5.775061 3.171816 0.016538 1
-5.752841 3.176790 0.017311 17
-5.742275 3.179099 0.017679 1
-5.736711 3.180300 0.017873 1
-5.718892 3.184077 0.018493 1
-5.707744 3.186387 0.018881 1
-5.696589 3.188658 0.019270 1
-5.685983 3.190780 0.019639 1
-5.675371 3.192866 0.020008 1
-5.664193 3.195024 0.020398 1
-5.653008 3.197143 0.020787 1
-5.641815 3.199223 0.021177 1
-5.630615 3.201264 0.021567 1
-5.623498 3.230597 0.017417 1
-5.607633 3.205326 0.022367 1
-5.596412 3.207247 0.022758 1
-5.585745 3.209036 0.023130 1
-5.573950 3.210972 0.023541 1
-5.562709 3.212776 0.023932 1
-5.552025 3.214453 0.024304 1
-5.530077 3.217785 0.025069 17
-5.516502 3.291538 0.014234 17
-5.505496 3.297055 0.013990 1
-5.490945 3.275128 0.018266 1
-5.473701 3.225643 0.027034 1
-5.476730 3.296901 0.015620 1
-5.439812 3.229886 0.028215 17
-5.439357 3.329321 0.012526 1
-5.424762 3.303177 0.017432 1
-5.405881 3.233773 0.029398 1
-5.399671 3.286061 0.021448 1
-5.388927 3.295116 0.020566 1
-5.378491 3.308068 0.019045 1
-5.364672 3.277674 0.024553 1
-5.358281 3.337756 0.015353 1
-5.344649 3.315197 0.019597 1
-5.375797 -3.356671 0.018246 17
-5.479344 -3.245458 0.030225 17
-5.512615 -3.240884 0.029061 1
-5.622360 -3.275410 0.017107 17
-5.703283 -3.207865 0.022385 17
-5.736155 -3.200985 0.021234 1
-5.879551 -3.166792 0.016208 17
-5.955831 -3.145777 0.013533 1
-5.966763 -3.142601 0.013150 1
-5.977139 -3.139548 0.012786 1
-6.047310 -3.117915 0.010324 17
-6.096509 -3.101707 0.008598 17
-6.181833 -3.071517 0.005602 17
-6.287915 -3.030198 0.001876 17
-6.524456 -2.922064 -0.006441 1
-6.549794 -2.909096 -0.007332 17
-6.564942 -2.901209 -0.007865 1
-6.575521 -2.895642 -0.008238 1
-6.634582 -2.863636 -0.010317 17
-6.664356 -2.846897 -0.011365 1
-6.684108 -2.835565 -0.012061 1
-6.781654 -2.776850 -0.015498 1
-6.742622 -2.652388 0.005836 17
-6.785169 -2.657674 -0.000030 1
-6.831080 -2.627014 -0.001650 17
-6.858367 -2.608235 -0.002612 1
-6.869592 -2.566631 0.001357 17
-6.905921 -2.451953 0.011298 1
-7.006068 -2.372517 0.007759 1
-7.014297 -2.365681 0.007468 1
-7.079258 -2.309970 0.005171 17
-7.173337 -2.223424 0.001840 17
-7.180660 -2.216377 0.001581 1
-7.198686 -2.098442 0.012160 17
-7.221510 -2.034543 0.015712 17
-7.255412 -2.038463 0.010147 17
-7.290792 -1.957606 0.013252 17
-7.289827 -1.916514 0.017647 1
-7.317411 -1.926556 0.012307 1
-7.330726 -1.910696 0.011833 17
-7.364793 -1.912714 0.006262 17
-7.286863 -1.809093 0.028965 1
-7.370414 -1.823988 0.014159 1
-7.395305 -1.830430 0.009536 1
-7.330119 -1.753973 0.027425 17
-7.444876 -1.764714 0.007771 17
-7.446762 -1.715093 0.012062 17
-7.464472 -1.689926 0.011430 1
-7.492900 -1.697222 0.006058 1
-7.476132 -1.673045 0.011014 1
-7.431420 -1.612939 0.023814 17
-7.539022 -1.628415 0.004412 17
-7.500712 -1.579036 0.015115 17
-7.472802 -1.549700 0.022336 1
-7.521278 -1.568662 0.012513 1
-7.514815 -1.481527 0.020833 1
-7.525021 -1.464302 0.020468 1
-7.564389 -1.395142 0.019057 1
-7.717121 -1.314206 -0.001972 1
-7.907304 -0.286694 0.006501 17
-7.913166 -0.217360 0.006260 1
-7.915207 -0.186891 0.006173 17
-7.915805 -0.176897 0.006147 1
-7.916369 -0.166901 0.006122 1
-7.919861 -0.077365 0.005953 1
-7.920088 -0.066855 0.005940 1
-7.920268 -0.056844 0.005928 1
-7.920643 -0.006786 0.005889 17
-7.647714 1.369202 0.003429 17
-7.632752 1.372206 0.005829 1
-7.606150 1.363608 0.011145 1
-7.602129 1.379295 0.010651 2
-7.604143 1.391991 0.009322 2
-7.575456 1.387049 0.014709 2
-7.573746 1.398213 0.014137 2
-7.572236 1.408944 0.013558 2
-7.565563 1.416756 0.014100 2
-7.567379 1.429444 0.012777 3
-7.550449 1.431304 0.015559 3
-7.542014 1.438028 0.016476 1
-7.540330 1.448708 0.015903 1
-7.535481 1.456950 0.016068 4
-7.543570 1.474128 0.013272 4
-7.541739 1.484849 0.012705 1
-7.516374 1.481255 0.017349 1
-7.526224 1.499105 0.014178 3
-7.515932 1.504627 0.015474 3
-7.513966 1.515298 0.014911 1
-7.485340 1.509232 0.020296 1
-6.705516 3.573002 0.016163 21
-6.699388 -3.666062 0.012363 21
-6.686117 -3.602463 0.020597 1
-7.933375 -2.413382 0.000320 21
-8.341802 1.385857 0.006018 1
-8.344171 1.400458 0.004952 1
-8.324732 1.405633 0.007579 1
-8.311392 1.406593 0.009508 1
-8.347293 1.442858 0.002382 1
-8.324165 1.446277 0.005627 1
-8.293850 1.446298 0.010100 1
-8.277960 1.452683 0.012115 1
-8.265655 1.460627 0.013516 2
-8.307107 1.493478 0.005710 2
-8.284209 1.495877 0.008947 1
-8.267951 1.502641 0.010975 1
-8.251951 1.508747 0.012994 1
-8.257585 1.524490 0.011325 1
-7.244305 4.873943 0.012854 2
-7.226104 4.925593 0.009974 2
-7.193069 4.896631 0.014631 2
-7.168101 4.885785 0.017253 2
-7.155673 4.904130 0.016631 2
-7.127722 4.885762 0.020058 4
-7.110630 4.892977 0.020651 4
-7.088963 4.889093 0.022457 6
-7.069603 4.890645 0.023655 6
-7.052605 4.895462 0.024421 15
-7.038435 4.909803 0.024210 15
-7.030052 4.938907 0.022395 27
-7.014851 4.925688 0.024502 27
-6.987556 4.932185 0.025801 27
-6.976722 4.955629 0.024597 27
-6.962921 4.971617 0.024199 27
-6.937826 4.957766 0.027001 27
-6.919096 4.960586 0.028002 18
-6.905867 4.978276 0.027408 18
-6.884368 4.973495 0.029208 9
-6.868320 4.983604 0.029414 9
-6.856436 5.002720 0.028599 9
-6.832772 4.994281 0.030825 9
-6.836906 5.062485 0.024889 2
-6.811422 5.046103 0.027880 2
-6.636723 5.207664 0.025175 36
-6.604334 5.198705 0.027881 4
-6.584486 5.198356 0.029097 4
-6.570699 5.218979 0.028173 6
-6.553532 5.228077 0.028419 6
-6.536856 5.239037 0.028472 13
-6.517334 5.236255 0.029853 13
-6.499415 5.239163 0.030652 11
-6.483159 5.251873 0.030515 11
-6.460207 5.239516 0.032893 6
-6.444398 5.254029 0.032565 6
-6.452818 5.362960 0.022795 2
-6.415295 5.372608 0.024101 2
-6.369263 5.351268 0.028510 2
-6.357945 5.386816 0.026096 2
-6.283453 5.404306 0.028688 36
-6.263611 5.408783 0.029379 2
-6.227666 5.416698 0.030630 2
-6.085153 5.498314 0.031029 2
-6.031879 5.657641 0.019899 2
-6.000353 5.590312 0.027314 2
-5.933863 5.673730 0.023313 36
-5.875322 5.682511 0.025353 2
-5.854464 5.685491 0.026080 2
-5.834589 5.688258 0.026772 2
-5.814705 5.690956 0.027465 2
-5.785857 5.694744 0.028471 36
-5.755993 5.698509 0.029512 2
-5.738842 5.724669 0.028004 2
-5.716146 5.703285 0.030901 2
-5.697266 5.905836 0.014012 2
-5.669312 5.836729 0.021303 2
-5.655974 5.910201 0.015452 2
-5.635316 5.912275 0.016172 2
-5.607647 5.826913 0.024857 2
-5.586226 5.816915 0.026657 2
-5.566570 5.826683 0.026641 2
-8.686578 -3.378877 0.001693 2
-9.585432 1.429302 -0.014771 36
-9.451892 1.403663 0.001766 1
-9.450707 1.420241 0.001450 1
-9.407985 1.423126 0.006429 1
-9.455684 1.455942 -0.000138 1
-9.409163 1.457308 0.005323 1
-9.380280 1.455958 0.008774 1
-9.391312 1.485085 0.006630 1
-9.393565 1.502842 0.005844 1
-9.395747 1.520632 0.005061 1
-9.379164 1.531768 0.006680 1
-10.665057 5.134308 -0.037330 33
-10.606111 5.115939 -0.032329 1
-10.515279 5.067305 -0.023895 1
-10.503346 5.091801 -0.023910 1
-10.473925 5.099835 -0.022049 1
-10.464728 5.126977 -0.022370 5
-10.452531 5.151356 -0.022376 5
-10.425885 5.161862 -0.020823 3
-10.384937 5.158345 -0.017715 3
-10.395367 5.204826 -0.020199 1
-10.353134 5.729930 -0.037223 33
-10.333076 5.748398 -0.036532 1
-10.271506 5.804291 -0.034411 33
-10.250173 5.823381 -0.033676 1
-10.178041 5.780764 -0.026946 1
-10.145679 5.782729 -0.024769 1
-10.099258 5.770381 -0.021047 1
-10.160019 5.902522 -0.030569 33
-10.127973 5.930069 -0.029465 1
-10.107219 5.947750 -0.028749 1
-10.087445 5.964479 -0.028067 1
-10.066571 5.982018 -0.027348 1
-10.027830 5.977977 -0.024526 1
-10.000796 5.990008 -0.023170 1
-9.977312 6.004154 -0.022148 1
-9.948768 6.012009 -0.020527 1
-9.890227 5.982441 -0.015325 1
-9.884228 6.017992 -0.016391 1
-9.839434 6.002728 -0.012724 1
-9.827246 6.032769 -0.013152 1
-9.830701 6.080826 -0.015392 1
-9.573616 5.916624 0.008753 1
-9.512072 5.878228 0.014484 1
-9.508241 5.916106 0.013131 1
-9.486503 5.932393 0.013882 1
-9.465745 5.947830 0.014599 1
-9.488667 6.025117 0.009778 1
-9.472276 6.047016 0.009920 1
-9.423219 6.003785 0.015007 1
-9.387876 6.014581 0.016864 1
-9.346018 6.000418 0.020218 1
-9.321571 6.010476 0.021381 1
-9.273063 5.986136 0.025601 1
-9.241865 5.986090 0.027633 2
-9.225455 6.007238 0.027776 2
-9.229249 6.057960 0.025313 1
-9.195776 6.056728 0.027530 1
-9.190209 6.094296 0.026239 1
-9.175550 6.118641 0.026109 1
-9.124283 6.085768 0.030849 1
-9.109586 6.109928 0.030722 1
-9.088211 6.124047 0.031461 1
-9.047215 6.107987 0.034786 1
-9.026917 6.121195 0.035488 2
-8.987222 6.108834 0.038556 2
-8.958364 6.110738 0.040296 2
-8.947624 6.141205 0.039608 2
-8.924042 6.149009 0.040741 2
-8.881485 6.128583 0.044333 2
-8.853768 6.131714 0.045928 2
-8.847887 6.172835 0.044436 2
-8.822158 6.179216 0.045750 2
-8.742232 6.073714 0.055509 2
-8.606125 5.913511 0.071238 2
-8.589505 5.932737 0.071389 2
-8.599070 5.996642 0.067880 2
-8.598185 6.043449 0.065792 2
-8.601011 6.097232 0.063151 2
-8.561817 6.078422 0.066415 2
-8.540555 6.090626 0.067151 2
-8.468267 6.012403 0.075163 2
-8.433595 5.999907 0.077846 4
-8.413576 6.013407 0.078433 4
-8.415635 6.067040 0.075820 2
-8.391545 6.073480 0.076972 2
-8.393102 6.127196 0.074376 2
-8.395404 6.180415 0.071754 2
-8.369239 6.180894 0.073296 2
-8.332705 6.164200 0.076256 2
-8.314850 6.182673 0.076451 2
-8.276669 6.162144 0.079680 2
-8.256944 6.176898 0.080152 2
-8.220819 6.159606 0.083098 2
-8.199277 6.170618 0.083845 2
-8.177695 6.181555 0.084593 2
-8.147188 6.174552 0.086709 2
-8.143481 6.194243 0.085990 2
-8.091692 6.170890 0.090115 2
-8.073591 6.188633 0.090319 2
-8.043309 6.181144 0.092428 2
-8.019978 6.187932 0.093448 2
-7.989824 6.180195 0.095553 2
-7.966521 6.186784 0.096573 2
-7.925832 6.152951 0.100525 2
-7.914306 6.184694 0.099654 2
-7.889372 6.187369 0.100942 2
-7.798857 6.044407 0.112976 2
-7.769582 6.035723 0.115050 2
-7.687930 5.908288 0.125823 2
-7.696900 5.985065 0.121594 2
-7.688681 6.023534 0.120186 2
-7.681014 6.063853 0.118652 2
-7.666062 6.087667 0.118323 2
-7.640897 6.087546 0.119726 2
-7.588085 6.021029 0.125899 2
-7.598290 6.105442 0.121204 2
-7.590548 6.147522 0.119568 2
-7.558129 6.126302 0.122387 2
-7.538193 6.138702 0.122867 2
-7.522623 6.162165 0.122560 2
-7.497178 6.129343 0.125561 2
-7.469362 6.153197 0.125891 2
-7.443541 6.150409 0.127423 2
-7.424879 6.166163 0.127647 2
-7.394864 6.151986 0.129960 2
-7.376144 6.167590 0.130186 2
-7.351813 6.168161 0.131455 2
-7.324766 6.161139 0.133241 2
-7.305937 6.176528 0.133471 2
-7.276011 6.157644 0.135992 2
-7.262717 6.192081 0.134972 2
-7.241067 6.199744 0.135724 2
-7.203739 6.162060 0.139561 2
-7.181980 6.165369 0.140529 2
-7.151474 6.146280 0.143070 2
-7.131249 6.157341 0.143561 2
-7.108469 6.160754 0.144565 2
-7.086928 6.167878 0.145313 2
-7.065364 6.174927 0.146062 2
-6.979517 5.980322 0.160264 3
-6.995780 6.105031 0.153137 3
-6.976807 6.119385 0.153373 3
-6.947791 6.101246 0.155758 3
-6.900957 6.023767 0.162042 3
-6.904260 6.072841 0.159387 3
-6.859945 6.040320 0.163256 6
-6.834910 6.033164 0.164867 6
-6.793360 5.968366 0.170227 12
-6.771400 5.970550 0.171203 12
-6.764013 6.024541 0.168814 3
-6.760531 6.089800 0.165655 3
-6.755054 6.149326 0.162882 3
-6.735637 6.162924 0.163134 3
-6.714604 6.170674 0.163760 6
-6.692019 6.172560 0.164757 6
-6.673440 6.189825 0.164768 6
-6.645884 6.172217 0.166997 6
-6.608744 6.115770 0.171675 3
-6.584377 6.113663 0.172946 3
-6.555918 6.089863 0.175523 6
-6.565830 6.225116 0.168089 6
-6.564262 6.315828 0.163487 2
-6.540574 6.309125 0.164947 2
-6.511594 6.278985 0.167860 2
-6.493814 6.307643 0.167209 2
-6.474980 6.332357 0.166806 2
-6.453102 6.333123 0.167779 2
-6.691753 7.547922 0.093873 1
-6.674413 7.531240 0.095535 1
-6.631081 7.534304 0.097360 1
-6.608728 7.559324 0.097081 1
-6.585049 7.578407 0.097164 1
-6.567578 7.622621 0.095657 1
-6.541518 7.623675 0.096776 1
-6.511910 7.613125 0.098653 1
-6.481665 7.598536 0.100764 1
-6.452968 7.591684 0.102398 1
-6.418729 7.553277 0.105918 1
-6.395822 7.585760 0.105235 1
-6.124389 6.157694 0.191709 3
-6.105173 6.175164 0.191637 3
-6.084023 6.174663 0.192586 9
-6.062624 6.186268 0.192908 9
-6.041001 6.189738 0.193661 15
-6.014703 6.155466 0.196588 15
-6.197815 7.517120 0.117422 1
-5.969271 6.138129 0.199440 1
-5.935688 6.056277 0.205159 13
-5.903566 5.988257 0.210087 13
-5.879688 5.969406 0.212083 20
-5.854647 5.940563 0.214648 20
-5.832376 5.923367 0.216482 27
-5.818261 5.894995 0.218561 27
-5.785184 5.881052 0.220666 23
-5.763693 5.875621 0.221838 23
-5.742249 5.870111 0.223009 30
-5.720851 5.864522 0.224178 30
-5.698224 5.846944 0.226025 30
-5.676963 5.841196 0.227189 30
-5.656547 5.843318 0.227901 30
-5.634970 5.833444 0.229288 30
-5.615972 5.839299 0.229739 33
-5.593776 5.821320 0.231571 33
-5.573430 5.823152 0.232280 37
-6.041853 -11.046556 -0.049233 9
-6.079254 -11.031092 -0.049919 9
-6.115426 -11.003573 -0.049939 9
-6.155337 -11.015684 -0.052165 9
-6.195346 -11.027649 -0.054393 9
-6.230596 -11.011872 -0.055004 9
-6.270699 -11.023562 -0.057236 9
-6.305984 -10.991450 -0.057019 9
-6.352195 -11.038342 -0.061331 9
-6.390659 -11.033726 -0.062677 9
-6.426661 -11.009157 -0.062900 9
-6.468125 -11.044148 -0.066424 10
-6.502482 -11.007446 -0.065967 10
-6.538188 -10.982514 -0.066180 9
-6.577543 -10.985162 -0.067972 9
-6.622255 -11.039351 -0.072647 10
-6.640926 -11.032636 -0.073093 10
-6.693909 -10.992543 -0.073288 9
-6.736994 -11.018322 -0.076455 9
-6.777832 -11.028148 -0.078714 10
-6.811566 -10.992464 -0.078340 10
-6.852744 -11.003983 -0.080714 30
-6.890105 -10.991709 -0.081711 30
-6.936069 -11.030493 -0.085705 10
-6.978584 -11.047447 -0.088437 10
-7.009440 -10.997385 -0.087237 10
-7.059791 -11.057283 -0.092525 10
-7.089902 -11.015204 -0.091713 10
-7.126077 -10.996237 -0.092358 10
-7.166634 -11.000685 -0.094400 10
-7.211818 -11.028502 -0.097849 10
-7.251793 -11.028717 -0.099664 10
-7.290558 -11.012738 -0.100607 10
-7.332945 -11.024402 -0.103128 10
-7.370536 -11.012450 -0.104238 10
-7.409476 -11.016406 -0.106224 10
-7.446169 -11.000291 -0.107095 10
-7.487923 -11.007453 -0.109387 10
-7.530627 -11.018353 -0.111920 10
-7.573437 -11.029089 -0.114457 10
-7.590869 -11.016880 -0.114653 10
-7.651067 -11.023306 -0.117799 10
-7.683922 -10.990847 -0.117706 10
-7.722212 -10.981578 -0.119048 10
-7.768083 -11.003198 -0.122315 10
-7.808346 -11.001384 -0.124141 10
-7.855480 -11.026519 -0.127659 10
-7.888932 -10.997313 -0.127795 10
-7.931265 -11.002785 -0.130108 10
-7.969717 -11.000883 -0.131871 10
-8.016295 -11.021471 -0.135162 10
-8.052771 -11.011565 -0.136441 10
-8.091130 -11.001008 -0.137786 10
-8.095666 -9.016462 -0.039485 33
-8.093401 -8.911817 -0.034224 5
-8.147781 -8.969101 -0.039863 5
-8.181636 -8.965778 -0.041466 5
-8.217314 -8.868472 -0.038574 5
-10.100283 -5.576473 -0.006763 33
-10.118701 -5.559706 -0.007415 1
-10.125521 -5.526400 -0.006623 1
-10.158257 -5.523316 -0.008815 1
-10.177459 -5.505463 -0.009495 1
-10.210225 -5.502103 -0.011688 1
-10.215674 -5.469555 -0.010848 1
-10.277293 -5.270932 -0.007867 1
-9.923993 -3.874384 0.066581 3
-10.009741 -2.519739 0.097649 3
-10.006005 -2.496159 0.098500 3
-10.016431 -2.479759 0.098023 27
-10.085747 -2.492490 0.092048 27
-10.101533 -2.478432 0.091071 3
-11.524366 1.510908 -0.014748 33
-11.557775 1.542760 -0.018026 2
-11.474371 1.582153 -0.011364 33
-11.367123 5.770376 0.187659 21
-11.335180 5.781503 0.189048 1
-10.527849 5.992807 0.224465 21
-10.458666 5.958456 0.228156 1
-10.447436 5.990101 0.228252 1
-10.441360 6.027717 0.228025 1
-10.442493 6.069482 0.227405 1
-10.084156 5.909415 0.246219 21
-9.890022 5.759429 0.257268 21
-9.869866 5.776246 0.257963 1
-9.785127 5.716690 0.262700 1
-9.719584 5.677441 0.266267 1
-9.712310 5.709178 0.266155 1
-9.667249 5.694254 0.268435 1
-9.607366 5.660361 0.271661 1
-9.578601 5.662884 0.272944 1
-9.540463 5.657431 0.274767 1
-9.513271 5.663586 0.275923 1
-9.501805 5.687778 0.276102 1
-9.465794 5.680326 0.277852 1
-9.436186 5.682974 0.279164 1
-9.392085 5.666405 0.281411 1
-9.371051 5.679887 0.282174 1
-9.343978 5.685300 0.283326 3
-9.282501 5.646456 0.286680 3
-9.250862 5.645080 0.288135 3
-9.213568 5.637832 0.289930 3
-9.205606 5.668440 0.289843 3
-9.180621 5.656970 0.291141 3
-9.144559 5.663324 0.292676 3
-9.108500 5.654753 0.294429 3
-9.079477 5.655788 0.295721 3
-9.055093 5.663232 0.296708 3
-9.028419 5.667295 0.297847 3
-8.988116 5.651520 0.299892 3
-8.957026 5.648712 0.301328 3
-8.927267 5.649733 0.302646 3
-8.907498 5.663186 0.303329 3
-8.876544 5.659976 0.304761 3
-8.844430 5.652634 0.306306 3
-8.818036 5.655796 0.307435 3
-8.791666 5.658843 0.308564 3
-8.763139 5.658425 0.309840 3
-8.729136 5.647168 0.311522 5
-8.709468 5.662247 0.312166 5
-8.673555 5.649651 0.313951 5
-8.636708 5.635182 0.315804 5
-8.611609 5.636841 0.316889 5
-8.585550 5.639009 0.318007 5
-8.549020 5.624059 0.319850 3
-8.546105 5.665771 0.319336 3
-8.507601 5.647147 0.321319 1
-8.493636 5.648618 0.321911 1
-8.461853 5.658451 0.323155 3
-8.425733 5.642779 0.324984 3
-8.393821 5.633813 0.326522 4
-8.378144 5.652305 0.326920 4
-8.356366 5.660381 0.327746 4
-8.332580 5.664908 0.328714 4
-8.298900 5.651976 0.330386 6
-8.263382 5.635397 0.332194 6
-8.247581 5.653504 0.332596 4
-8.223916 5.657596 0.333560 4
-8.194467 5.651092 0.334941 4
-8.167020 5.647958 0.336181 4
-8.133912 5.634161 0.337833 4
-8.118981 5.651350 0.338206 4
-8.094550 5.650871 0.339269 4
-8.077590 5.666713 0.339748 4
-8.036387 5.636499 0.342006 6
-8.007437 5.629112 0.343370 6
-7.994167 5.651783 0.343577 6
-7.968020 5.649522 0.344736 6
-7.942830 5.648929 0.345825 6
-7.907794 5.628590 0.347653 6
-7.872043 5.606286 0.349542 6
-7.864910 5.616548 0.349681 6
-7.826630 5.613186 0.351369 6
-7.802628 5.613804 0.352381 6
-7.782125 5.621527 0.353128 6
-7.747825 5.600312 0.354931 6
-7.729091 5.611452 0.355544 4
-7.706070 5.613479 0.356487 4
-7.682364 5.611331 0.357525 6
-7.659393 5.613172 0.358466 6
-7.638101 5.618558 0.359277 4
-7.621743 5.634793 0.359700 4
-7.600401 5.640036 0.360512 6
-7.579054 5.645199 0.361325 6
-7.551267 5.635642 0.362649 8
-7.530758 5.642454 0.363397 8
-7.509441 5.647357 0.364208 8
-7.482624 5.639311 0.365463 8
-7.466016 5.655081 0.365895 6
-7.436971 5.641303 0.367336 6
-7.411115 5.634778 0.368522 10
-7.386852 5.631838 0.369580 10
-7.369648 5.643211 0.370105 4
-7.343938 5.636387 0.371286 4
-7.319785 5.633167 0.372341 6
-7.311412 5.640811 0.372559 6
-7.274538 5.633876 0.374200 4
-7.258440 5.650877 0.374578 4
-7.230820 5.637962 0.375934 10
-7.208272 5.638010 0.376861 10
-7.182946 5.630481 0.378029 10
-7.162560 5.635965 0.378773 10
-7.141475 5.639499 0.379577 12
-7.124480 5.654230 0.380023 12
-7.098943 5.642213 0.381270 12
-7.073545 5.636442 0.382405 12
-7.053835 5.643418 0.383089 10
-7.034756 5.652215 0.383716 10
-7.012734 5.649261 0.384661 12
-6.983342 5.627629 0.386223 12
-6.963027 5.632395 0.386965 12
-6.940186 5.629498 0.387938 12
-6.920500 5.636009 0.388623 12
-6.897096 5.631039 0.389652 12
-6.871312 5.618359 0.390908 12
-6.850461 5.620817 0.391705 12
-6.827229 5.615565 0.392729 12
-6.812309 5.636964 0.392959 12
-6.787937 5.627729 0.394094 12
-6.771147 5.607766 0.395110 12
-6.740019 5.610871 0.396300 14
-6.718149 5.609009 0.397205 14
-6.719665 5.687718 0.395783 6
-6.765694 5.924134 0.389861 6
