# .PCD v.7 - Point Cloud Data file format
VERSION .7
FIELDS x y z intensity
SIZE 4 4 4 1
TYPE F F F U
COUNT 1 1 1 1
WIDTH 1577
HEIGHT 1
VIEWPOINT 0 0 0 1 0 0 0
POINTS 1577
DATA ascii
-0.054389 1.745855 0.008722 1
-0.055167 1.737869 0.010348 1
-0.055849 1.729565 0.011971 1
-0.044131 1.719161 0.008491 1
-0.027918 1.717242 0.001693 1
-0.028942 1.709561 0.003322 1
-0.019662 1.705322 -0.000105 1
-0.024021 1.696054 0.003205 2
-0.014770 1.691751 -0.000223 1
-0.029445 1.678856 0.008142 0
-0.023894 1.673993 0.006405 1
-0.024971 1.666030 0.008031 0
0.011639 1.671113 -0.008877 1
-0.010054 1.656015 0.002859 0
-0.021517 1.644558 0.009542 1
-0.025930 1.634812 0.012848 1
-0.010159 1.633275 0.006054 1
-0.014850 1.624212 0.009366 1
-0.009223 1.618527 0.007622 0
-0.007068 1.611710 0.007564 0
-0.001477 1.605974 0.005819 1
-0.002830 1.598054 0.007447 0
-0.004215 1.590150 0.009074 1
-0.009102 1.581212 0.012388 2
-0.010552 1.573355 0.014016 0
0.001881 1.569626 0.008898 1
0.002339 1.554904 0.010467 1
0.021717 1.553003 0.001976 1
0.002594 1.540547 0.012040 0
0.007972 1.534657 0.010294 1
0.006335 1.526825 0.011923 1
0.018676 1.522783 0.006803 1
0.024001 1.516800 0.005057 0
0.043343 1.514460 -0.003439 1
0.020553 1.501116 0.008313 1
0.015268 1.492408 0.011630 0
0.027450 1.488498 0.006511 0
0.029319 1.480859 0.006446 0
0.038041 1.475622 0.003011 0
0.043141 1.469834 0.001267 0
0.044776 1.462835 0.001208 1
0.039322 1.454190 0.004524 0
0.044360 1.448363 0.002780 1
0.045920 1.441360 0.002721 1
0.041881 1.425795 0.005979 1
0.046908 1.419559 0.004231 1
0.037723 1.410308 0.009238 0
0.024947 1.400391 0.015934 1
0.044107 1.397065 0.007431 0
0.049045 1.390773 0.005683 1
0.043287 1.382360 0.009002 1
0.041057 1.374676 0.010632 1
0.038797 1.367013 0.012263 1
0.050770 1.362009 0.007135 0
0.044894 1.353690 0.010455 0
0.046063 1.347036 0.010399 1
0.050841 1.340650 0.008651 1
0.048452 1.333014 0.010281 0
0.053186 1.326596 0.008532 0
0.057899 1.320148 0.006783 1
0.048272 1.311380 0.011795 0
0.052936 1.304924 0.010046 1
0.046829 1.296796 0.013367 1
0.047861 1.289786 0.013309 0
0.052455 1.283294 0.011559 1
0.053439 1.276264 0.011500 1
0.050808 1.268732 0.013132 1
0.051742 1.261708 0.013074 0
0.059839 1.255625 0.009633 0
0.049940 1.247189 0.014647 2
0.061590 1.241511 0.009515 0
0.058747 1.234719 0.011153 0
0.063992 1.220670 0.009341 0
0.057552 1.212804 0.012665 1
0.069139 1.206557 0.007528 1
0.066250 1.199097 0.009161 1
0.063266 1.192366 0.010800 1
0.067573 1.185293 0.009046 0
0.060997 1.177541 0.012372 0
-3.990218 1.181711 0.013975 1
-3.986019 1.187732 0.015709 1
-3.974513 1.193704 0.020816 1
-3.984572 1.202570 0.015829 1
-3.976703 1.208145 0.019247 1
-3.975956 1.215179 0.019303 1
-3.978790 1.222625 0.017677 0
-3.967182 1.228383 0.022782 1
-3.962763 1.234943 0.024521 1
-3.969123 1.242834 0.021212 1
-3.968256 1.249842 0.021269 1
-3.963766 1.256368 0.023007 1
-3.952063 1.261884 0.028110 2
-3.965505 1.270845 0.021438 1
-3.971773 1.278521 0.018127 1
-3.970731 1.285888 0.018186 1
-3.973301 1.293442 0.016561 1
-3.957962 1.297901 0.023341 0
-3.960487 1.305434 0.021715 1
-3.962983 1.312989 0.020090 1
-3.954709 1.318794 0.023508 2
-3.967892 1.328162 0.016839 2
-3.963149 1.334549 0.018576 2
-3.965536 1.342163 0.016951 1
-3.964322 1.349157 0.017007 1
-3.959512 1.355495 0.018744 1
-3.965452 1.363448 0.015435 2
-3.946333 1.367057 0.023894 1
-3.962850 1.377431 0.015547 2
-3.961513 1.384416 0.015602 0
-3.945915 1.388539 0.022379 1
-3.948095 1.396191 0.020754 1
-3.946692 1.403124 0.020809 1
-3.938162 1.408550 0.024224 1
-3.936716 1.415448 0.024279 1
-3.945884 1.424670 0.019295 1
-3.944382 1.431595 0.019350 1
-3.939391 1.437369 0.021081 1
-3.944921 1.445896 0.017777 1
-3.943344 1.452818 0.017832 1
-3.941744 1.459734 0.017887 1
-3.940119 1.466645 0.017941 1
-3.924363 1.470102 0.024713 1
-3.940321 1.481323 0.016371 1
-3.938621 1.488228 0.016426 0
-3.936897 1.495128 0.016480 1
-3.935149 1.502021 0.016535 1
-3.926354 1.507061 0.019947 1
-3.933265 1.523612 0.015019 1
-3.931417 1.530492 0.015073 1
-3.940041 1.540283 0.010093 2
-3.924345 1.542564 0.016854 1
-3.922239 1.550098 0.016913 1
-3.927471 1.558271 0.013606 1
-3.928888 1.566494 0.011985 1
-3.920029 1.570952 0.015391 1
-3.928450 1.580918 0.010412 2
-3.919454 1.585669 0.013821 1
-3.920756 1.593912 0.012200 1
-3.911730 1.598586 0.015608 1
-3.923579 1.609421 0.008949 1
-3.914406 1.614399 0.012360 1
-3.915697 1.622330 0.010736 1
-3.903151 1.625761 0.015820 1
-3.894163 1.629916 0.019224 1
-3.909163 1.642423 0.010893 1
-3.913666 1.651888 0.007595 1
-3.897629 1.653991 0.014355 1
-3.895558 1.660071 0.014402 1
-3.903283 1.671097 0.009430 0
-3.894193 1.675108 0.012833 1
-3.888398 1.680627 0.014562 1
-3.900759 1.699967 0.006283 1
-3.901579 1.708332 0.004662 1
-3.888881 1.711284 0.009742 1
-3.876187 1.714157 0.014822 1
-3.877068 1.722132 0.013198 1
-3.877916 1.730123 0.011574 1
-3.878732 1.738129 0.009950 1
-3.872757 1.743486 0.011677 1
-3.866767 1.748811 0.013404 1
-3.871140 1.757501 0.010100 1
-3.861478 1.762096 0.013507 1
-3.859067 1.768062 0.013553 1
-3.859588 1.776402 0.011931 1
-3.840101 1.776019 0.020357 1
-3.850897 1.787894 0.013705 1
-3.851330 1.796239 0.012084 1
-3.838522 1.798523 0.017159 1
-3.839188 1.806191 0.015532 1
-3.839681 1.814201 0.013908 1
-3.833355 1.819609 0.015635 1
-3.854210 1.844281 0.002338 0
-3.831553 1.841527 0.012431 1
-3.821994 1.845019 0.015829 1
-3.822172 1.853361 0.014207 1
-3.816154 1.866332 0.014306 1
-3.809831 1.871239 0.016029 0
-3.816748 1.882085 0.011055 0
-3.803688 1.884124 0.016128 1
-3.807386 1.901467 0.011203 1
-3.804221 1.907906 0.011252 1
-3.807527 1.917594 0.007954 2
-3.807546 1.925675 0.006330 1
-3.785205 1.921560 0.016412 1
-3.788267 1.931566 0.013117 1
-3.791445 1.941288 0.009820 1
-3.768994 1.937239 0.019902 2
-3.788194 1.955420 0.008241 1
-3.784841 1.961792 0.008289 1
-3.787697 1.971909 0.004995 2
-3.774701 1.973086 0.010060 1
-3.777663 1.982894 0.006763 1
-3.764666 1.983969 0.011827 1
-3.761385 1.989944 0.011872 2
-3.767249 2.001861 0.006906 1
-3.754591 2.002175 0.011965 2
-3.750721 2.009053 0.012016 1
-3.750688 2.016477 0.010387 1
-3.750088 2.024848 0.008764 2
-3.746673 2.030774 0.008808 2
-3.739741 2.035471 0.010529 1
-3.729855 2.037970 0.013918 1
-3.732454 2.047862 0.010622 1
-3.728778 2.054038 0.010668 1
-3.728188 2.062086 0.009043 1
-3.727563 2.070142 0.007417 2
-3.720715 2.074396 0.009134 2
-3.714047 2.078308 0.010849 1
-3.713346 2.086347 0.009224 1
-3.714909 2.104397 0.004302 1
-3.701852 2.104635 0.009360 2
-3.704281 2.114339 0.006061 2
-3.700373 2.120417 0.006106 2
-3.693207 2.124793 0.007824 1
-3.695330 2.134835 0.004528 1
-3.682270 2.134845 0.009583 1
-3.687551 2.146612 0.004615 1
-3.671278 2.144799 0.011342 2
-4.881673 2.778351 0.020675 1
-4.865590 2.782458 0.023924 1
-4.859656 2.792080 0.023996 1
-4.866136 2.810884 0.019845 1
-4.853583 2.816389 0.022031 1
-4.853087 2.831624 0.019999 1
-4.847312 2.840700 0.020066 1
-4.840861 2.850763 0.020141 1
-4.837609 2.862908 0.019158 1
-4.833651 2.876055 0.018183 1
-4.827736 2.885070 0.018250 1
-4.821131 2.895064 0.018324 1
-4.811287 2.902886 0.019454 1
-4.810677 2.917642 0.017418 1
-4.804295 2.927080 0.017487 1
-4.800385 2.939671 0.016508 1
-4.793931 2.949075 0.016577 1
-4.777605 2.952336 0.019819 1
-4.777081 2.966587 0.017778 1
-4.770192 2.976404 0.017850 1
-4.763268 2.986197 0.017922 1
-4.756659 2.995478 0.017990 1
-4.749668 3.005224 0.018062 1
-4.748883 3.019485 0.016021 1
-4.751144 3.036047 0.012925 1
-4.734702 3.038897 0.016163 1
-4.727560 3.048566 0.016234 1
-4.717297 3.055896 0.017360 1
-4.710096 3.065504 0.017430 1
-4.709004 3.079756 0.015388 1
-4.701721 3.089335 0.015458 1
-4.694403 3.098889 0.015528 1
-4.687052 3.108416 0.015597 1
-4.685746 3.122674 0.013555 1
-4.675654 3.129309 0.014676 1
-4.674242 3.143567 0.012634 1
-4.657693 3.145798 0.015867 1
-4.649802 3.155667 0.015939 1
-4.645629 3.167000 0.014948 1
-4.647007 3.183678 0.011852 1
-4.642342 3.195490 0.010865 1
-4.631682 3.202374 0.011986 1
-4.621007 3.209211 0.013108 1
-4.607363 3.213519 0.015283 1
-4.605505 3.227726 0.013241 1
-4.601424 3.238523 0.012246 1
-4.587336 3.243161 0.014424 1
-4.585323 3.257358 0.012381 1
-4.583640 3.271111 0.010335 1
-4.569882 3.275167 0.012508 1
-4.570199 3.292371 0.009415 1
-4.547750 3.288651 0.014748 1
-4.554117 3.310529 0.009544 1
-4.540699 3.313950 0.011712 1
-4.546483 3.336352 0.006511 1
-4.529757 3.337554 0.009736 1
-4.515895 3.341280 0.011906 1
-4.513361 3.355428 0.009862 1
-4.502295 3.361690 0.010979 1
-4.503296 3.377584 0.007875 1
-4.491753 3.384234 0.008994 1
-4.475441 3.384630 0.012212 1
-4.469880 3.396063 0.011221 1
-4.463849 3.407922 0.010233 1
-4.461378 3.421587 0.008185 1
-4.457992 3.436134 0.006143 1
-4.438475 3.433996 0.010415 1
-4.435860 3.447635 0.008367 1
-4.432322 3.462146 0.006325 1
-4.418267 3.465280 0.008491 1
-4.410503 3.472987 0.008544 1
-4.404550 3.484277 0.007551 1
-4.390472 3.487260 0.009715 1
-4.389377 3.504473 0.006620 1
-4.380612 3.512933 0.006679 1
-4.371819 3.521363 0.006737 1
-4.360343 3.526959 0.007848 1
-4.344014 3.526464 0.011059 1
-4.339995 3.540824 0.009015 1
-4.336797 3.554359 0.006965 1
-4.327858 3.562636 0.007022 1
-4.318892 3.570881 0.007079 1
-4.305158 3.572971 0.009236 1
-4.306039 3.593011 0.005088 1
-4.294846 3.597898 0.006193 1
-4.293449 3.614680 0.003094 1
-4.274084 3.611233 0.007355 1
-4.267492 3.622192 0.006359 1
-4.263385 3.636048 0.004311 1
-4.254624 3.643668 0.004362 1
-4.242398 3.649127 0.005471 1
-4.230626 3.654136 0.006576 1
-4.208874 3.647312 0.011885 1
-4.216993 3.675824 0.004580 1
-4.202686 3.677755 0.006735 1
-4.198243 3.691507 0.004686 1
-4.181941 3.689970 0.007888 1
-4.179857 3.706671 0.004788 1
-4.170388 3.714399 0.004840 1
-4.158946 3.718705 0.005939 1
-4.148959 3.726742 0.005993 1
-4.134620 3.728317 0.008145 1
-4.133204 3.744221 0.005039 1
-4.120264 3.749501 0.006145 1
-4.110645 3.757021 0.006195 1
-4.106685 3.769869 0.004139 1
-4.088984 3.768895 0.007344 1
-4.083972 3.782450 0.005292 1
-4.074239 3.789842 0.005341 1
-4.067773 3.799554 0.004335 1
-4.043661 3.788681 0.010686 1
-4.048163 3.814192 0.004431 1
-4.035544 3.818710 0.005531 1
-4.026178 3.825573 0.005576 1
-4.020820 3.839019 0.003523 1
-4.010393 3.846549 0.003572 1
-3.995957 3.847397 0.005718 1
-3.988227 3.857634 0.004714 1
-3.980951 3.867498 0.003708 1
-3.977041 3.884382 0.000606 1
-3.960366 3.881877 0.003800 1
-3.943733 3.879292 0.006994 1
-3.940689 3.895418 0.003887 1
-3.932726 3.905507 0.002882 1
-3.924717 3.915575 0.001877 1
-3.917172 3.925282 0.000869 1
-3.900041 3.922773 0.004062 1
-3.894569 3.935639 0.002004 1
-3.883789 3.942705 0.002049 1
-3.875594 3.952640 0.001042 1
-3.859015 3.949558 0.004232 1
-3.857512 3.968858 0.000075 1
-3.845068 3.972196 0.001165 1
-3.838776 3.985293 -0.000892 1
-3.826298 3.988552 0.000198 1
-3.822457 4.004572 -0.002910 1
-3.801341 3.994917 0.002377 1
-3.795404 4.007598 0.000317 1
-3.782893 4.010678 0.001405 1
-3.776331 4.023642 -0.000653 1
-3.771673 4.039916 -0.003761 1
-3.751245 4.029588 0.001522 1
-3.742599 4.039151 0.000511 1
-3.731973 4.045350 0.000549 1
-3.727100 4.061551 -0.002559 1
-3.715017 4.064037 -0.001475 1
-3.702937 4.066477 -0.000392 1
-3.684117 4.059378 0.003841 1
-3.677714 4.071818 0.001778 1
-3.673904 4.091604 -0.002378 1
-3.661780 4.093881 -0.001295 1
-3.654651 4.106581 -0.003357 1
-3.643247 4.112767 -0.003320 1
-3.631088 4.114923 -0.002239 1
-3.622006 4.124144 -0.003252 1
-3.607491 4.123088 -0.001122 1
-3.588192 4.111417 0.004150 1
-3.591501 4.144508 -0.004201 1
-3.580508 4.150179 -0.004168 1
-3.568944 4.156093 -0.004133 1
-3.559647 4.165133 -0.005149 1
-3.545685 4.163510 -0.003023 1
-3.531199 4.162103 -0.000895 1
-3.513583 4.183671 -0.003975 1
-3.505245 4.192008 -0.004995 1
-3.491863 4.194163 -0.003915 1
-3.484563 4.206198 -0.005982 1
-3.471714 4.208002 -0.004905 1
-3.459938 4.213517 -0.004874 1
-3.455171 4.232751 -0.009035 1
-3.435849 4.220390 -0.003769 1
-3.427776 4.232552 -0.005835 1
-3.418622 4.240919 -0.006856 1
-3.405159 4.242711 -0.005780 1
-3.395380 4.251265 -0.006800 1
-3.381497 4.248926 -0.004679 1
-3.370140 4.253863 -0.004653 1
-3.357248 4.255213 -0.003579 1
-3.350389 4.270729 -0.006695 1
-3.339529 4.275318 -0.006671 1
-3.325116 4.272980 -0.004551 1
-3.315146 4.281291 -0.005573 1
-3.305134 4.289571 -0.006596 1
-3.295081 4.297822 -0.007619 1
-3.281546 4.299104 -0.006546 1
-3.272012 4.307054 -0.007571 1
-3.260454 4.311609 -0.007548 1
-3.248879 4.316124 -0.007525 1
-3.237289 4.320599 -0.007503 1
-3.229793 4.335861 -0.010622 1
-3.212705 4.325812 -0.006412 1
-3.206282 4.340582 -0.009533 1
-3.193274 4.341285 -0.008465 1
-3.179108 4.342363 -0.007395 1
-3.171212 4.353437 -0.009471 1
-3.158197 4.354003 -0.008404 1
-3.149040 4.365444 -0.010478 1
-3.133469 4.358632 -0.007317 1
-3.125503 4.373654 -0.010439 1
-3.114958 4.381352 -0.011467 1
-3.102499 4.381501 -0.010403 1
-3.090682 4.385464 -0.010385 1
-3.077053 4.385913 -0.009319 1
-3.067607 4.397131 -0.011395 1
-3.057511 4.404457 -0.012426 1
-3.043277 4.400904 -0.010316 1
-3.032548 4.408343 -0.011346 1
-3.021780 4.415750 -0.012377 1
-3.008714 4.415740 -0.011315 1
-2.994543 4.411984 -0.009206 1
-2.984829 4.422969 -0.011285 1
-2.973959 4.430224 -0.012317 1
-2.961972 4.433739 -0.012303 1
-2.949974 4.437211 -0.012289 1
-2.937510 4.436757 -0.011229 1
-2.925501 4.440144 -0.011216 1
-2.913480 4.443489 -0.011203 1
-2.903477 4.454242 -0.013284 1
-2.892408 4.461238 -0.014319 1
-2.879326 4.460735 -0.013260 1
-2.865282 4.456449 -0.011156 1
-2.853205 4.459583 -0.011145 1
-2.842066 4.466418 -0.012181 1
-2.830890 4.473217 -0.013217 1
-2.819678 4.479980 -0.014254 1
-2.802967 4.464196 -0.009012 1
-2.795349 4.485888 -0.014235 1
-2.782285 4.485021 -0.013180 1
-2.771851 4.495388 -0.015264 1
-2.758780 4.494432 -0.014210 1
-2.744036 4.485893 -0.011063 1
-2.733298 4.492240 -0.012102 1
-2.721916 4.498686 -0.013141 1
-2.711304 4.508872 -0.015227 1
-2.698252 4.507690 -0.014175 1
-2.684437 4.502679 -0.012076 1
-2.672199 4.505182 -0.012070 1
-2.661933 4.511185 -0.013112 1
-2.649052 4.513730 -0.013107 1
-2.638847 4.523574 -0.015195 1
-2.624591 4.522356 -0.014144 1
-2.612901 4.524536 -0.014141 1
-2.601275 4.530589 -0.015184 1
-2.588941 4.532801 -0.015181 1
-2.576554 4.531060 -0.014132 1
-2.562953 4.529486 -0.013083 1
-2.551874 4.535270 -0.014127 1
-2.540769 4.544930 -0.016218 1
-2.528374 4.550843 -0.017263 1
-2.516613 4.548793 -0.016216 1
-2.501812 4.543266 -0.014123 1
-2.491812 4.552584 -0.016215 1
-2.478844 4.550594 -0.015169 1
-2.467910 4.571668 -0.020401 1
-2.455433 4.573415 -0.020402 1
-2.440478 4.552077 -0.014126 1
-2.427567 4.549901 -0.013081 1
-2.415655 4.555337 -0.014129 1
-2.404810 4.564487 -0.016224 1
-2.392981 4.565938 -0.016227 1
-2.379623 4.559755 -0.014137 1
-2.366130 4.557428 -0.013094 1
-2.354973 4.570333 -0.016237 1
-2.343125 4.571619 -0.016241 1
-2.330421 4.576835 -0.017292 1
-2.318936 4.581881 -0.018343 1
-2.305429 4.579325 -0.017302 1
-2.292569 4.576661 -0.016261 1
-2.280419 4.581641 -0.017314 1
-2.268203 4.578834 -0.016273 1
-2.256020 4.583731 -0.017326 1
-2.244128 4.584689 -0.017333 1
-2.231561 4.593401 -0.019434 1
-2.218179 4.582771 -0.016302 1
-2.205928 4.587498 -0.017357 1
-2.194147 4.599888 -0.020504 1
-2.181016 4.581374 -0.015281 1
-2.168551 4.593718 -0.018430 1
-2.157047 4.602096 -0.020532 1
-2.144072 4.595046 -0.018449 1
-2.131332 4.591806 -0.017412 1
-2.119127 4.600092 -0.019516 1
-2.106709 4.604479 -0.020574 1
-2.093547 4.589532 -0.016399 1
-2.081529 4.605407 -0.020597 1
-2.068588 4.594228 -0.017469 1
-2.056240 4.602299 -0.019575 1
-2.043838 4.610329 -0.021681 1
-2.031859 4.610583 -0.021693 1
-2.019752 4.603077 -0.019613 1
-2.006539 4.603267 -0.019628 1
-1.994657 4.611119 -0.021734 1
-1.981415 4.611217 -0.021750 1
-1.968794 4.607405 -0.020718 1
-1.956821 4.611271 -0.021779 1
-1.943614 4.603509 -0.019702 1
-1.930998 4.607286 -0.020765 1
-1.918400 4.607159 -0.020782 1
-1.907006 4.610867 -0.021843 1
-1.893134 4.610632 -0.021862 1
-1.881155 4.610387 -0.021879 1
-1.868742 4.602367 -0.019803 1
-1.855421 4.605863 -0.020869 1
-1.842829 4.605472 -0.020888 1
-1.832045 4.589649 -0.016717 1
-1.818429 4.600725 -0.019878 1
-1.805689 4.604062 -0.020945 1
-1.793733 4.603526 -0.020964 1
-1.780711 4.599032 -0.019938 1
-1.767733 4.606091 -0.022053 1
-1.755358 4.601539 -0.021027 1
-1.743642 4.596983 -0.020000 1
-1.730592 4.603907 -0.022116 1
-1.719408 4.591567 -0.018996 1
-1.706239 4.590656 -0.019020 1
-1.694611 4.585941 -0.017994 1
-1.681494 4.592687 -0.020111 1
-1.668638 4.595537 -0.021182 1
-1.655455 4.594440 -0.021207 1
-1.643193 4.597252 -0.022277 1
-1.631685 4.584587 -0.019160 1
-1.619066 4.591161 -0.021279 1
-1.605144 4.597567 -0.023400 1
-1.593364 4.588621 -0.021331 1
-1.580833 4.587315 -0.021357 1
-1.569351 4.582196 -0.020335 1
-1.558135 4.569298 -0.017219 1
-1.543270 4.583135 -0.021437 1
-1.530300 4.585488 -0.022512 1
-1.519348 4.576376 -0.020443 1
-1.506861 4.574812 -0.020471 1
-1.494876 4.569376 -0.019452 1
-1.480881 4.579206 -0.022624 1
-1.470678 4.570030 -0.020555 1
-1.457053 4.572031 -0.021633 1
-1.446304 4.562697 -0.019566 1
-1.433242 4.560786 -0.019598 1
-1.420233 4.562739 -0.020676 1
-1.408416 4.560925 -0.020706 1
-1.394777 4.566600 -0.022832 1
-1.386020 4.541736 -0.016577 1
-1.374283 4.535898 -0.015561 1
-1.358083 4.556667 -0.021880 1
-1.346321 4.550735 -0.020865 1
-1.335313 4.537053 -0.017756 1
-1.322835 4.542668 -0.019882 1
-1.311161 4.536622 -0.018867 1
-1.297579 4.534100 -0.018904 1
-1.285241 4.531762 -0.018939 1
-1.272674 4.537200 -0.021066 1
-1.262567 4.523414 -0.017957 1
-1.246606 4.535967 -0.022186 1
-1.236426 4.526014 -0.020124 1
-1.226477 4.512126 -0.017015 1
-1.210214 4.528421 -0.022293 1
-1.198709 4.522005 -0.021281 1
-1.189108 4.504105 -0.017126 1
-1.177486 4.501525 -0.017162 1
-1.166357 4.491100 -0.015104 1
-1.148466 4.518682 -0.023526 1
-1.142330 4.489511 -0.016225 1
-1.125971 4.501509 -0.020460 1
-1.117071 4.487462 -0.017351 1
-1.101227 4.499492 -0.021585 1
-1.092732 4.481484 -0.017430 1
-1.079027 4.482020 -0.018520 1
-1.066522 4.482816 -0.019607 1
-1.051815 4.486986 -0.021748 1
-1.041234 4.480218 -0.020738 1
-1.033067 4.462068 -0.016583 1
-1.019973 4.462533 -0.017674 1
-1.008490 4.459393 -0.017714 1
-0.997447 4.452328 -0.016707 1
-0.982255 4.460088 -0.019897 1
-0.972296 4.449227 -0.017841 1
-0.963474 4.434630 -0.014737 1
-0.949313 4.438535 -0.016879 1
-0.933413 4.445904 -0.020073 1
-0.923608 4.434903 -0.018018 1
-0.912217 4.431443 -0.018061 1
-0.903650 4.416695 -0.014957 1
-0.889424 4.420352 -0.017101 1
-0.875159 4.423952 -0.019246 1
-0.866734 4.409110 -0.016143 1
-0.856024 4.405655 -0.016184 1
-0.842936 4.405446 -0.017280 1
-0.828624 4.408850 -0.019427 1
-0.820401 4.393896 -0.016324 1
-0.809793 4.386237 -0.015322 1
-0.790468 4.404106 -0.021669 1
-0.784904 4.381764 -0.016467 1
-0.774376 4.373995 -0.015465 1
-0.762600 4.369832 -0.015514 1
-0.752139 4.361994 -0.014513 1
-0.739090 4.361382 -0.015612 1
-0.728684 4.353471 -0.014611 1
-0.722337 4.334670 -0.010460 1
-0.705874 4.345005 -0.014709 1
-0.695563 4.336992 -0.013709 1
-0.682539 4.336160 -0.014810 1
-0.672284 4.328075 -0.013810 1
-0.663471 4.316364 -0.011760 1
-0.649068 4.318996 -0.013913 1
-0.636326 4.313933 -0.013970 1
-0.625916 4.309755 -0.014017 1
-0.617267 4.297922 -0.011968 1
-0.604293 4.296782 -0.013072 1
-0.591310 4.295591 -0.014176 1
-0.581297 4.287229 -0.013178 1
-0.568323 4.285948 -0.014283 1
-0.561396 4.270415 -0.011184 1
-0.558179 4.248030 -0.005979 1
-0.534541 4.271431 -0.014443 1
-0.521574 4.269966 -0.015549 1
-0.510162 4.264921 -0.015605 1
-0.505066 4.245742 -0.011455 1
-0.493738 4.240640 -0.011510 1
-0.480829 4.239010 -0.012618 1
-0.472748 4.226810 -0.010571 1
-0.456616 4.232098 -0.013783 1
-0.449682 4.216076 -0.010687 1
-0.439019 4.211047 -0.010742 1
-0.422833 4.216166 -0.013955 1
-0.414953 4.203820 -0.011909 1
-0.402088 4.201876 -0.013019 1
-0.392611 4.192948 -0.012025 1
-0.372065 4.178465 -0.011091 1
-0.361528 4.173178 -0.011147 1
-0.345223 4.177903 -0.014363 1
-0.341156 4.158497 -0.010214 1
-0.328366 4.156253 -0.011326 1
-0.317352 4.150535 -0.011387 1
-0.306358 4.144778 -0.011447 1
-0.300794 4.128747 -0.008351 1
-0.288061 4.126338 -0.009464 1
-0.273497 4.127277 -0.011631 1
-0.262584 4.121367 -0.011693 1
-0.253543 4.112032 -0.010702 1
-0.243769 4.106653 -0.010758 1
-0.231846 4.100036 -0.010827 1
-0.222914 4.090614 -0.009837 1
-0.223517 4.064368 -0.003582 1
-0.201367 4.078403 -0.009964 1
-0.186783 4.078935 -0.012134 1
-0.180976 4.066665 -0.010085 1
-0.169741 4.060120 -0.010152 1
-0.157642 4.057489 -0.011267 1
-0.150375 4.044219 -0.009228 1
-0.138305 4.041511 -0.010343 1
-0.129153 4.031503 -0.009358 1
-0.116574 4.028389 -0.010477 1
-0.106007 4.021932 -0.010543 1
-0.097488 4.012153 -0.009556 1
-0.085467 4.009235 -0.010673 1
-0.077015 3.999398 -0.009685 1
-0.068085 3.989209 -0.008701 1
-0.053516 3.989095 -0.010877 1
-0.049331 3.972671 -0.007782 1
-0.039995 3.966650 -0.007842 1
-0.026507 3.962486 -0.008971 1
-0.018286 3.952488 -0.007985 1
-0.011139 3.943150 -0.006992 1
0.003916 3.942408 -0.009173 1
0.014182 3.935531 -0.009242 1
0.020105 3.922223 -0.007202 1
0.025959 3.908909 -0.005162 1
0.040471 3.908320 -0.007341 1
0.048425 3.898140 -0.006356 1
0.062943 3.897443 -0.008536 1
0.061979 3.874563 -0.003331 1
0.078684 3.876938 -0.006567 1
0.088721 3.869800 -0.006637 1
0.098733 3.862628 -0.006709 1
0.105963 3.852653 -0.005721 1
0.113646 3.842299 -0.004737 1
0.123562 3.835039 -0.004809 1
0.133946 3.827380 -0.004884 1
0.142825 3.820784 -0.004949 1
0.155469 3.816142 -0.006081 1
0.157836 3.799865 -0.002982 1
0.168091 3.792080 -0.003059 1
0.182519 3.790759 -0.005244 1
0.196477 3.789748 -0.007426 1
0.201479 3.776103 -0.005387 1
0.211163 3.768538 -0.005461 1
0.216049 3.754875 -0.003422 1
0.225659 3.747258 -0.003497 1
0.240056 3.745638 -0.005684 1
0.249634 3.737938 -0.005759 1
0.256756 3.727206 -0.004778 1
0.271146 3.725427 -0.006966 1
0.277730 3.715028 -0.005981 1
0.290133 3.709777 -0.007118 1
0.296644 3.699332 -0.006133 1
0.301570 3.685129 -0.004099 1
0.308446 3.674268 -0.003118 1
0.320274 3.669267 -0.004252 1
0.332095 3.664216 -0.005386 1
0.335884 3.650756 -0.003345 1
0.345130 3.642721 -0.003422 1
0.351807 3.631752 -0.002442 1
0.363537 3.626557 -0.003577 1
0.372698 3.618426 -0.003655 1
0.384402 3.613140 -0.004791 1
0.390935 3.602069 -0.003811 1
0.400011 3.593843 -0.003890 1
0.403857 3.579887 -0.001852 1
0.417625 3.577712 -0.004044 1
0.429236 3.572224 -0.005181 1
0.430318 3.555398 -0.002086 1
0.444063 3.553081 -0.004278 1
0.455616 3.547474 -0.005417 1
0.459626 3.533010 -0.003383 1
0.468020 3.524969 -0.003460 1
0.474148 3.513698 -0.002481 1
0.488728 3.510288 -0.004684 1
0.491651 3.496635 -0.002643 1
0.511621 3.498620 -0.006964 1
0.514034 3.485361 -0.004919 1
0.523566 3.475839 -0.005009 1
0.526729 3.461712 -0.002972 1
0.534457 3.453884 -0.003046 1
0.543868 3.444284 -0.003136 1
0.548778 3.433711 -0.002150 1
0.554916 3.421814 -0.001177 1
0.563361 3.413017 -0.001259 1
0.577780 3.409071 -0.003466 1
0.582542 3.398430 -0.002481 1
0.588513 3.386449 -0.001508 1
0.588378 3.369638 0.001589 1
0.599469 3.363347 0.000446 1
0.610547 3.357007 -0.000698 1
0.615510 3.345863 0.000283 1
0.629809 3.341589 -0.001927 1
0.637974 3.332530 -0.002011 1
0.646107 3.323444 -0.002095 1
0.650923 3.312222 -0.001115 1
0.656094 3.300537 -0.000139 1
0.658317 3.286302 0.001898 1
0.666289 3.277144 0.001814 1
0.677146 3.270482 0.000667 1
0.687988 3.263772 -0.000479 1
0.689619 3.249969 0.001562 1
0.700799 3.242730 0.000411 1
0.702714 3.228462 0.002448 1
0.707523 3.216678 0.003424 1
0.717835 3.210278 0.002280 1
0.728519 3.203365 0.001132 1
0.730229 3.189082 0.003170 1
0.740855 3.182104 0.002021 1
0.751466 3.175079 0.000872 1
0.756416 3.162714 0.001843 1
0.763956 3.153215 0.001756 1
0.768434 3.141302 0.002731 1
0.775899 3.131761 0.002644 1
0.776872 3.117939 0.004686 1
0.790360 3.113082 0.002473 1
0.800420 3.106292 0.001326 1
0.811198 3.098492 0.000171 1
0.809282 3.081829 0.003272 1
0.819624 3.074459 0.002120 1
0.823402 3.062924 0.003099 1
0.836795 3.057776 0.000884 1
0.828425 3.036589 0.006112 1
0.838995 3.028622 0.004956 1
0.852316 3.023354 0.002739 1
0.856237 3.011273 0.003714 1
0.863248 3.001426 0.003624 1
0.860432 2.985368 0.006731 1
0.867353 2.975507 0.006642 1
0.880565 2.970032 0.004424 1
0.877919 2.953520 0.007527 1
0.891085 2.947963 0.005309 1
0.900722 2.940667 0.004159 1
0.891185 2.920358 0.009395 1
0.901412 2.912041 0.008236 1
0.908409 2.901536 0.008142 1
0.911821 2.889381 0.009116 1
0.927417 2.886697 0.005840 1
0.930762 2.874497 0.006814 1
0.937621 2.863886 0.006719 1
0.943793 2.854263 0.006632 1
0.953507 2.846184 0.005476 1
0.959941 2.835999 0.005384 1
0.950009 2.815547 0.010620 1
0.956336 2.805374 0.010529 1
0.976064 2.802771 0.006170 1
0.981719 2.793535 0.006088 1
0.985298 2.780220 0.007052 1
0.981597 2.763951 0.010159 1
0.987744 2.753669 0.010067 1
0.996560 2.746365 0.008918 1
1.005967 2.737988 0.007759 1
1.012023 2.727620 0.007667 1
1.011373 2.713363 0.009707 1
1.014299 2.700536 0.010677 1
1.026921 2.693960 0.008451 1
1.029468 2.681621 0.009425 1
1.028313 2.667920 0.011470 1
1.040860 2.661226 0.009243 1
1.046648 2.650737 0.009150 1
1.055780 2.642081 0.007990 1
1.051339 2.626019 0.011099 1
1.056722 2.616020 0.011010 1
1.058952 2.603659 0.011984 1
1.071351 2.596719 0.009755 1
1.073502 2.584330 0.010729 1
1.082715 2.574978 0.009563 1
1.087928 2.564876 0.009474 1
1.086518 2.550709 0.011516 1
1.085046 2.536570 0.013559 1
1.094109 2.527128 0.012392 1
1.102612 2.518710 0.011234 1
1.107902 2.508006 0.011140 1
1.099312 2.490495 0.015320 1
1.111437 2.483174 0.013088 1
1.116603 2.472440 0.012994 1
1.118254 2.460027 0.013968 1
1.133791 2.454216 0.010667 1
1.124646 2.437396 0.014853 1
1.129652 2.426616 0.014759 1
1.145123 2.420657 0.011456 1
1.146810 2.407663 0.012426 1
1.144445 2.394172 0.014475 1
1.138748 2.378595 0.017589 1
1.157881 2.373477 0.013210 1
1.169482 2.366230 0.010980 1
1.170706 2.353755 0.011954 1
1.165037 2.337689 0.015064 1
1.180095 2.331858 0.011763 1
1.174085 2.316379 0.014879 1
1.175114 2.303938 0.015854 1
1.197453 2.300369 0.010405 1
1.205545 2.290801 0.009239 1
1.195314 2.275032 0.013435 1
1.189030 2.259683 0.016552 1
1.200574 2.251537 0.014314 1
1.212100 2.243325 0.012076 1
1.209250 2.229434 0.014122 1
1.206766 2.214472 0.016159 1
1.203375 2.201757 0.018216 1
1.214766 2.193436 0.015977 1
1.222529 2.183696 0.014809 1
1.233875 2.175258 0.012569 1
1.223495 2.158786 0.016760 1
1.234772 2.150293 0.014520 1
1.235149 2.137828 0.015496 1
1.239109 2.126664 0.015399 1
1.243030 2.115487 0.015303 1
1.254192 2.106825 0.013062 1
1.247302 2.091279 0.016178 1
1.247261 2.079395 0.017158 1
1.269283 2.074322 0.011698 1
1.254549 2.057531 0.016970 1
1.258229 2.046300 0.016874 1
1.265535 2.036246 0.015704 1
1.269140 2.024976 0.015607 1
1.280053 2.016021 0.013363 1
1.272555 2.001250 0.016487 1
1.276038 1.989957 0.016390 1
1.275796 1.977526 0.017366 1
1.282717 1.967900 0.016201 1
1.282724 1.954339 0.017168 1
1.286044 1.943010 0.017071 1
1.289160 1.932238 0.016978 1
1.292402 1.920887 0.016881 1
1.295605 1.909524 0.016784 1
1.302322 1.899755 0.015618 0
1.298020 1.886314 0.017669 1
1.301102 1.874932 0.017572 0
1.300422 1.862544 0.018550 1
1.310872 1.853120 0.016303 0
1.317567 1.842664 0.015131 1
1.309299 1.828343 0.018258 1
1.315914 1.817867 0.017086 0
1.329973 1.809216 0.013763 0
1.317818 1.794051 0.017967 1
1.324322 1.783506 0.016794 1
1.330793 1.772925 0.015621 1
1.318475 1.757915 0.019826 1
1.332370 1.749059 0.016501 1
1.334844 1.738134 0.016409 1
1.344928 1.728305 0.014159 0
1.343695 1.715933 0.015137 1
1.346182 1.704393 0.015040 0
1.341091 1.691244 0.017095 0
1.343492 1.679713 0.016997 0
1.349626 1.668948 0.015823 1
1.355725 1.658148 0.014649 0
1.350452 1.645071 0.016705 0
1.356473 1.634242 0.015530 0
1.354890 1.621937 0.016509 0
1.334329 1.606109 0.022875 1
1.362956 1.599467 0.015237 0
1.342288 1.583770 0.021603 0
1.344313 1.572236 0.021506 0
1.357687 1.562660 0.018176 0
1.348051 1.550302 0.021322 0
1.350054 1.538170 0.021220 0
1.355723 1.527225 0.020045 0
1.353746 1.515041 0.021026 0
1.355620 1.502888 0.020924 0
1.368789 1.493034 0.017592 0
1.358898 1.480880 0.020739 0
1.356834 1.468159 0.021716 1
1.358456 1.456575 0.021619 1
1.360037 1.444985 0.021521 0
1.369138 1.434990 0.019272 0
1.370718 1.422781 0.019170 0
1.364539 1.410183 0.021231 0
1.365958 1.398572 0.021134 0
1.367201 1.388118 0.021046 0
1.364850 1.374893 0.022019 0
1.369974 1.363710 0.020843 0
1.367278 1.352826 0.021835 0
1.376278 1.340850 0.019569 0
1.369792 1.328419 0.021632 0
1.374647 1.318331 0.020465 0
1.379634 1.306466 0.019283 0
1.380692 1.294803 0.019186 0
1.377872 1.282800 0.020169 0
1.382636 1.272050 0.018997 0
1.387412 1.260687 0.017820 0
1.384514 1.248117 0.018798 0
1.373762 1.236752 0.021953 0
1.378457 1.224798 0.020771 0
1.379267 1.212557 0.020670 1
1.395370 1.201866 0.016249 0
1.388374 1.189691 0.018314 0
1.381333 1.177566 0.020380 0
1.362654 1.166046 0.025700 0
1.382480 1.154811 0.020192 0
1.386830 1.143900 0.019019 0
1.383495 1.131466 0.019999 0
1.383942 1.119790 0.019903 0
1.384348 1.108113 0.019807 0
1.384695 1.097019 0.019715 0
1.392720 1.085559 0.017455 0
1.385307 1.073659 0.019523 0
1.381702 1.061895 0.020509 0
1.381906 1.050226 0.020413 1
1.378218 1.038501 0.021400 0
1.386041 1.026930 0.019139 0
1.386123 1.015246 0.019043 0
1.382313 1.003546 0.020030 0
-5.312293 1.008774 0.026095 1
-5.277555 1.020156 0.035851 1
-5.296722 1.031975 0.030580 1
-5.304279 1.044325 0.028534 1
-5.307949 1.056070 0.027556 1
-5.307736 1.067167 0.027647 1
-5.307473 1.078848 0.027743 1
-5.311021 1.090644 0.026765 1
-5.302974 1.102078 0.029006 1
-5.298738 1.113600 0.030174 1
-5.306014 1.125561 0.028124 1
-5.301697 1.137066 0.029291 1
-5.305091 1.147741 0.028305 1
-5.316093 1.159997 0.025184 1
-5.307749 1.172458 0.027432 1
-5.299489 1.182527 0.029662 1
-5.306517 1.194649 0.027613 1
-5.301963 1.206077 0.028779 1
-5.305060 1.217999 0.027803 1
-5.308114 1.229945 0.026826 1
-5.303440 1.241337 0.027992 1
-5.302569 1.253002 0.028087 1
-5.309340 1.265295 0.026039 1
-5.308385 1.276981 0.026134 1
-5.303551 1.288320 0.027299 1
-5.306406 1.299757 0.026318 1
-5.289931 1.310539 0.030700 1
-5.292654 1.322539 0.029723 1
-5.303059 1.334770 0.026601 1
-5.298030 1.346025 0.027766 1
-5.300624 1.358092 0.026790 1
-5.299346 1.369747 0.026884 1
-5.298027 1.381396 0.026978 1
-5.304320 1.393966 0.024932 1
-5.291441 1.404206 0.028235 1
-5.293826 1.416317 0.027259 1
-5.292344 1.427948 0.027353 1
-5.290899 1.438992 0.027442 1
-5.285520 1.450083 0.028604 1
-5.291553 1.462767 0.026559 1
-5.278466 1.472725 0.029860 1
-5.288225 1.486006 0.026746 1
-5.290310 1.498198 0.025770 1
-5.284734 1.509220 0.026932 1
-5.290541 1.522034 0.024887 1
-5.284886 1.533031 0.026049 1
-5.279195 1.543995 0.027210 1
-5.277268 1.555573 0.027303 1
-5.282995 1.567888 0.025254 1
-5.282726 1.591751 0.024371 1
-5.284423 1.604041 0.023396 1
-5.286075 1.616351 0.022421 1
-5.280109 1.627226 0.023581 1
-5.274108 1.638068 0.024741 1
-5.294537 1.654146 0.018428 1
-5.284669 1.664245 0.020655 1
-5.282322 1.675841 0.020747 1
-5.272390 1.685845 0.022974 1
-5.269968 1.697399 0.023066 1
-5.275039 1.710582 0.021023 1
-5.268766 1.721313 0.022182 1
-5.269982 1.733699 0.021207 1
-5.256377 1.741519 0.024489 1
-5.253497 1.754166 0.024590 1
-5.243599 1.762739 0.026805 1
-5.248271 1.776558 0.024767 1
-5.253164 1.789272 0.022721 1
-5.246637 1.799836 0.023878 1
-5.236337 1.809428 0.026100 1
-5.237077 1.822376 0.025129 1
-5.241645 1.835730 0.023088 1
-5.235117 1.845629 0.024239 1
-5.239441 1.859599 0.022202 1
-5.228966 1.869034 0.024424 1
-5.218465 1.878407 0.026644 1
-5.211811 1.888177 0.027795 1
-5.223534 1.903676 0.023623 1
-5.223900 1.916680 0.022652 1
-5.213262 1.925931 0.024871 1
-5.217733 1.938298 0.022821 1
-5.214098 1.950795 0.022919 1
-5.207225 1.960472 0.024069 1
-5.207535 1.972914 0.023093 1
-5.196738 1.981980 0.025311 1
-5.215553 1.999556 0.019008 1
-5.193467 2.005699 0.024423 1
-5.204627 2.021649 0.020254 1
-5.182680 2.027059 0.025663 1
-5.197400 2.044267 0.020431 1
-5.186402 2.053143 0.022647 1
-5.182699 2.064395 0.022735 1
-5.175302 2.074401 0.023886 1
-5.193420 2.093084 0.017591 1
-5.168090 2.095693 0.024052 1
-5.178414 2.113081 0.019894 1
-5.174894 2.123182 0.019972 1
-5.159851 2.131067 0.023254 1
-5.170386 2.147457 0.019088 1
-5.155686 2.154133 0.022359 1
-5.155045 2.167166 0.021387 1
-5.147329 2.176962 0.022537 1
-5.143401 2.187521 0.022618 1
-5.142833 2.199992 0.021642 1
-5.131206 2.208878 0.023857 1
-5.134576 2.221620 0.021809 1
-5.130069 2.233243 0.021899 1
-5.122369 2.242324 0.023042 1
-5.125166 2.256216 0.021003 1
-5.124108 2.269249 0.020030 1
-5.101799 2.272992 0.025425 1
-5.111589 2.289828 0.021262 1
-5.110620 2.302300 0.020285 1
-5.113387 2.315726 0.018242 1
-5.097886 2.322747 0.021515 1
-5.097019 2.334661 0.020534 1
-5.099412 2.348662 0.018495 1
-5.094678 2.359608 0.018579 1
-5.072262 2.362755 0.023969 1
-5.074524 2.376744 0.021930 1
-5.066658 2.384938 0.023066 1
-5.068578 2.399496 0.021031 1
-5.060159 2.408729 0.022175 1
-5.055463 2.418997 0.022253 1
-5.067964 2.437933 0.017032 1
-5.048956 2.442205 0.021357 1
-5.043641 2.453512 0.021443 1
-5.052455 2.470927 0.017284 1
-5.043821 2.480030 0.018426 1
-5.031694 2.487401 0.020628 1
-5.012893 2.490768 0.024947 1
-5.028131 2.512228 0.018671 1
-5.026807 2.523581 0.017684 1
-5.014040 2.531864 0.019893 1
-5.012643 2.543196 0.018906 1
-5.006958 2.554370 0.018991 1
-5.001780 2.564461 0.019067 1
-4.996017 2.575594 0.019152 1
-5.000729 2.591571 0.016053 1
-4.981521 2.594933 0.020371 1
-4.982728 2.609109 0.018332 1
-4.987267 2.625145 0.015234 1
-4.978180 2.633853 0.016373 1
-4.969070 2.642517 0.017511 1
-4.966974 2.654351 0.016527 1
-4.954437 2.661073 0.018724 1
-4.958991 2.676662 0.015622 1
-4.952817 2.687638 0.015705 1
-4.950249 2.699985 0.014724 1
-4.937903 2.706036 0.016916 1
-4.938593 2.720291 0.014877 1
-4.932261 2.731192 0.014959 1
-4.929513 2.743514 0.013978 1
-4.903513 2.742026 0.020404 1
-4.910945 2.759709 0.016245 1
-4.907769 2.772505 0.015267 1
-5.997777 3.739075 0.011571 1
-5.981708 3.748706 0.013200 1
-5.979025 3.766487 0.011773 1
-5.968851 3.781194 0.011882 1
-5.969244 3.801232 0.009693 1
-5.952037 3.812067 0.011330 1
-5.952775 3.831421 0.009136 1
-5.942860 3.845336 0.009238 1
-5.936080 3.861516 0.008578 1
-5.925055 3.876757 0.008689 1
-5.919158 3.891516 0.008019 1
-5.905874 3.902982 0.008881 1
-5.898861 3.919077 0.008220 1
-5.891270 3.935844 0.007564 1
-5.884641 3.951225 0.006897 1
-5.873790 3.965585 0.007002 1
-5.863927 3.978543 0.007096 1
-5.853499 3.992148 0.007195 1
-5.843024 4.005716 0.007294 1
-5.838687 4.024086 0.005870 1
-5.834270 4.042463 0.004446 1
-5.824152 4.055290 0.004539 1
-5.810389 4.066304 0.005397 1
-5.802714 4.082182 0.004734 1
-5.794975 4.098045 0.004070 1
-5.775004 4.103959 0.006447 1
-5.773239 4.124734 0.004262 1
-5.756252 4.133012 0.005878 1
-5.760366 4.158814 0.002173 1
-5.740287 4.164480 0.004548 1
-5.738207 4.185260 0.002362 1
-5.727058 4.198424 0.002457 1
-5.712883 4.208993 0.003311 1
-5.704623 4.224636 0.002644 1
-5.699829 4.242186 0.001214 1
-5.682573 4.250041 0.002826 1
-5.680035 4.270804 0.000640 1
-5.668014 4.284411 0.000737 1
-5.657096 4.296686 0.000824 1
-5.648477 4.312194 0.000156 1
-5.645612 4.332960 -0.002031 1
-5.636848 4.348449 -0.002699 1
-5.613569 4.350624 0.000429 1
-5.604725 4.366021 -0.000240 1
-5.598690 4.384076 -0.001669 1
-5.593761 4.400862 -0.003106 1
-5.592680 4.424946 -0.006048 1
-5.572163 4.429477 -0.003682 1
-5.560763 4.441432 -0.003598 1
-5.554373 4.459430 -0.005027 1
-5.550110 4.480790 -0.007211 1
-5.529512 4.485053 -0.004847 1
-5.517319 4.497487 -0.004760 1
-5.511270 4.514793 -0.006195 1
-5.506688 4.536112 -0.008379 1
-5.497084 4.551253 -0.009051 1
-5.476386 4.555184 -0.006690 1
-5.469444 4.573044 -0.008121 1
-5.454206 4.582453 -0.007278 1
-5.448387 4.599057 -0.008718 1
-5.432446 4.608979 -0.007872 1
-5.425872 4.626156 -0.009308 1
-5.413187 4.638227 -0.009224 1
-5.407890 4.659441 -0.011410 1
-5.393049 4.667980 -0.010574 1
-5.387584 4.689176 -0.012760 1
-5.372019 4.698223 -0.011920 1
-5.362381 4.712412 -0.012600 1
-5.351383 4.727761 -0.013272 1
-5.338344 4.739573 -0.013191 1
-5.331813 4.756015 -0.014633 1
-5.313455 4.761887 -0.013039 1
-5.302896 4.776510 -0.013716 1
-5.281260 4.779871 -0.011362 1
-5.280930 4.806251 -0.015068 1
-5.270185 4.820787 -0.015746 1
-5.249148 4.823371 -0.013397 1
-5.244089 4.843221 -0.015594 1
-5.227437 4.852229 -0.014756 1
-5.222219 4.872059 -0.016953 1
-5.203644 4.877387 -0.015363 1
-5.200106 4.900780 -0.018314 1
-5.169676 4.890268 -0.012946 1
-5.170298 4.920253 -0.017406 1
-5.157274 4.930873 -0.017335 1
-5.143527 4.942005 -0.017260 1
-5.134647 4.959224 -0.018699 1
-5.115916 4.964125 -0.017113 1
-5.104485 4.978197 -0.017796 1
-5.086426 4.982413 -0.016214 1
-5.081443 5.006246 -0.019163 1
-5.065034 5.014003 -0.018335 1
-5.041442 5.012341 -0.015239 1
-5.034545 5.032447 -0.017436 1
-5.029912 5.055689 -0.020389 1
-5.001594 5.047518 -0.015784 1
-4.999876 5.073331 -0.019496 1
-4.976295 5.071278 -0.016404 1
-4.966705 5.088111 -0.017847 1
-4.955439 5.101230 -0.018537 1
-4.933476 5.102627 -0.016199 1
-4.923712 5.119359 -0.017643 1
-4.915310 5.135042 -0.019094 1
-4.899405 5.146354 -0.019020 1
-4.882650 5.153369 -0.018199 1
-4.869581 5.162527 -0.018139 1
-4.855804 5.176894 -0.018823 1
-4.838977 5.183733 -0.018003 1
-4.822137 5.190507 -0.017183 1
-4.811154 5.202727 -0.017881 1
-4.800104 5.219666 -0.019325 1
-4.783911 5.225788 -0.018510 1
-4.766230 5.232829 -0.017689 1
-4.754328 5.245391 -0.018385 1
-4.737340 5.251823 -0.017569 1
-4.725997 5.268567 -0.019014 1
-4.711073 5.278192 -0.018953 1
-4.694007 5.284451 -0.018138 1
-4.681877 5.296810 -0.018836 1
-4.668190 5.310081 -0.019529 1
-4.651047 5.316168 -0.018715 1
-4.642148 5.335558 -0.020920 1
-4.625698 5.341075 -0.020111 1
-4.614603 5.357063 -0.021562 1
-4.601400 5.369662 -0.022259 1
-4.576801 5.361540 -0.018434 1
-4.568812 5.384609 -0.021392 1
-4.552258 5.389847 -0.020585 1
-4.511230 5.427399 -0.022680 12
-4.492635 5.429006 -0.021121 11
-4.473284 5.430978 -0.019559 13
-4.465487 5.453422 -0.022523 21
-4.449920 5.462135 -0.022470 36
-4.431304 5.463487 -0.020913 31
-4.424356 5.489737 -0.024629 25
-4.401946 5.484073 -0.021565 27
-4.388136 5.496024 -0.022268 27
-4.374272 5.507932 -0.022972 26
-4.360355 5.519799 -0.023676 30
-4.346385 5.531623 -0.024380 34
-4.334176 5.546889 -0.025839 28
-4.316481 5.551654 -0.025037 21
-4.302363 5.563344 -0.025743 17
-4.288990 5.574584 -0.026452 20
-4.284408 5.603327 -0.030928 8
-4.288571 5.653987 -0.039922 4
-4.278349 5.672241 -0.042138 3
-4.257742 5.673648 -0.040583 1
-4.243945 5.684770 -0.041293 3
-4.229279 5.696248 -0.042001 1
-4.210351 5.700984 -0.041201 1
-4.194745 5.708416 -0.041159 2
-4.178290 5.716184 -0.041115 1
-4.165122 5.731018 -0.042579 1
-4.149415 5.738300 -0.042538 1
-4.129592 5.738763 -0.040989 1
-4.109791 5.739145 -0.039441 1
-4.095615 5.754157 -0.040905 1
-4.082190 5.768759 -0.042370 1
-4.069524 5.782957 -0.043838 1
-4.044960 5.772282 -0.040033 1
-4.029006 5.783494 -0.040745 1
-4.015378 5.797906 -0.042213 1
-4.000290 5.804336 -0.042178 1
-3.982662 5.811777 -0.042139 1
-3.963674 5.811198 -0.040598 1
-3.949852 5.825424 -0.042067 1
-3.932146 5.832680 -0.042029 3
-3.913790 5.835887 -0.041241 3
-3.899805 5.849970 -0.042711 1
-3.877084 5.842093 -0.039666 3
-3.866737 5.863053 -0.042644 1
-3.850312 5.873668 -0.043362 6
-3.830472 5.872895 -0.041824 3
-3.819870 5.893759 -0.044803 2
-3.801390 5.896539 -0.044019 1
-3.791119 5.921347 -0.047750 6
-3.765796 5.905578 -0.043203 5
-3.749513 5.911535 -0.043174 3
-3.733682 5.921444 -0.043897 3
-3.716486 5.927601 -0.043868 2
-3.692750 5.915168 -0.040076 3
-3.680741 5.936024 -0.043058 1
-3.662632 5.942293 -0.043028 1
-3.646228 5.947907 -0.043002 2
-3.628941 5.953759 -0.042975 1
-3.609155 5.952094 -0.041444 1
-3.593079 5.961548 -0.042171 1
-3.576958 5.970951 -0.042898 4
-3.557190 5.969078 -0.041368 1
-3.543943 5.981556 -0.042851 1
-3.524189 5.979553 -0.041323 3
-3.507373 5.993024 -0.042802 3
-3.490525 5.994100 -0.042029 2
-3.471941 5.995646 -0.041255 1
-3.455611 6.004654 -0.041985 3
-3.437017 6.006071 -0.041212 3
-3.418432 6.007420 -0.040439 6
-3.405272 6.027581 -0.043428 5
-3.363602 6.010808 -0.038125 20
-3.346265 6.019701 -0.038857 15
-3.327698 6.020714 -0.038087 16
-3.314090 6.036602 -0.040327 13
-3.296495 6.041293 -0.040310 15
-3.275909 6.034519 -0.038037 23
-3.261257 6.050492 -0.040278 40
-3.237823 6.032149 -0.035750 50
-3.224051 6.051821 -0.038743 40
-3.205465 6.052383 -0.037977 55
-3.188741 6.060513 -0.038715 57
-3.172887 6.072410 -0.040206 40
-3.155168 6.076609 -0.040193 36
-3.139208 6.084367 -0.040933 28
-3.124937 6.103770 -0.043930 20
-3.090959 6.119443 -0.045412 3
-3.070579 6.111836 -0.043145 1
-3.050266 6.104151 -0.040880 1
-3.033242 6.111766 -0.041623 1
-3.013010 6.103933 -0.039358 1
-2.995960 6.111424 -0.040102 1
-2.978872 6.118858 -0.040846 1
-2.961744 6.126235 -0.041591 1
-2.946054 6.141272 -0.043841 1
-2.925195 6.129233 -0.040827 1
-2.907991 6.136431 -0.041573 1
-2.891447 6.147436 -0.043072 1
-2.874153 6.154521 -0.043820 1
-2.855478 6.153805 -0.043064 1
-2.838377 6.156742 -0.043061 1
-2.820365 6.159772 -0.043058 1
-2.801081 6.154984 -0.041552 1
-2.787401 6.185043 -0.046813 1
-2.765665 6.164604 -0.042301 1
-2.747036 6.163496 -0.041548 1
-2.732542 6.177597 -0.043803 1
-2.713554 6.180389 -0.043804 1
-2.695814 6.178965 -0.043053 1
-2.675917 6.181747 -0.043054 1
-2.657677 6.176301 -0.041552 1
-2.641129 6.190387 -0.043810 1
-2.622504 6.188832 -0.043061 1
-2.604321 6.183198 -0.041561 1
-2.586253 6.193322 -0.043069 1
-2.568109 6.187562 -0.041569 3
-2.550435 6.193552 -0.042326 1
-2.530961 6.191772 -0.041580 1
-2.514643 6.193535 -0.041585 2
-2.495092 6.199530 -0.042345 1
-2.477582 6.189454 -0.040095 1
-2.459084 6.187314 -0.039351 1
-2.439877 6.197011 -0.040864 1
-2.421034 6.190824 -0.039369 1
-2.404146 6.196234 -0.040129 1
-2.386320 6.201664 -0.040891 1
-2.368155 6.203116 -0.040901 1
-2.352067 6.220108 -0.043920 4
-2.333346 6.201782 -0.040170 2
-2.315181 6.203049 -0.040182 1
-2.296102 6.204311 -0.040195 2
-2.277928 6.205449 -0.040208 2
-2.261111 6.214314 -0.041725 1
-2.241357 6.203610 -0.039483 1
-2.224491 6.212358 -0.041001 2
-2.205195 6.209363 -0.040265 3
-2.187004 6.210183 -0.040280 1
-2.169124 6.218790 -0.041800 1
-2.151379 6.207673 -0.039560 1
-2.133585 6.220084 -0.041833 1
-2.096098 6.181888 -0.034347 8
-2.078182 6.190182 -0.035870 4
-2.060058 6.190558 -0.035889 12
-2.041871 6.186944 -0.035157 21
-2.024616 6.183254 -0.034423 25
-2.005646 6.187380 -0.035197 40
-1.988546 6.207142 -0.038979 58
-1.970372 6.211134 -0.039753 58
-1.952176 6.211134 -0.039775 58
-1.934058 6.195357 -0.036788 58
-1.915818 6.207016 -0.039068 58
-1.897636 6.206826 -0.039092 58
-1.879395 6.210500 -0.039869 55
-1.860756 6.233750 -0.044408 21
-1.842482 6.233367 -0.044433 8
-1.807081 6.224584 -0.042980 2
-1.789496 6.231897 -0.044510 1
-1.770316 6.231233 -0.044539 1
-1.753274 6.222720 -0.043061 1
-1.734127 6.221923 -0.043091 2
-1.715346 6.232871 -0.045377 5
-1.697989 6.232027 -0.045405 2
-1.678809 6.231027 -0.045437 2
-1.660770 6.226087 -0.044715 1
-1.643237 6.213243 -0.042488 3
-1.626856 6.212218 -0.042517 1
-1.607369 6.203056 -0.041047 2
-1.589555 6.209692 -0.042583 2
-1.571075 6.212280 -0.043369 2
-1.552274 6.206899 -0.042652 1
-1.534415 6.201524 -0.041933 1
-1.518735 6.192329 -0.040459 2
-1.481580 6.189030 -0.040531 3
-1.463251 6.199143 -0.042824 2
-1.443805 6.201192 -0.043615 3
-1.426850 6.187630 -0.041394 4
-1.407496 6.197453 -0.043690 2
-1.391113 6.187778 -0.042221 1
-1.372120 6.193564 -0.043766 1
-1.355350 6.187680 -0.043050 2
-1.336334 6.185424 -0.043092 3
-1.316731 6.202818 -0.046895 1
-1.301042 6.181051 -0.043171 3
-1.281939 6.186506 -0.044718 2
-1.262405 6.187875 -0.045515 3
-1.245200 6.185529 -0.045556 1
-1.227098 6.182998 -0.045598 2
-1.209910 6.180535 -0.045640 3
-1.189193 6.189404 -0.047946 6
-1.169899 6.194446 -0.049497 1
-1.156591 6.160597 -0.043515 5
-1.121472 6.155001 -0.043604 8
-1.101291 6.159639 -0.045159 4
-1.084594 6.148860 -0.043699 3
-1.069530 6.134313 -0.041483 11
-1.048190 6.150511 -0.045299 3
-1.035090 6.120230 -0.040072 7
-1.012244 6.144011 -0.045396 3
-0.998251 6.129421 -0.043180 1
-0.977978 6.133574 -0.044739 2
-0.958706 6.141854 -0.047048 1
-0.943680 6.118878 -0.043333 1
-0.925035 6.119146 -0.044138 1
-0.906480 6.123378 -0.045695 1
-0.887794 6.123510 -0.046501 2
-0.865011 6.142787 -0.051078 6
-0.854531 6.104373 -0.044345 3
-0.835871 6.104316 -0.045153 1
-0.817198 6.104190 -0.045961 1
-0.804587 6.073149 -0.040740 4
-0.783354 6.092457 -0.045314 1
-0.766475 6.084490 -0.044616 1
-0.746955 6.079865 -0.044678 1
-0.729225 6.075596 -0.044734 2
-0.712345 6.075516 -0.045540 1
-0.695579 6.067314 -0.044843 2
-0.677973 6.058833 -0.044150 1
-0.659247 6.062160 -0.045714 2
-0.642568 6.053782 -0.045019 2
-0.621923 6.060544 -0.047342 1
-0.607308 6.044454 -0.045139 1
-0.590881 6.031876 -0.043693 1
-0.574197 6.027304 -0.043751 1
-0.552607 6.033538 -0.046080 1
-0.542134 6.010186 -0.042361 1
-0.522487 6.012755 -0.043933 1
-0.489729 5.995052 -0.042550 2
-0.467816 6.004945 -0.045633 1
-0.446949 6.010984 -0.047963 1
-0.429734 6.001644 -0.047276 1
-0.408513 6.011550 -0.050358 4
-0.391323 6.002077 -0.049673 6
-0.362096 5.976313 -0.046782 22
-0.348365 5.959491 -0.044583 25
-0.333146 5.950384 -0.043892 40
-0.318345 5.937214 -0.042449 46
-0.296115 5.946345 -0.045539 58
-0.281379 5.933064 -0.044097 50
-0.261612 5.934600 -0.045678 38
-0.249548 5.913795 -0.042725 26
-0.230241 5.911195 -0.043555 28
-0.213103 5.905123 -0.043625 33
-0.196841 5.899299 -0.043693 33
-0.177064 5.900495 -0.045276 27
-0.166730 5.875800 -0.041569 26
-0.145617 5.880555 -0.043909 26
-0.128586 5.874187 -0.043982 27
-0.113277 5.868406 -0.044048 25
-0.096289 5.861926 -0.044122 26
-0.084988 5.840732 -0.041172 15
-0.063810 5.845130 -0.043515 12
-0.046903 5.838477 -0.043591 10
-0.025657 5.842712 -0.045935 5
-0.005825 5.843213 -0.047524 2
0.011075 5.836358 -0.047601 4
0.029443 5.833077 -0.048435 3
0.047812 5.829728 -0.049270 1
0.061628 5.815440 -0.047835 3
0.079961 5.811967 -0.048670 3
0.095208 5.801201 -0.047992 5
0.111123 5.794355 -0.048068 3
0.130986 5.794295 -0.049662 3
0.147714 5.786963 -0.049742 2
0.166009 5.783163 -0.050580 3
0.179488 5.768539 -0.049148 5
0.197743 5.764617 -0.049987 2
0.219290 5.763438 -0.051592 3
0.227679 5.742293 -0.048638 2
0.244225 5.734624 -0.048721 2
0.260744 5.726897 -0.048804 3
0.277236 5.719112 -0.048888 4
0.293700 5.711270 -0.048973 4
0.303320 5.689216 -0.046027 4
0.319681 5.681283 -0.046112 7
0.311001 5.624318 -0.035586 12
0.327134 5.616358 -0.035671 12
0.344993 5.611857 -0.036514 21
0.355788 5.593254 -0.034327 14
0.361150 5.564124 -0.029865 25
0.378863 5.559486 -0.030709 20
0.396572 5.554780 -0.031554 19
0.405207 5.532588 -0.028609 26
0.426498 5.534732 -0.030971 26
0.441271 5.522480 -0.030305 23
0.447010 5.497166 -0.026597 27
0.462699 5.488733 -0.026685 25
0.480233 5.483696 -0.027533 26
0.503420 5.488926 -0.030656 21
0.522877 5.487172 -0.032263 13
0.537749 5.478910 -0.032349 11
0.556077 5.473146 -0.033203 7
0.561235 5.447682 -0.029496 1
0.584532 5.452497 -0.032623 1
0.596150 5.436774 -0.031197 1
0.601782 5.410830 -0.027494 1
0.621131 5.408639 -0.029105 1
0.632525 5.392831 -0.027680 1
0.643840 5.376996 -0.026254 1
0.661126 5.371246 -0.027107 1
0.672318 5.355340 -0.025682 1
0.693630 5.356189 -0.028055 1
0.704723 5.340199 -0.026630 1
0.718351 5.331802 -0.026716 1
0.741195 5.331485 -0.029100 1
0.772994 5.348643 -0.035274 3
0.775576 5.319154 -0.030812 1
0.780095 5.293012 -0.027110 1
0.795070 5.283417 -0.027207 1
0.817044 5.287931 -0.030334 1
0.819887 5.257976 -0.025877 1
0.836152 5.252014 -0.026730 1
0.858223 5.251560 -0.029114 1
0.867958 5.235650 -0.027688 1
0.883469 5.225253 -0.027792 1
0.908487 5.198801 -0.026470 1
0.923132 5.188758 -0.026571 1
0.941480 5.185631 -0.028188 1
0.960568 5.181918 -0.029810 1
0.969113 5.161540 -0.027635 1
0.983627 5.151286 -0.027736 1
1.000385 5.144179 -0.028600 1
1.008817 5.128473 -0.027170 1
1.024655 5.117039 -0.027283 1
1.043638 5.112940 -0.028909 1
1.056550 5.103480 -0.029002 1
1.071576 5.092392 -0.029112 1
1.088194 5.084931 -0.029978 1
1.097729 5.067979 -0.028559 1
1.111916 5.057277 -0.028664 1
1.126066 5.046525 -0.028770 1
1.140178 5.035724 -0.028876 1
