# .PCD v.7 - Point Cloud Data file format
VERSION .7
FIELDS x y z intensity
SIZE 4 4 4 1
TYPE F F F U
COUNT 1 1 1 1
WIDTH 1550
HEIGHT 1
VIEWPOINT 0 0 0 1 0 0 0
POINTS 1550
DATA ascii
-2.971344 6.261640 0.910792 109
-2.955340 6.272826 0.910725 109
-2.935442 6.268401 0.910804 109
-2.916300 6.267838 0.910846 109
-2.897873 6.271143 0.910850 109
-2.880806 6.282266 0.910781 111
-2.862329 6.285448 0.910785 25
-2.830497 6.323198 0.910497 14
-2.790780 6.313337 0.910647 109
-2.774004 6.328066 0.910538 31
-2.945029 7.758411 0.897348 6
-2.919713 7.749928 0.897457 6
-2.896195 7.745149 0.897528 9
-2.816886 7.888695 0.896305 2
-2.791365 7.879731 0.896410 2
-2.591891 6.384892 0.910223 2
-2.569898 6.359245 0.910474 1
-2.550776 6.349310 0.910579 1
-2.660261 7.765624 0.897548 7
-2.476836 6.356945 0.910551 1
-2.457731 6.354733 0.910579 1
-2.437485 6.360589 0.910533 1
-2.361904 6.346718 0.910676 111
-2.342064 6.332129 0.910811 37
-2.323025 6.341475 0.910725 32
-2.306729 6.350572 0.910640 111
-2.287812 6.363783 0.910516 112
-2.266758 6.324962 0.910870 49
-2.232061 6.358884 0.910547 4
-2.211820 6.347858 0.910641 6
-2.193118 6.348704 0.910626 6
-2.174253 6.345489 0.910646 6
-2.155560 6.346204 0.910629 6
-2.137799 6.346823 0.910612 7
-2.120155 6.351380 0.910558 7
-2.100506 6.351932 0.910539 9
-2.079907 7.228582 0.902416 35
-2.058321 7.240961 0.902282 30
-2.026523 6.349359 0.910497 19
-2.007852 6.353558 0.910439 29
-1.988175 6.349697 0.910453 32
-1.970395 6.345761 0.910469 29
-1.951690 6.353764 0.910372 22
-1.932949 6.357702 0.910312 15
-1.914317 6.345575 0.910399 6
-1.896654 6.337395 0.910450 16
-1.858650 6.372814 0.910066 114
-1.804891 6.251487 0.911099 111
-1.784551 6.310878 0.910514 114
-1.765689 6.318227 0.910412 114
-1.747864 6.321550 0.910348 114
-1.729084 6.324773 0.910281 114
-1.710092 6.331925 0.910177 114
-1.693859 6.283083 0.910594 107
-1.674097 6.306086 0.910340 45
-1.655087 6.313042 0.910234 38
-1.616141 6.338724 0.909909 4
-1.581242 6.576931 0.907631 2
-1.545389 6.558341 0.907714 1
-1.524985 6.556784 0.907677 1
-1.181218 10.152558 0.873713 16
-1.148538 10.157752 0.873576 34
-1.113844 10.166665 0.873398 40
-1.081439 10.167637 0.873296 41
-1.052220 10.168812 0.873200 40
-1.020597 10.161608 0.873172 40
-0.984546 10.165887 0.873024 42
-0.951652 10.170378 0.872881 42
-0.921921 10.175114 0.872744 48
-0.886200 10.175033 0.872630 44
-0.854627 10.167257 0.872597 45
-0.822110 10.167312 0.872488 44
-0.789074 10.171219 0.872340 46
-0.759202 10.175427 0.872198 45
-0.724482 10.178892 0.872045 44
-0.692418 10.174523 0.871970 45
-0.658687 10.181924 0.871780 46
-0.625464 10.185242 0.871627 48
-0.594395 10.184722 0.871515 46
-0.560105 10.183609 0.871394 43
-0.527410 10.182618 0.871276 47
-0.495679 10.185717 0.871123 44
-0.461989 10.180288 0.871037 44
-0.427950 10.186839 0.870840 45
-0.395189 10.185378 0.870718 46
-0.363789 10.175919 0.870672 48
-0.331246 10.182390 0.870476 47
-0.297749 10.184521 0.870313 44
-0.264943 10.182596 0.870187 45
-0.233734 10.180855 0.870065 43
-0.200063 10.174466 0.869972 44
-0.166485 10.176118 0.869804 42
-0.132873 10.177648 0.869636 43
-0.100833 10.179379 0.869472 45
-0.066361 10.176420 0.869336 43
-0.033489 10.173669 0.869203 42
-0.001380 10.175053 0.869035 42
0.033209 10.179887 0.868823 47
0.066133 10.176779 0.868688 45
0.098332 10.177815 0.868517 44
0.130387 10.170574 0.868419 43
0.165122 10.174912 0.868203 47
0.200600 10.174849 0.868019 46
0.234503 10.175032 0.867840 47
0.270320 10.182863 0.867581 48
0.302392 10.175022 0.867477 49
0.337346 10.178710 0.867255 47
0.370750 10.182672 0.867038 46
0.405810 10.186101 0.866814 47
0.439912 10.185527 0.866628 44
0.473016 10.180961 0.866480 44
0.509228 10.187863 0.866213 46
0.542366 10.183047 0.866063 47
0.577629 10.185823 0.865833 45
0.607579 10.181659 0.865693 44
0.640734 10.176488 0.865540 43
0.680401 10.181811 0.865256 42
0.714702 10.180220 0.865061 42
0.746946 10.183283 0.864838 42
0.780160 10.177610 0.864681 43
0.816126 10.175163 0.864477 46
0.850509 10.173065 0.864278 46
0.886094 10.174661 0.864039 49
0.922515 10.184256 0.863724 49
0.955798 10.177950 0.863561 49
0.995569 10.186241 0.863232 47
1.026913 10.184519 0.863040 50
1.068443 10.191978 0.862701 48
1.103069 10.188941 0.862494 47
1.137710 10.185774 0.862286 49
1.170447 10.187356 0.862050 47
1.206435 10.187718 0.861799 45
1.242463 10.187942 0.861548 48
1.279860 10.191798 0.861255 46
1.319193 10.190594 0.860987 45
1.348077 10.180246 0.860867 42
1.384237 10.179918 0.860611 45
1.420434 10.179451 0.860353 48
1.456668 10.178842 0.860095 45
1.492940 10.178092 0.859835 49
1.527827 10.173461 0.859614 47
1.567024 10.179901 0.859270 47
1.606308 10.186180 0.858925 46
1.645679 10.192296 0.858578 49
1.683664 10.194530 0.858270 49
1.720343 10.188540 0.858037 49
1.758421 10.190471 0.857727 47
1.793345 10.193558 0.857430 43
1.833144 10.194532 0.857110 43
1.869857 10.192314 0.856838 40
1.903446 10.186938 0.856613 44
1.941770 10.188125 0.856297 42
1.978574 10.185479 0.856021 43
2.020169 10.193703 0.855618 43
2.058670 10.194415 0.855298 44
2.093997 10.187652 0.855060 48
2.130952 10.184408 0.854779 43
2.174489 10.195613 0.854329 45
2.213198 10.195696 0.854003 43
2.255288 10.202896 0.853592 42
2.289164 10.196130 0.853355 41
2.328025 10.195745 0.853025 40
2.368636 10.198820 0.852652 38
2.407499 10.193733 0.852353 39
2.444777 10.189255 0.852061 41
2.482212 10.189005 0.851734 39
2.523051 10.191421 0.851355 40
2.562196 10.190075 0.851017 39
2.610101 10.202103 0.850499 39
2.651176 10.203979 0.850115 37
2.687107 10.199349 0.849823 38
2.726478 10.197330 0.849480 38
2.771373 10.205823 0.849006 36
2.810865 10.203459 0.848659 35
2.852251 10.204476 0.848268 39
2.889974 10.198239 0.847961 37
2.928250 10.200623 0.847585 39
2.975466 10.211715 0.847059 40
3.018437 10.206773 0.846687 39
3.060140 10.206902 0.846288 37
3.098055 10.199840 0.845974 36
3.140514 10.208403 0.845504 34
3.184349 10.211500 0.845057 34
3.224345 10.207432 0.844696 34
3.266349 10.206676 0.844289 33
3.302455 10.195321 0.844012 32
3.346534 10.197688 0.843559 32
3.396722 10.210235 0.842972 34
3.440997 10.212189 0.842515 32
3.485351 10.213946 0.842057 31
3.521602 10.201756 0.841773 31
3.571787 10.209042 0.841213 27
3.616809 10.214607 0.840715 26
3.655214 10.205331 0.840382 28
3.702478 10.213929 0.839836 25
3.744166 10.202321 0.839481 27
3.793224 10.209500 0.838921 25
3.837052 10.215087 0.838425 25
3.886333 10.221828 0.837861 24
3.931428 10.221595 0.837386 23
3.972266 10.214430 0.836998 21
4.015301 10.210449 0.836563 19
4.062753 10.212978 0.836037 20
4.110296 10.215288 0.835510 20
4.162349 10.224045 0.834890 20
4.207871 10.222573 0.834403 20
4.251224 10.217578 0.833960 20
4.305841 10.228943 0.833288 19
4.344818 10.216923 0.832933 18
4.395127 10.221214 0.832348 20
4.441653 10.223099 0.831818 21
4.487581 10.220370 0.831321 21
4.538172 10.223976 0.830730 20
3.314663 8.321040 0.856058 0
3.337870 8.299345 0.855922 0
3.303283 8.195901 0.856930 0
3.287913 8.073137 0.857827 10
3.267148 7.993872 0.858529 9
3.267526 7.943613 0.858814 13
3.265203 7.890248 0.859147 20
3.271044 7.845613 0.859332 13
3.274251 7.802855 0.859536 10
3.273518 7.752910 0.859825 9
3.274960 7.706209 0.860069 13
3.276139 7.659581 0.860313 15
3.282019 7.619301 0.860464 15
3.314812 7.521409 0.860599 0
3.322432 7.484339 0.860704 0
3.334927 7.453484 0.860715 1
3.339635 7.413366 0.860869 1
3.346683 7.376370 0.860976 1
3.358672 7.345538 0.860987 1
3.370511 7.314701 0.860999 2
3.377022 7.277760 0.861107 2
3.372946 7.228689 0.861407 2
3.394686 7.210035 0.861228 1
3.408502 7.182240 0.861192 2
3.443234 7.178528 0.860771 6
3.441029 7.132596 0.861025 7
3.475692 7.128678 0.860601 15
3.470999 7.084696 0.860874 20
3.509328 7.082608 0.860392 34
3.546337 7.038362 0.860123 1
3.586333 7.039742 0.859597 1
3.611785 7.027195 0.859323 1
3.644765 7.018450 0.858932 1
3.675655 7.011512 0.858558 1
3.705914 6.999547 0.858213 1
3.751639 7.005838 0.857581 1
3.783655 6.997428 0.857193 1
3.817410 6.992758 0.856765 1
3.856073 6.988772 0.856266 1
3.885356 6.977020 0.855924 0
3.920951 6.975745 0.855452 0
3.953058 6.966554 0.855058 0
3.981607 6.949471 0.854743 0
4.039209 6.965388 0.853896 0
4.063633 6.952139 0.853618 0
4.107224 6.953506 0.853017 0
4.143351 6.945195 0.852556 0
4.174550 6.936058 0.852163 0
4.218318 6.936798 0.851557 0
4.303689 6.974902 0.850230 0
4.358826 6.945846 0.849575 1
4.418577 6.958171 0.848696 0
4.458837 6.956048 0.848140 0
4.562964 7.008424 0.846488 0
4.578888 6.985199 0.846348 0
4.621520 6.980038 0.845765 0
4.666123 6.978482 0.845139 0
4.704843 6.971345 0.844614 0
4.790319 7.007765 0.843273 0
4.832244 7.002724 0.842692 0
4.864291 6.984518 0.842294 0
4.915312 6.986952 0.841553 0
4.952249 6.981040 0.841041 0
4.985241 6.967312 0.840608 0
5.083125 7.006765 0.839067 0
5.122381 6.997667 0.838526 0
5.170837 6.996098 0.837825 0
5.202981 6.982685 0.837397 0
5.248465 6.978091 0.836745 0
5.331028 7.003792 0.835459 0
5.392199 7.011250 0.834538 0
5.410064 6.983027 0.834354 0
5.458942 6.979877 0.833640 0
5.504767 6.973957 0.832977 0
5.592372 6.998851 0.831608 0
5.634219 6.991133 0.831005 0
5.680290 6.984339 0.830335 0
5.748494 6.994501 0.829288 0
5.829516 7.014046 0.828022 0
5.875871 7.006305 0.827344 0
5.908496 6.989989 0.826891 0
5.993166 7.010768 0.825562 0
6.068484 7.023820 0.824390 0
6.111932 7.012502 0.823755 0
6.168255 7.010476 0.822902 0
6.208550 6.996283 0.822317 0
6.319917 7.033759 0.820534 0
6.357152 7.016554 0.819998 0
6.417097 7.015512 0.819079 0
6.464115 7.004827 0.818375 0
6.579686 7.042454 0.816518 1
6.606246 7.018707 0.816151 1
6.681920 7.029215 0.814958 1
6.729234 7.017250 0.814244 1
6.807272 7.023910 0.813016 1
6.877815 7.027111 0.811909 1
6.937503 7.024711 0.810979 1
6.962874 6.994293 0.810628 1
7.066926 7.018643 0.808956 1
7.124581 7.011404 0.808058 1
7.249125 7.047795 0.806040 1
12.542844 10.389229 0.717727 5
12.658014 10.395186 0.715890 4
12.795165 10.403524 0.713696 6
12.915790 10.407587 0.711767 4
13.046781 10.417304 0.709662 6
13.178019 10.426220 0.707551 4
13.309502 10.434335 0.705432 4
13.441333 10.449114 0.703298 4
13.573182 10.448151 0.701174 4
13.702068 10.459316 0.699084 6
13.849858 10.469724 0.696685 6
13.965341 10.463555 0.694817 6
14.068987 10.453395 0.693141 8
13.970768 10.320575 0.694825 8
14.290096 10.352093 0.689597 9
14.576336 10.447938 0.684867 4
14.730996 10.459234 0.682328 18
14.580826 10.294073 0.684856 15
15.194663 10.556759 0.674672 4
15.238443 10.502627 0.673965 7
15.687528 10.598739 0.666526 7
15.845804 10.600483 0.663903 7
16.023808 10.615654 0.660948 26
16.221645 10.644122 0.657659 5
16.147179 10.519675 0.658893 13
16.304426 10.521174 0.656270 13
16.016251 10.295083 0.661050 5
16.176712 10.298020 0.658365 5
17.290884 10.780861 0.639812 3
17.873913 10.903728 0.630054 6
14.306705 9.049866 0.689366 4
14.240004 8.950021 0.690444 8
14.228128 8.874161 0.690604 4
14.215921 8.798481 0.690766 4
14.167305 8.705721 0.691530 4
14.118239 8.613397 0.692299 6
14.157901 8.566844 0.691589 16
14.155239 8.497025 0.691578 6
14.152286 8.427319 0.691569 6
14.159954 8.362714 0.691378 6
14.160082 8.294845 0.691310 8
14.164845 8.225889 0.691157 8
14.159508 8.159375 0.691177 8
14.162466 8.093390 0.691051 12
14.172493 8.030670 0.690803 12
14.171264 7.963206 0.690740 10
14.199124 7.775321 0.690003 80
14.215317 7.715804 0.689634 84
14.236359 7.664956 0.689191 84
14.270660 7.612913 0.688513 72
14.341039 7.502664 0.687104 40
14.374823 7.450137 0.686422 38
14.404713 7.395995 0.685802 22
14.730600 7.396242 0.680100 2
14.948394 7.408838 0.676307 2
15.246589 7.388391 0.671028 2
15.577726 7.438463 0.665309 2
15.797070 7.455863 0.661484 2
16.018953 7.465672 0.657593 2
16.239613 7.466315 0.653699 2
16.482422 7.487520 0.649457 2
16.765583 7.513897 0.644511 2
17.018898 7.527955 0.640058 2
21.393814 8.672017 0.565350 3
21.458509 8.602816 0.564005 3
21.473505 8.517355 0.563495 3
21.427197 8.412525 0.564018 3
21.416065 8.314799 0.563928 3
21.451677 8.240791 0.563068 3
21.461535 8.154347 0.562626 3
21.558256 7.915471 0.560130 54
21.582275 7.833336 0.559426 11
21.603340 7.745903 0.558753 3
22.602850 7.856516 0.541126 4
31.506874 9.594249 0.386518 8
31.580814 9.482328 0.384741 8
31.560135 9.234727 0.384132 17
31.577032 9.114846 0.383337 25
31.581829 8.992164 0.382744 25
31.601753 8.873204 0.381883 25
31.640739 8.758708 0.380687 17
31.794275 8.552554 0.376993 17
32.101662 8.496660 0.371133 8
33.074863 8.576607 0.353705 9
19.591301 1.614100 0.562432 213
19.545263 1.541401 0.562730 213
19.543049 1.466243 0.562186 143
19.689253 0.188135 0.548800 143
19.758238 0.109655 0.546815 114
18.788525 -1.893238 0.545323 8
-36.947327 1.061826 0.392620 9
-36.966877 1.184059 0.393298 9
-36.866016 1.305344 0.395915 8
-36.888718 1.427481 0.396525 8
-36.898991 1.549588 0.397330 9
-36.868847 1.670992 0.398778 8
-36.862553 1.780561 0.399739 8
-36.855438 1.908368 0.400849 8
-36.820057 2.029210 0.402355 17
-36.807987 2.272392 0.404405 17
-36.943184 2.399656 0.403171 9
-37.441521 2.543802 0.396166 9
-39.872864 2.782883 0.358512 10
-50.923191 3.468195 0.184395 27
-50.921791 3.648062 0.185729 27
-50.980606 3.814312 0.185978 27
-51.369678 4.009799 0.181076 28
-51.159851 4.160760 0.185549 27
-51.248264 4.339250 0.185376 27
-51.335415 4.527013 0.185277 28
-51.438450 4.708026 0.184863 28
-51.792015 4.909558 0.180526 28
-51.694344 5.076593 0.183243 28
-51.380928 5.224556 0.189309 28
-51.588955 5.416932 0.187232 28
-51.450569 5.570049 0.190483 28
-51.533833 5.752328 0.190335 28
-51.580734 6.281769 0.192990 28
-51.363209 6.433036 0.197456 28
-51.343933 6.605443 0.198847 28
-51.523682 6.792419 0.197109 28
-51.900223 7.013276 0.192400 29
-51.680462 7.162915 0.196850 29
-51.658634 7.336425 0.198246 29
-51.637337 7.501188 0.199572 29
-45.975643 7.079776 0.288121 19
-45.752186 7.204714 0.292434 19
-45.647129 7.345440 0.294926 19
-45.822491 7.527369 0.293142 19
-52.153133 8.650084 0.197898 30
-52.299984 8.852391 0.196666 30
-52.272255 9.028053 0.198073 30
-45.711227 8.136538 0.298282 19
-45.791153 8.291030 0.297832 19
-45.735222 8.454560 0.299594 19
-45.500084 8.570950 0.303961 19
-45.473373 8.722878 0.305175 19
-45.654713 8.912532 0.303252 19
-51.786346 10.375011 0.212857 30
-49.263050 10.070814 0.251539 25
-49.266411 10.242779 0.252326 25
-51.769505 10.903957 0.215709 30
-37.866089 8.267039 0.424086 10
-37.588509 8.346823 0.428869 9
-34.964874 7.919261 0.468512 8
-34.679661 7.972737 0.473279 8
-34.668255 8.101712 0.474044 8
-34.815079 8.253826 0.472400 8
-34.567112 8.318470 0.476606 7
-34.423058 8.393299 0.479208 7
-34.535980 8.544755 0.478075 8
-27.595434 7.218729 0.581936 4
-26.940586 7.152036 0.591968 4
-33.702263 8.931707 0.492797 7
-25.998718 7.093566 0.606534 4
-25.632568 7.088630 0.612260 3
-25.305447 7.091326 0.617397 3
-24.874981 7.154318 0.624369 3
-25.047365 7.282858 0.622144 3
-24.967442 7.347427 0.623623 3
-24.919430 7.763216 0.625788 3
-24.928949 7.857629 0.625946 3
-24.729963 7.880466 0.629102 3
-24.744024 7.971620 0.629169 3
-24.764130 8.069306 0.629157 3
-21.695501 7.188503 0.673892 2
-21.084467 7.143587 0.683179 7
-20.471247 7.089198 0.692456 2
-20.349543 7.113204 0.694389 2
-20.013466 7.071380 0.699430 2
-19.934278 7.118145 0.700764 2
-19.576265 7.064801 0.706102 2
-19.411453 7.076204 0.708647 2
-19.202574 7.067559 0.711811 2
-18.981585 7.056541 0.715151 2
-18.752302 7.044274 0.718610 2
-18.596851 7.050639 0.720985 2
-18.399199 7.043712 0.723968 2
-18.216793 7.041061 0.726726 2
-18.134117 7.135943 0.728171 15
-17.658289 7.080879 0.735236 1
-17.525227 7.091843 0.737258 1
-17.487892 7.142955 0.737911 1
-17.416325 7.299492 0.739247 41
-17.301771 7.315290 0.740982 24
-17.260033 7.363785 0.741678 33
-17.230324 7.414048 0.742193 17
-17.175810 7.450580 0.743055 5
-17.134020 7.558232 0.743817 1
-17.104832 7.605310 0.744307 1
-17.088974 7.661360 0.744608 1
-17.141155 7.750933 0.743940 1
-17.125956 7.804514 0.744222 1
-17.111811 7.865010 0.744491 1
-17.099848 7.920209 0.744720 1
-17.071939 7.971334 0.745175 1
-17.094610 8.046011 0.744908 1
-17.065037 8.099728 0.745382 1
-17.070288 8.163499 0.745353 1
-17.135342 8.259396 0.744474 1
-12.580585 6.166709 0.809217 43
-12.515795 6.180803 0.810161 50
-12.429539 6.183844 0.811407 54
-12.325507 6.177396 0.812902 51
-12.246643 6.182903 0.814038 51
-12.157175 6.182478 0.815322 54
-12.071393 6.183320 0.816550 49
-11.992834 6.187306 0.817674 56
-11.899283 6.185133 0.819008 57
-9.081663 6.206596 0.908723 2
-9.028008 6.205298 0.909159 2
-8.980869 6.208462 0.909546 2
-8.927392 6.206566 0.909978 2
-8.883594 6.211586 0.910338 2
-8.833476 6.211525 0.910742 2
-8.795237 6.222094 0.911061 1
-8.746169 6.220313 0.911452 1
-8.715235 6.234157 0.911714 1
-8.684286 6.247849 0.911975 1
-8.650182 6.258914 0.912257 0
-8.455323 6.214705 0.913752 48
-8.409076 6.214683 0.914114 48
-8.350512 6.204288 0.914563 48
-8.307550 6.206246 0.914899 47
-8.266825 6.211619 0.915219 48
-8.227057 6.215670 0.915530 51
-8.182123 6.213276 0.915874 50
-8.133308 6.209138 0.916246 43
-8.087645 6.207317 0.916595 49
-8.047231 6.211510 0.916906 43
-8.011720 6.215981 0.917178 44
-7.969296 6.216074 0.917500 47
-7.926947 6.215934 0.917820 45
-7.884672 6.215563 0.918137 45
-7.841304 6.210252 0.918460 41
-7.805155 6.214755 0.918732 41
-7.760127 6.211040 0.919066 52
-7.721124 6.212449 0.919356 50
-7.683311 6.218344 0.919637 48
-7.649191 6.220055 0.919889 39
-7.607420 6.218143 0.920195 60
-7.565732 6.216003 0.920499 58
-7.529960 6.219111 0.920760 35
-7.488422 6.216538 0.921061 46
-7.455661 6.222013 0.921298 54
-7.417154 6.221786 0.921575 34
-7.387350 6.229690 0.921790 34
-7.334612 6.215144 0.922165 28
-7.302964 6.218948 0.922390 31
-7.267587 6.220720 0.922641 30
-7.234188 6.226047 0.922877 28
-7.200822 6.231199 0.923111 29
-7.167416 6.230613 0.923345 22
-7.126616 6.225980 0.923630 27
-7.094312 6.229697 0.923854 19
-7.050887 6.221786 0.924155 28
-7.018698 6.225142 0.924376 25
-6.978239 6.219678 0.924654 56
-6.951677 6.228475 0.924833 34
-6.909532 6.218854 0.925122 60
-6.893991 6.239013 0.925222 22
-6.856534 6.235735 0.925475 31
-6.816442 6.229326 0.925746 31
-6.779162 6.225645 0.925996 43
-6.750064 6.230624 0.926188 31
-6.704861 6.217693 0.926492 69
-6.683907 6.231252 0.926624 47
-6.638909 6.217903 0.926926 64
-6.615319 6.228223 0.927075 60
-6.586421 6.232445 0.927260 42
-6.550555 6.226702 0.927495 65
-6.521744 6.230625 0.927678 64
-6.485115 6.225332 0.927916 45
-6.472024 6.247166 0.927986 107
-6.425108 6.229395 0.928295 19
-6.391291 6.226628 0.928511 69
-6.367839 6.235939 0.928652 29
-6.331565 6.229793 0.928883 75
-6.303043 6.232698 0.929058 32
-6.305045 6.272539 0.929015 105
-6.246098 6.238105 0.929405 45
-6.215158 6.237499 0.929595 53
-6.194307 6.249204 0.929713 107
-6.147781 6.224998 0.930016 64
-6.118619 6.227780 0.930189 74
-6.095359 6.235981 0.930321 34
-6.057302 6.225184 0.930559 72
-6.038087 6.240166 0.930658 43
-6.005997 6.234658 0.930853 78
-5.990098 6.251924 0.930929 109
-5.958099 6.246157 0.931122 29
-5.920444 6.234544 0.931353 72
-5.898798 6.245823 0.931466 107
-5.875655 6.253121 0.931590 107
-5.835873 6.237799 0.931835 53
-5.817003 6.246724 0.931932 107
-5.784501 6.240755 0.932123 30
-5.743230 6.226221 0.932372 72
-5.730510 6.245237 0.932420 107
-5.695901 6.235559 0.932624 69
-5.664630 6.228323 0.932806 103
-5.653678 6.255608 0.932830 25
-5.588183 6.237854 0.933210 71
-5.563054 6.240592 0.933341 74
-5.537951 6.243218 0.933472 107
-5.515112 6.249048 0.933585 43
-5.478906 6.234852 0.933796 17
-5.429892 6.238661 0.934047 107
-5.402773 6.237363 0.934190 107
-5.389721 6.255454 0.934229 107
-5.357376 6.247830 0.934406 107
-5.323889 6.236087 0.934595 107
-5.304327 6.243838 0.934681 17
-5.276068 6.280614 0.934762 114
-5.230119 6.248000 0.935044 22
-5.176625 6.243410 0.935313 69
-5.171652 6.274557 0.935283 115
-5.146068 6.276014 0.935404 114
-5.096805 6.235608 0.935711 107
-5.070313 6.232765 0.935841 107
-5.047937 6.236695 0.935939 107
-5.022453 6.233090 0.936065 107
-5.007226 6.251201 0.936102 107
-4.970911 6.230591 0.936307 107
-4.954581 6.244544 0.936355 63
-4.929265 6.240518 0.936478 107
-4.907007 6.243873 0.936571 16
-4.856732 6.239802 0.936802 73
-4.855672 6.281462 0.936724 115
-4.812382 6.245834 0.936984 27
-4.800627 6.265829 0.936994 69
-4.769925 6.250522 0.937157 72
-4.738481 6.240060 0.937312 101
-4.736854 6.277092 0.937241 114
-4.710071 6.273042 0.937361 114
-4.671434 6.243510 0.937584 107
-4.649437 6.245820 0.937669 57
-4.621132 6.233308 0.937811 107
-4.598304 6.235879 0.937898 107
-4.576408 6.237897 0.937981 107
-4.554531 6.239825 0.938063 107
-4.539787 6.251542 0.938094 37
-4.505589 6.232622 0.938270 79
-4.489926 6.244638 0.938303 109
-4.471570 6.253437 0.938353 109
-4.448972 6.250889 0.938444 65
-4.439858 6.281708 0.938406 114
-4.418004 6.283076 0.938484 115
-4.382793 6.255286 0.938678 19
-4.349271 6.279362 0.938742 115
-4.314657 6.246686 0.938944 72
-4.305106 6.277219 0.938903 115
-4.285028 6.281711 0.938962 114
-4.260159 6.275123 0.939064 115
-4.240114 6.279446 0.939121 115
-4.218497 6.280015 0.939193 115
-4.192230 6.269445 0.939307 114
-4.169155 6.266136 0.939391 114
-4.135405 6.236865 0.939575 107
-4.112521 6.233325 0.939658 107
-4.094206 6.240807 0.939697 107
-4.078278 6.251565 0.939719 107
-4.046572 6.225486 0.939886 107
-4.029200 6.232376 0.939921 103
-4.144021 6.638427 0.938503 5
-4.134299 6.672166 0.938442 5
-4.138533 6.743314 0.938239 5
-4.142296 6.814560 0.938036 4
-4.137246 6.863399 0.937919 5
-4.138767 6.931049 0.937730 3
-3.897032 6.329467 0.940044 2
-3.874330 6.324901 0.940118 4
-3.852614 6.319911 0.940191 4
-3.830953 6.314837 0.940262 4
-3.809730 6.313778 0.940321 4
-3.785938 6.305070 0.940407 3
-3.767375 6.311411 0.940436 2
-3.745315 6.310415 0.940494 2
-3.725143 6.308713 0.940548 2
-3.706568 6.314842 0.940576 2
-3.684271 6.309490 0.940645 2
-3.664473 6.311667 0.940685 2
-3.643752 6.314065 0.940726 3
-3.624630 6.311693 0.940776 3
-3.601827 6.310400 0.940831 4
-3.582770 6.307880 0.940880 4
-3.561188 6.310242 0.940919 3
-3.544467 6.315245 0.940940 3
-3.524743 6.316905 0.940976 4
-3.506140 6.322335 0.940998 5
-3.491920 6.343081 0.940964 6
-3.467791 6.329149 0.941054 4
-3.447140 6.330786 0.941088 4
-3.431543 6.343401 0.941080 4
-3.409708 6.336924 0.941139 4
-3.389070 6.338336 0.941172 5
-3.369287 6.335310 0.941217 4
-3.358604 6.367052 0.941138 1
-3.347774 6.402898 0.941046 2
-3.463511 7.033757 0.938912 14
-3.417737 6.933818 0.939294 10
-3.217001 6.274528 0.941649 115
-3.203122 6.294245 0.941608 114
-3.180979 6.287072 0.941662 115
-3.161597 6.287401 0.941687 115
-3.143100 6.291563 0.941699 115
-3.123797 6.287643 0.941736 115
-3.103530 6.287962 0.941761 115
-3.083463 6.279987 0.941810 115
-3.064175 6.279961 0.941833 115
-3.045704 6.283782 0.941842 115
-3.027220 6.287540 0.941850 115
-3.008722 6.291233 0.941858 115
-2.987162 6.279154 0.941919 115
-2.967946 6.278778 0.941939 115
-2.949479 6.282264 0.941945 115
-2.933165 6.297489 0.941910 115
-2.912511 6.289043 0.941955 115
-2.893774 6.280191 0.941999 115
-2.873018 6.275695 0.942030 115
-2.854818 6.274750 0.942047 116
-2.826227 6.332197 0.941878 5
-2.788913 6.338114 0.941881 106
-2.771438 6.348884 0.941855 115
-2.750973 6.339813 0.941895 30
-2.884619 7.730844 0.937218 53
-2.861085 7.734030 0.937215 52
-2.646241 6.406672 0.941710 32
-2.779896 7.845104 0.936863 6
-2.755041 7.839977 0.936884 5
-2.729785 7.830786 0.936917 9
-2.608398 7.823267 0.936940 4
-2.584543 7.825489 0.936929 3
-2.429763 6.337375 0.941948 2
-2.412366 6.342889 0.941926 2
-2.391418 6.316527 0.942010 4
-2.337588 6.348683 0.941882 115
-2.317278 6.326022 0.941951 30
-2.298904 6.331228 0.941924 48
-2.280738 6.340364 0.941884 106
-2.263673 6.353379 0.941830 115
-2.242534 6.326495 0.941910 62
-2.205825 6.340325 0.941839 7
-2.186979 6.337154 0.941836 8
-2.169716 6.349868 0.941780 8
-2.150579 6.338575 0.941803 9
-2.131909 6.339207 0.941786 12
-2.113924 6.363765 0.941686 19
-2.094764 6.348274 0.941721 13
-2.075888 6.340714 0.941729 14
-2.057065 6.333087 0.941737 16
-2.021721 6.341613 0.941671 31
-2.001143 6.337811 0.941661 24
-1.982476 6.337921 0.941639 26
-1.964739 6.333966 0.941631 21
-1.946066 6.341950 0.941581 16
-1.927409 6.337869 0.941571 13
-1.909601 6.345731 0.941521 7
-1.890025 6.341511 0.941509 4
-1.833899 6.344483 0.941418 115
-1.780287 6.270911 0.941587 107
-1.763673 6.246303 0.941645 107
-1.744246 6.249545 0.941601 107
-1.727725 6.248841 0.941575 107
-1.709180 6.251993 0.941532 107
-1.690611 6.255080 0.941488 107
-1.670707 6.282066 0.941359 106
-1.649689 6.292895 0.941282 41
-1.610063 6.330514 0.941077 3
-1.592250 6.317288 0.941086 7
-1.547526 6.426340 0.940622 0
-1.524750 6.460678 0.940457 0
-1.504269 6.499147 0.940282 0
-1.133455 10.180849 0.926957 14
-1.070533 10.178992 0.926819 34
-1.036462 10.179650 0.926736 35
-1.004391 10.176371 0.926670 35
-0.971905 10.176955 0.926588 36
-0.939403 10.177426 0.926506 36
-0.908035 10.181939 0.926411 38
-0.876625 10.186345 0.926316 38
-0.843893 10.174371 0.926271 37
-0.811346 10.174388 0.926185 39
-0.778275 10.178257 0.926083 38
-0.744639 10.185973 0.925965 39
-0.714153 10.181892 0.925895 41
-0.681526 10.181449 0.925805 40
-0.647848 10.176702 0.925725 41
-0.616814 10.176257 0.925636 41
-0.582981 10.183380 0.925514 41
-0.548475 10.194333 0.925375 41
-0.518217 10.177495 0.925340 42
-0.485228 10.188461 0.925203 42
-0.450878 10.186941 0.925102 44
-0.419729 10.185831 0.925008 43
-0.384012 10.191952 0.924875 44
-0.351214 10.190335 0.924775 43
-0.317705 10.192539 0.924659 43
-0.284161 10.194621 0.924542 44
-0.252043 10.188715 0.924455 42
-0.220064 10.190862 0.924340 44
-0.186446 10.192587 0.924220 44
-0.153565 10.190266 0.924114 42
-0.120679 10.187826 0.924008 42
-0.086192 10.193109 0.923869 41
-0.054081 10.186511 0.923776 38
-0.020342 10.187631 0.923651 42
0.012589 10.184714 0.923540 40
0.047228 10.189497 0.923397 38
0.079326 10.182435 0.923300 38
0.110829 10.187690 0.923165 38
0.145417 10.183937 0.923045 39
0.177703 10.184697 0.922919 39
0.212541 10.188858 0.922771 40
0.245569 10.185108 0.922653 41
0.283043 10.192507 0.922482 42
0.315149 10.184622 0.922378 42
0.346941 10.189068 0.922236 42
0.381995 10.192589 0.922082 43
0.420315 10.195147 0.921917 44
0.454460 10.194519 0.921777 42
0.486444 10.198486 0.921630 43
0.522823 10.192887 0.921493 42
0.558096 10.195739 0.921334 42
0.593419 10.198457 0.921173 42
0.627709 10.197189 0.921028 40
0.658808 10.196710 0.920893 40
0.695858 10.198579 0.920723 40
0.729106 10.193092 0.920591 40
0.764618 10.195156 0.920425 40
0.801325 10.200915 0.920241 38
0.833014 10.195536 0.920112 38
0.869083 10.192883 0.919953 37
0.904754 10.194410 0.919782 38
0.936460 10.188675 0.919650 39
0.973799 10.189430 0.919470 39
1.009577 10.190554 0.919296 38
1.046640 10.195341 0.919104 39
1.082518 10.196183 0.918927 37
1.116831 10.197425 0.918756 38
1.155355 10.205575 0.918543 39
1.190090 10.202214 0.918380 38
1.223233 10.199279 0.918222 39
1.262245 10.202653 0.918016 40
1.298383 10.202662 0.917832 37
1.334560 10.202532 0.917647 36
1.366449 10.195318 0.917502 37
1.407029 10.201849 0.917274 35
1.441934 10.197544 0.917102 33
1.476642 10.197454 0.916920 35
1.512995 10.196630 0.916729 36
1.547958 10.191926 0.916554 35
1.585637 10.198907 0.916333 35
1.622109 10.197659 0.916138 35
1.660079 10.199989 0.915925 36
1.699715 10.201529 0.915703 35
1.736315 10.199835 0.915504 35
1.771444 10.194290 0.915323 34
1.812642 10.203419 0.915068 36
1.853949 10.212372 0.914811 36
1.889131 10.210748 0.914615 34
1.924399 10.204628 0.914429 38
1.962805 10.205734 0.914205 38
2.001265 10.206685 0.913979 36
2.039780 10.207479 0.913753 38
2.076743 10.204453 0.913543 38
2.110498 10.193965 0.913369 39
2.150796 10.206703 0.913098 41
2.191152 10.210535 0.912848 39
2.236459 10.216374 0.912561 43
2.273643 10.212576 0.912345 41
2.305954 10.206490 0.912162 41
2.346561 10.209663 0.911906 43
2.388852 10.211906 0.911640 40
2.427888 10.211118 0.911399 40
2.465241 10.206563 0.911176 38
2.502750 10.206239 0.910942 41
2.541914 10.204981 0.910697 40
2.584501 10.206357 0.910424 41
2.625892 10.217108 0.910135 42
2.666667 10.210157 0.909889 41
2.707853 10.211796 0.909619 42
2.747287 10.209696 0.909367 42
2.787207 10.216203 0.909093 41
2.826751 10.213778 0.908838 43
2.870045 10.218276 0.908543 40
2.909694 10.215509 0.908285 39
2.950722 10.207335 0.908028 39
2.989111 10.209483 0.907766 43
3.032685 10.213258 0.907465 41
3.078263 10.220350 0.907141 41
3.116235 10.213221 0.906897 42
3.158101 10.212934 0.906610 40
3.203933 10.219447 0.906282 41
3.243976 10.215301 0.906013 41
3.288009 10.217942 0.905701 38
3.328144 10.213448 0.905429 38
3.368311 10.208785 0.905155 38
3.414147 10.209929 0.904829 40
3.460479 10.215255 0.904490 42
3.503692 10.222277 0.904169 40
3.545690 10.215929 0.903880 40
3.592290 10.220648 0.903535 40
3.633233 10.219290 0.903241 36
3.680007 10.223605 0.902894 37
3.720589 10.217486 0.902608 37
3.763306 10.214596 0.902299 37
3.808192 10.214911 0.901967 39
3.855283 10.218410 0.901613 38
3.904612 10.225068 0.901234 40
3.947590 10.221386 0.900919 39
3.992781 10.220879 0.900580 41
4.035861 10.216814 0.900261 41
4.083948 10.223654 0.899886 37
4.124949 10.215858 0.899586 42
4.172611 10.217881 0.899218 40
4.221972 10.218605 0.898838 40
4.269809 10.220178 0.898466 42
4.316122 10.222625 0.898104 40
4.364130 10.223763 0.897729 39
4.409951 10.221385 0.897374 38
4.459726 10.220963 0.896983 36
4.505678 10.218154 0.896625 39
4.552383 10.219541 0.896253 39
3.391991 8.408853 0.907823 0
3.297927 8.225103 0.908806 0
3.311334 8.190569 0.908739 0
3.314944 8.148212 0.908760 0
3.316055 8.097639 0.908809 1
3.314548 8.038898 0.908888 1
3.310227 7.982113 0.908986 1
3.300619 7.873909 0.909181 0
3.312415 7.839656 0.909119 1
3.311782 7.789599 0.909174 1
3.318250 7.749088 0.909160 1
3.317080 7.699183 0.909218 1
3.325562 7.661911 0.909181 1
3.323870 7.612154 0.909241 1
3.321895 7.562491 0.909301 0
3.329703 7.525360 0.909267 0
3.342372 7.494455 0.909184 1
3.340787 7.444067 0.909238 1
3.357061 7.420289 0.909116 0
3.358994 7.377100 0.909132 0
3.362155 7.337971 0.909133 0
3.378743 7.308323 0.909010 1
3.385209 7.271372 0.908978 0
3.381498 7.227206 0.909039 0
3.451137 7.219964 0.908429 3
3.467581 7.195016 0.908298 4
3.475986 7.161026 0.908241 2
3.494837 7.139021 0.908084 2
3.500276 7.102046 0.908054 4
3.548180 7.069706 0.907637 7
3.590485 7.031105 0.907268 1
3.611537 7.011694 0.907083 1
3.646154 7.006842 0.906769 0
3.679755 7.002806 0.906462 0
3.711694 6.994714 0.906170 0
3.751914 6.995168 0.905798 0
3.772839 6.975194 0.905609 0
3.815909 6.978178 0.905208 0
3.845135 6.966588 0.904938 0
3.891132 6.972023 0.904507 0
3.921437 6.959086 0.904224 0
3.960915 6.959429 0.903853 0
3.998673 6.955706 0.903497 0
4.042151 6.957431 0.903085 0
4.080021 6.953305 0.902726 0
4.109366 6.940587 0.902446 0
4.151198 6.937830 0.902046 0
4.196767 6.942555 0.901610 0
4.226161 6.929339 0.901326 0
4.261328 6.921510 0.900986 0
4.348798 6.963008 0.900149 0
4.381264 6.951910 0.899832 0
4.419576 6.946116 0.899458 0
4.459819 6.943968 0.899065 0
4.483503 6.924233 0.898828 0
4.575016 6.966491 0.897945 0
4.610641 6.957089 0.897592 0
4.652221 6.952869 0.897180 0
4.699811 6.953767 0.896711 0
4.738519 6.946432 0.896324 0
4.774259 6.936252 0.895964 0
4.861138 6.970723 0.895116 0
4.897055 6.960009 0.894751 0
4.948108 6.962197 0.894241 0
4.974980 6.943258 0.893960 0
5.029201 6.947557 0.893417 0
5.117120 6.979975 0.892551 0
5.162480 6.975823 0.892089 0
5.178177 6.950854 0.891911 0
5.240009 6.957835 0.891288 0
5.278285 6.949181 0.890890 0
5.374410 6.983355 0.889936 0
5.404602 6.965278 0.889611 0
5.449289 6.960902 0.889148 0
5.492986 6.951195 0.888689 0
5.553425 6.958793 0.888072 0
5.631786 6.975793 0.887278 0
5.684128 6.973912 0.886733 0
5.720757 6.959466 0.886336 0
5.788003 6.970624 0.885647 0
5.873373 6.990836 0.884777 0
5.916555 6.980406 0.884313 0
5.973629 6.984568 0.883719 0
6.026500 6.980840 0.883158 0
6.123246 7.005052 0.882167 0
6.163494 6.991060 0.881724 0
6.237123 7.005742 0.880963 0
6.267768 6.984158 0.880609 0
6.383684 7.021921 0.879426 0
6.406887 6.996552 0.879143 0
6.466888 6.995166 0.878500 0
6.570486 7.021974 0.877429 0
6.626447 7.018936 0.876824 0
6.699941 7.025521 0.876043 0
6.745030 7.009665 0.875532 0
6.853971 7.041897 0.874406 0
6.919064 7.038828 0.873696 0
6.971147 7.033320 0.873121 0
7.069615 7.051823 0.872082 0
7.100703 7.026921 0.871700 0
80.336060 54.157578 0.154966 30
13.647265 10.996074 0.807181 1
13.753852 10.917982 0.805851 13
13.901976 10.930415 0.804235 10
13.739563 10.752481 0.805675 3
14.079905 10.886649 0.802169 18
14.091883 10.667267 0.801565 24
14.091232 10.590646 0.801403 14
14.140619 10.468211 0.800571 132
14.194175 10.344741 0.799679 12
14.429713 10.408706 0.797169 4
14.526393 10.311776 0.795836 18
15.968272 10.962526 0.781066 4
15.983096 10.811458 0.780507 20
15.982111 10.729684 0.780303 11
16.187269 10.677653 0.777810 135
16.112782 10.476370 0.778112 9
16.216740 10.450160 0.776839 9
16.669075 10.603091 0.772046 12
18.043722 10.970014 0.757171 14
14.318070 8.966303 0.794507 50
14.169645 8.685183 0.795362 3
14.186743 8.555422 0.794742 8
14.191916 8.420783 0.794237 35
14.187349 8.353905 0.794066 36
14.175227 8.283843 0.793972 50
14.177551 8.210401 0.793693 38
14.184367 8.145923 0.793388 49
14.190930 8.081486 0.793085 28
14.200909 8.018686 0.792744 38
14.210646 7.955903 0.792403 15
14.238621 7.704720 0.791146 102
14.258255 7.646618 0.790692 96
14.287645 7.595814 0.790146 73
14.419954 7.513421 0.788238 26
14.453783 7.460606 0.787624 5
14.667940 7.417948 0.784870 1
14.893126 7.434103 0.782213 1
15.099945 7.441617 0.779740 1
15.671333 7.454477 0.772861 2
15.860358 7.449790 0.770543 2
16.078577 7.457746 0.767920 2
16.269550 7.458081 0.765594 2
16.568661 7.487851 0.762073 2
16.844418 7.510938 0.758806 2
17.096716 7.527720 0.755795 2
17.323957 7.530537 0.753026 2
17.700499 7.578002 0.748624 2
21.471285 8.660030 0.707259 42
21.471268 8.569577 0.706843 28
21.484837 8.488181 0.706298 31
21.487976 8.399069 0.705843 31
21.516180 8.228125 0.704686 3
21.561058 8.067012 0.703356 6
21.604780 7.990561 0.702442 7
21.636742 7.910516 0.701653 3
21.603115 7.811423 0.701580 3
21.884449 7.802755 0.698045 3
23.591043 7.905999 0.677343 4
31.577253 9.442355 0.585706 55
31.588104 9.333095 0.584983 63
31.613127 9.214990 0.584030 78
31.629955 9.094935 0.583164 78
31.645248 8.962210 0.582243 77
31.684546 8.847589 0.581115 70
31.727350 8.733685 0.579942 47
31.767103 8.631353 0.578868 31
31.977045 8.554478 0.575792 16
32.301472 8.495090 0.571370 8
79.285309 15.836456 0.020986 30
68.663185 13.411975 0.140781 36
62.514000 5.493888 0.165715 41
62.530048 5.257554 0.163757 41
63.418034 5.098616 0.151170 41
62.893661 4.157319 0.150794 41
62.856350 3.928749 0.149524 41
21.957195 1.990753 0.660291 3
19.914200 1.828793 0.685300 2
19.591694 1.665787 0.688175 2
19.549934 1.589329 0.688111 2
19.541582 1.438901 0.687027 5
19.526882 1.371067 0.686675 2
19.492186 1.288062 0.686456 2
19.485088 1.213096 0.685943 2
19.510080 1.070956 0.684467 21
19.522223 0.996016 0.683697 18
19.530104 0.921005 0.682979 31
19.537724 0.845939 0.682261 23
19.537081 0.770900 0.681646 23
19.544176 0.695754 0.680928 18
19.541582 0.545638 0.679700 2
19.563883 0.470008 0.678773 2
19.545937 0.395322 0.678368 2
19.583698 0.319013 0.677230 2
19.669157 0.240770 0.675460 2
19.671375 0.089460 0.674123 7
19.708048 0.012156 0.672978 5
33.453114 -0.849752 0.488788 24
33.414513 -0.971581 0.488208 100
33.411430 -1.095283 0.487150 83
33.407913 -1.218986 0.486093 67
33.415939 -1.343481 0.484876 41
33.427513 -1.468335 0.483605 25
33.466572 -1.595337 0.481957 16
33.493210 -1.721726 0.480468 17
33.618229 -2.106353 0.475344 83
21.404905 -1.615879 0.636362 3
21.053482 -1.662118 0.640417 3
20.575415 -1.686765 0.646294 2
20.169395 -1.712986 0.651231 2
19.786789 -1.743329 0.655827 2
19.375996 -1.771169 0.660804 2
18.787901 -1.912588 0.666928 15
18.769716 -1.983856 0.666459 12
18.771072 -2.057942 0.665709 12
18.768209 -2.131479 0.665017 10
18.765085 -2.205032 0.664324 15
18.757748 -2.277979 0.663688 12
18.749571 -2.354527 0.663023 10
18.750198 -2.425136 0.662304 7
18.753918 -2.500064 0.661498 7
18.757368 -2.575059 0.660693 7
18.757242 -2.645814 0.659973 5
18.764101 -2.721633 0.659109 5
18.786421 -2.800419 0.658017 5
18.788784 -2.875744 0.657210 5
18.810518 -2.954862 0.656115 2
18.816248 -3.031140 0.655249 2
-36.885967 1.090513 0.596882 8
-36.857418 1.212242 0.598172 8
-36.792446 1.333419 0.599832 24
-36.737228 1.575698 0.602357 48
-36.722988 1.696840 0.603473 64
-36.716320 1.818080 0.604506 64
-36.741215 1.940156 0.605212 88
-36.745693 2.061800 0.606122 64
-36.761738 2.183899 0.606911 24
-37.020584 2.431757 0.606140 8
-37.730602 2.586040 0.599938 8
-62.082333 4.293199 0.359549 45
-64.950790 4.914107 0.334387 43
-61.883293 5.763601 0.372532 45
-62.009781 5.984669 0.372824 45
-64.637947 6.423622 0.348716 43
-69.523842 7.786897 0.307754 39
-49.052441 7.394393 0.516777 14
-46.062695 7.144660 0.545953 13
-45.348045 7.199398 0.553678 12
-45.326118 7.350806 0.554893 12
-45.283886 7.499165 0.556291 12
-45.162048 7.944202 0.560399 63
-45.161205 8.098853 0.561387 63
-45.215630 8.402768 0.562736 12
-45.133026 8.551590 0.564508 12
-45.204815 8.719834 0.564811 12
-49.114204 10.099759 0.533224 14
-48.842731 10.217177 0.536696 14
-48.651089 10.340386 0.539382 14
-37.772453 8.298441 0.638188 9
-37.211483 8.305803 0.643943 8
-34.880669 7.942029 0.665538 7
-34.258156 8.040541 0.672431 6
-34.360958 8.187490 0.672225 7
-34.229305 8.513661 0.675392 6
-28.854994 7.359688 0.723341 4
-27.774811 7.199100 0.733370 4
-27.365503 7.189840 0.737450 3
-26.761339 7.134204 0.743241 3
-26.351837 7.123198 0.747307 3
-25.981476 7.119298 0.751013 3
-25.460426 7.073793 0.756010 3
-25.261093 7.109050 0.758198 3
-25.100418 7.322259 0.760915 49
-24.779202 7.578149 0.765415 3
-24.756071 7.657759 0.766040 3
-24.732664 7.737288 0.766664 3
-24.708979 7.816735 0.767287 3
-24.746250 7.914707 0.767391 3
-24.718122 7.993024 0.768046 3
-24.705002 8.075988 0.768570 3
-21.555925 7.170042 0.795429 2
-21.149385 7.115552 0.799188 2
-20.989206 7.130357 0.800837 2
-20.642338 7.097726 0.804104 2
-20.442427 7.103859 0.806098 2
-20.182013 7.088360 0.808587 2
-19.997707 7.096772 0.810433 2
-19.704887 7.063295 0.813153 2
-19.487034 7.057159 0.815258 1
-19.276993 7.052219 0.817289 1
-19.086054 7.052563 0.819154 1
-18.983006 7.079679 0.820275 1
-18.751009 7.062877 0.822462 1
-18.593412 7.074905 0.824044 1
-18.381804 7.059309 0.826033 1
-18.226690 7.063364 0.827553 1
-18.019905 7.056517 0.829526 1
-17.860373 7.059756 0.831080 1
-17.831629 7.112340 0.831570 1
-17.812321 7.162170 0.831955 1
-17.536501 7.120614 0.834443 1
-17.570765 7.197115 0.834414 1
-17.557522 7.251826 0.834754 1
-17.371387 7.242782 0.836501 1
-17.327265 7.287437 0.837093 1
-17.354351 7.358237 0.837101 1
-17.332033 7.411932 0.837515 1
-17.272673 7.450001 0.838220 1
-17.268435 7.511249 0.838484 1
-17.226063 7.559405 0.839061 1
-17.228724 7.623809 0.839266 1
-17.331198 7.729009 0.838671 1
-17.219799 7.743769 0.839774 1
-17.298391 7.842677 0.839377 1
-17.303553 7.909328 0.839558 1
-17.276886 7.958513 0.839975 1
-17.218534 7.999575 0.840660 1
-17.235130 8.068633 0.840734 1
-17.219957 8.129654 0.841077 1
-17.207054 8.185338 0.841378 1
-17.207129 8.250552 0.841587 1
-17.263334 8.346241 0.841370 1
-12.512935 6.197186 0.878612 57
-12.405176 6.189427 0.879581 35
-12.308327 6.186366 0.880462 40
-12.227713 6.186338 0.881201 40
-12.141826 6.187592 0.881992 39
-12.058704 6.191904 0.882764 41
-11.969499 6.190240 0.883572 40
-11.887514 6.191731 0.884322 40
-11.810086 6.192863 0.885029 43
-11.721262 6.189603 0.885825 43
-11.645767 6.195048 0.886522 39
-11.572183 6.196656 0.887191 41
-11.483745 6.191828 0.887974 38
-11.412975 6.196095 0.888621 39
-11.337888 6.199626 0.889304 41
-11.255158 6.191946 0.890024 40
-11.184691 6.194875 0.890661 41
-11.114318 6.197376 0.891294 42
-11.033630 6.193480 0.892001 40
-10.972950 6.202669 0.892561 41
-10.907235 6.204331 0.893147 43
-10.826903 6.199060 0.893843 42
-10.753601 6.197368 0.894485 41
-10.694158 6.203429 0.895021 42
-10.627015 6.206528 0.895616 42
-10.557458 6.205628 0.896222 40
-10.495749 6.206991 0.896764 40
-10.429811 6.207384 0.897338 35
-10.357177 6.203160 0.897960 43
-10.292367 6.201282 0.898517 36
-10.240290 6.209006 0.898983 40
-10.156963 6.198560 0.899680 39
-10.361995 6.368034 0.898247 9
-10.412809 6.444335 0.897957 8
-10.424862 6.491952 0.897943 7
-9.888821 6.222632 0.902018 1
-9.812975 6.213994 0.902646 2
-9.755735 6.213288 0.903129 2
-9.700990 6.215849 0.903595 1
-9.639708 6.213592 0.904107 2
-9.579447 6.209641 0.904606 2
-9.496849 6.230736 0.905330 1
-9.449028 6.236356 0.905737 1
-9.407795 6.246320 0.906095 1
-9.366584 6.256060 0.906450 0
-9.151588 6.219344 0.908168 44
-9.843938 6.196556 0.957430 64
-9.789085 6.199668 0.957644 64
-9.734307 6.202461 0.957856 68
-9.669662 6.198217 0.958068 73
-9.608448 6.195837 0.958276 66
-9.557241 6.199881 0.958479 64
-9.509392 6.205904 0.958679 69
-9.428763 6.188805 0.958882 71
-9.462971 6.251590 0.959067 39
-9.522965 6.333140 0.959251 24
-9.518244 6.367465 0.959434 27
-9.518934 6.407796 0.959626 25
-9.170386 6.234557 0.960011 1
-9.103638 6.224231 0.960193 2
-9.056359 6.227756 0.960374 2
-9.009144 6.231014 0.960552 2
-8.945070 6.223238 0.960735 2
-8.905326 6.229508 0.960901 1
-8.864701 6.236779 0.961074 1
-8.824110 6.243829 0.961245 1
-8.799395 6.262872 0.961417 0
-8.774629 6.281806 0.961589 1
-8.537103 6.208672 0.962047 66
-8.497885 6.212976 0.962197 68
-8.452477 6.212064 0.962344 76
-8.403129 6.209517 0.962495 77
-8.353877 6.206687 0.962644 74
-8.317086 6.213737 0.962796 56
-8.285574 6.226798 0.962958 32
-8.225157 6.211890 0.963087 47
-8.182382 6.213154 0.963231 45
-8.136620 6.211600 0.963372 46
-8.097036 6.214976 0.963514 43
-8.063578 6.223348 0.963658 72
-8.008943 6.213250 0.963788 57
-7.981619 6.226458 0.963932 50
-7.933212 6.221091 0.964062 63
-7.900831 6.227643 0.964192 34
-7.849610 6.219135 0.964315 47
-7.816412 6.226330 0.964450 29
-7.770432 6.223666 0.964581 39
-7.731390 6.225103 0.964708 44
-7.699229 6.230726 0.964831 67
-7.660290 6.231775 0.964955 80
-7.618480 6.229897 0.965074 80
-7.579677 6.230521 0.965195 36
-7.529276 6.219984 0.965303 55
-7.499362 6.228398 0.965428 44
-7.461680 6.227432 0.965537 52
-7.423153 6.227228 0.965651 56
-7.393328 6.235152 0.965772 80
-7.354909 6.234568 0.965883 80
-7.310844 6.228184 0.965986 47
-7.264042 6.218748 0.966084 67
-7.237242 6.228776 0.966204 44
-7.190635 6.218885 0.966298 63
-7.172351 6.237111 0.966425 50
-7.128722 6.229644 0.966520 71
-7.099205 6.236224 0.966631 50
-7.065042 6.236037 0.966727 80
-7.027242 6.233689 0.966824 21
-6.997829 6.239800 0.966931 67
-6.954638 6.231291 0.967018 49
-6.930814 6.242883 0.967131 43
-6.874100 6.219392 0.967194 68
-6.844901 6.224815 0.967296 72
-6.823880 6.238901 0.967409 44
-6.800111 6.249959 0.967517 80
-6.760136 6.243199 0.967599 80
-6.717579 6.233261 0.967675 80
-6.696570 6.246864 0.967784 25
-6.659522 6.242498 0.967865 34
-6.620821 6.234135 0.967936 42
-6.590168 6.234568 0.968018 42
-6.560370 6.239470 0.968115 51
-6.528889 6.240408 0.968200 58
-6.497458 6.241190 0.968284 34
-6.468682 6.244854 0.968372 54
-6.432154 6.239246 0.968444 63
-6.396635 6.232673 0.968510 74
-6.375735 6.245065 0.968609 36
-6.334301 6.232804 0.968667 74
-6.320159 6.254962 0.968785 29
-6.278890 6.242343 0.968841 39
-6.281692 6.281420 0.968979 105
-6.223802 6.246019 0.968989 19
-6.202920 6.257755 0.969083 56
-6.161106 6.245151 0.969138 59
-6.132789 6.247251 0.969214 54
-6.100475 6.242211 0.969272 74
-6.064858 6.234583 0.969329 74
-6.032425 6.234509 0.969405 74
-6.005240 6.235314 0.969471 74
-5.991770 6.255754 0.969576 33
-5.951579 6.241135 0.969616 73
-5.928406 6.248650 0.969696 74
-5.900433 6.249665 0.969763 74
-5.874888 6.253758 0.969835 52
-5.845530 6.250624 0.969890 74
-5.815317 6.248025 0.969948 74
-5.788442 6.247846 0.970007 40
-5.753663 6.238485 0.970050 74
-5.736733 6.255604 0.970147 26
-5.700687 6.242034 0.970177 62
-5.663858 6.228930 0.970211 59
-5.640953 6.235278 0.970281 57
-5.629480 6.257941 0.970384 33
-5.615620 6.277298 0.970479 104
-5.574509 6.257045 0.970495 46
-5.543509 6.249168 0.970532 43
-5.513925 6.245078 0.970579 59
-5.490183 6.251424 0.970648 74
-5.458494 6.243739 0.970686 74
-5.431313 6.242570 0.970736 74
-5.402904 6.237330 0.970775 74
-5.388932 6.256020 0.970864 24
-5.347905 6.234951 0.970874 62
-5.327418 6.243378 0.970941 74
-5.303536 6.244391 0.970990 52
-5.274497 6.239119 0.971028 74
-5.247659 6.237098 0.971071 63
-5.220876 6.234954 0.971114 60
-5.215148 6.266730 0.971228 43
-5.205062 6.291707 0.971328 109
-5.175003 6.281927 0.971350 109
-5.124388 6.237752 0.971298 74
-5.101944 6.241900 0.971351 74
-5.072469 6.236180 0.971384 74
-5.048967 6.236132 0.971425 74
-5.021651 6.233601 0.971464 74
-5.005333 6.247717 0.971537 61
-4.989875 6.261254 0.971605 34
-4.947682 6.230100 0.971577 74
-4.936330 6.254943 0.971674 74
-4.898372 6.230411 0.971659 69
-4.879033 6.236630 0.971710 64
-4.875151 6.270793 0.971823 16
-4.831564 6.280971 0.971923 103
-4.812107 6.286942 0.971971 109
-4.776644 6.265109 0.971958 21
-4.762904 6.286003 0.972043 106
-4.740684 6.288671 0.972084 109
-4.697239 6.248190 0.972024 74
-4.680703 6.261267 0.972088 50
-4.645887 6.238684 0.972070 74
-4.621226 6.233294 0.972088 74
-4.598396 6.235865 0.972128 74
-4.574715 6.234303 0.972156 74
-4.551076 6.232641 0.972183 74
-4.539799 6.256021 0.972268 44
-4.503930 6.229012 0.972235 74
-4.501239 6.270298 0.972361 26
-4.469016 6.250254 0.972344 74
-4.462605 6.284294 0.972452 23
-4.440716 6.285753 0.972484 105
-4.404609 6.254043 0.972435 76
-4.379531 6.248009 0.972448 57
-4.377022 6.288757 0.972570 109
-4.351922 6.282581 0.972582 109
-4.330164 6.283597 0.972610 109
-4.298697 6.262586 0.972585 17
-4.265024 6.286119 0.972691 109
-4.240189 6.279440 0.972699 109
-4.218571 6.280009 0.972723 109
-4.195418 6.276808 0.972739 109
-4.175406 6.280890 0.972771 109
-4.154783 6.280817 0.972792 109
-4.131145 6.273267 0.972794 109
-4.106660 6.265993 0.972797 108
-4.070296 6.228930 0.972728 74
-4.049033 6.228834 0.972747 74
-4.027796 6.228652 0.972766 74
-3.999308 6.209758 0.972739 74
-3.986846 6.231768 0.972812 69
-4.149932 6.773239 0.974175 3
-4.146573 6.825796 0.974323 2
-4.138702 6.867148 0.974443 4
-4.134358 6.915648 0.974580 4
-4.111261 6.919816 0.974609 4
-4.092937 6.930682 0.974653 4
-4.069812 6.934690 0.974681 4
-3.840681 6.345356 0.973239 2
-3.820664 6.348110 0.973261 4
-3.795455 6.335656 0.973244 4
-3.774212 6.334455 0.973255 4
-3.755546 6.340755 0.973284 3
-3.734339 6.339396 0.973293 2
-3.713164 6.337955 0.973302 2
-3.694485 6.344042 0.973329 2
-3.672127 6.338635 0.973327 2
-3.654382 6.344283 0.973352 3
-3.632101 6.338712 0.973349 3
-3.614601 6.348338 0.973383 2
-3.593553 6.346428 0.973388 2
-3.573693 6.348268 0.973402 2
-3.553839 6.350034 0.973416 2
-3.535120 6.355565 0.973438 3
-3.515091 6.353075 0.973440 4
-3.496361 6.358470 0.973461 4
-3.474501 6.356366 0.973464 4
-3.454687 6.357766 0.973474 2
-3.446421 6.397405 0.973580 1
-3.436958 6.437306 0.973686 2
-3.536760 6.886815 0.974822 2
-3.528404 6.938696 0.974959 6
-3.505617 6.936392 0.974958 6
-3.294663 6.276095 0.973306 105
-3.270410 6.257432 0.973263 104
-3.247255 6.242548 0.973229 76
-3.231728 6.258675 0.973272 103
-3.215179 6.270865 0.973306 105
-3.197649 6.279109 0.973329 107
-3.180104 6.283184 0.973341 106
-3.162544 6.287200 0.973352 106
-3.144918 6.295269 0.973373 109
-3.123818 6.287653 0.973355 109
-3.104474 6.287773 0.973355 109
-3.082651 6.276085 0.973326 16
-3.036880 6.240691 0.973235 4
-3.021706 6.260103 0.973283 3
-3.003303 6.263776 0.973291 7
-2.953902 6.305867 0.973390 109
-2.931733 6.289632 0.973346 109
-2.913446 6.288888 0.973341 109
-2.896333 6.300063 0.973365 109
-2.876430 6.295415 0.973349 109
-2.853236 6.270974 0.973283 66
-2.826579 6.340258 0.973446 7
-2.792267 6.365942 0.973499 107
-2.773836 6.364717 0.973490 108
-2.749805 6.331913 0.973400 17
-3.007465 8.626472 0.979124 2
-2.980273 8.626118 0.979111 2
-2.842252 8.377482 0.978437 7
-2.581164 6.350111 0.973367 1
-2.562896 6.356222 0.973372 1
-2.543798 6.346262 0.973336 1
-2.525937 6.356223 0.973350 2
-2.509505 6.390097 0.973421 3
-2.486742 6.352174 0.973315 2
-2.466890 6.342033 0.973277 2
-2.449867 6.351652 0.973289 2
-2.430449 6.345360 0.973260 2
-2.412088 6.350955 0.973260 1
