# .PCD v.7 - Point Cloud Data file format
VERSION .7
FIELDS x y z intensity
SIZE 4 4 4 1
TYPE F F F U
COUNT 1 1 1 1
WIDTH 1567
HEIGHT 1
VIEWPOINT 0 0 0 1 0 0 0
POINTS 1567
DATA ascii
8.457763 6.226516 0.183534 15
8.644727 6.316037 0.177919 15
8.629837 6.261448 0.179695 11
8.586445 6.184647 0.182561 11
8.725496 6.237409 0.178753 11
8.761902 6.216968 0.178697 11
8.893438 6.262587 0.175200 13
8.948095 6.253956 0.174495 13
8.991259 6.237106 0.174205 20
8.999708 6.196411 0.175155 20
9.072592 6.199374 0.173799 18
9.063473 6.169999 0.174743 18
9.197111 6.189602 0.171860 31
9.206938 6.149476 0.172742 31
9.245626 6.130708 0.172541 30
9.287033 6.111207 0.172303 30
9.340173 6.099083 0.171655 20
9.386609 6.082347 0.171240 20
9.404364 6.047126 0.171816 15
9.450730 6.029991 0.171399 15
10.383830 6.570346 0.140484 6
9.628354 6.047719 0.167658 6
9.564271 5.961347 0.171011 2
10.434287 6.447129 0.142617 2
10.446427 6.404174 0.143447 14
10.648504 6.475678 0.137861 14
10.669875 6.440075 0.138320 19
10.758713 6.439374 0.136634 19
10.617358 6.305254 0.142578 17
10.727328 6.319252 0.140116 17
10.754467 6.284503 0.140412 14
11.054333 6.408819 0.131627 14
10.887883 6.264983 0.138258 10
10.517344 6.002517 0.151662 10
11.353772 6.419889 0.125467 6
11.432403 6.434930 0.123559 6
11.383758 6.337183 0.126758 6
11.552456 6.374731 0.122524 6
11.729252 6.417952 0.117991 6
11.587781 6.288659 0.123735 6
11.863648 6.383348 0.116032 10
11.922927 6.361255 0.115307 10
12.157489 6.430723 0.108985 12
12.293343 6.446994 0.105836 12
12.356599 6.424844 0.105004 19
12.304132 6.343202 0.107832 19
12.224499 6.248452 0.111495 17
12.419485 6.292511 0.106492 17
12.556559 6.308977 0.103270 12
12.687116 6.315722 0.100379 12
10.862123 -3.027327 0.179755 9
10.458832 -2.955136 0.190884 1
10.336901 -2.960134 0.193794 1
10.199697 -2.959883 0.197160 1
10.124028 -2.976666 0.198721 1
9.968378 -2.967358 0.202682 1
9.820568 -3.000824 0.205686 1
9.813821 -3.036537 0.205209 1
9.841302 -3.082940 0.203703 1
9.735653 -3.085781 0.206202 1
9.782477 -3.136524 0.204137 1
9.797515 -3.181244 0.202943 1
8.859612 -2.999621 0.228817 9
8.843733 -3.046387 0.228285 1
8.738547 -3.044832 0.230806 1
8.634015 -3.041060 0.233351 1
8.551692 -3.046131 0.235189 1
8.424792 -3.033026 0.238437 1
8.413584 -3.064178 0.238066 1
8.252586 -3.038911 0.242349 1
8.253146 -3.072137 0.241648 1
8.212373 -3.090019 0.242223 1
8.223947 -3.127418 0.241168 1
8.217235 -3.156363 0.240709 1
8.209864 -3.186746 0.240230 1
7.803692 -3.061958 0.252260 1
7.735247 -3.066785 0.253725 1
7.689160 -3.080028 0.254489 1
7.546598 -3.054274 0.258307 1
7.527132 -3.075799 0.258272 12
7.446007 -3.073569 0.260160 12
7.398787 -3.083249 0.261009 1
7.336284 -3.087791 0.262314 1
7.182567 -3.081893 0.265897 9
6.770318 -3.367079 0.267902 9
7.560614 -3.789314 0.240306 1
7.522285 -3.803428 0.240745 1
7.505361 -3.828141 0.240452 1
6.660878 -3.580640 0.264515 1
6.710665 -3.698906 0.260256 9
6.722202 -3.736078 0.258991 1
6.684611 -3.746233 0.259459 1
6.616432 -3.769821 0.260149 9
6.624722 -3.803859 0.259018 1
6.607900 -3.825258 0.258736 1
6.656800 -3.884563 0.256075 1
6.605156 -3.885941 0.257041 1
6.622555 -3.927464 0.255497 1
6.608772 -3.950841 0.255080 1
6.615514 -3.986451 0.253904 1
6.635797 -4.030391 0.252219 1
6.655855 -4.074521 0.250528 1
6.692749 -4.129252 0.248196 1
13.579843 -11.356288 0.513053 3
13.561564 -11.421898 0.511920 3
12.678836 -11.540599 0.499068 3
12.534958 -11.490806 0.497926 3
12.157736 -11.221691 0.496915 3
12.485795 -11.603582 0.495662 3
12.316312 -11.527537 0.494555 10
12.184009 -11.484631 0.493448 10
12.075438 -11.462896 0.492341 6
12.029528 -11.499768 0.491198 6
11.979174 -11.532311 0.490056 20
11.921536 -11.557708 0.488920 20
11.822812 -11.538992 0.487885 10
11.677926 -11.438427 0.487442 10
11.617842 -11.499864 0.485729 3
11.486642 -11.450594 0.484703 3
11.565557 -11.609529 0.483393 3
11.318867 -11.443254 0.482552 3
10.685284 -10.882963 0.482384 3
10.717284 -10.991834 0.481180 3
10.678827 -11.029476 0.480088 3
10.424523 -10.996977 0.477094 25
10.365951 -11.008558 0.476109 3
10.349383 -11.068264 0.474966 3
10.296997 -11.090018 0.473905 3
10.271814 -11.140844 0.472772 3
10.265392 -11.212208 0.471581 3
10.307240 -11.336745 0.470242 3
10.256104 -11.356357 0.469218 6
10.009849 -11.163895 0.468737 6
9.944077 -11.169299 0.467722 3
10.245669 -11.586460 0.465483 3
10.189235 -11.604481 0.464397 3
10.098474 -11.583189 0.463434 3
10.086887 -11.651818 0.462187 6
10.036340 -11.634844 0.461729 6
9.951196 -11.655610 0.460173 9
9.875907 -11.654305 0.459104 9
9.806679 -11.655454 0.458081 9
9.750449 -11.671557 0.457005 9
9.664183 -11.647358 0.456131 6
9.595327 -11.647476 0.455120 6
9.531681 -11.653428 0.454088 9
9.473180 -11.665266 0.453035 9
9.409180 -11.665873 0.452078 9
9.338217 -11.661605 0.451094 9
9.272405 -11.663225 0.450087 9
9.206697 -11.664529 0.449085 9
9.148536 -11.674930 0.448043 9
9.075597 -11.666188 0.447090 9
9.005290 -11.660236 0.446127 9
8.947376 -11.669753 0.445094 9
8.878542 -11.664734 0.444132 6
8.831684 -11.688003 0.443035 6
8.769078 -11.690357 0.442040 9
8.695749 -11.678029 0.441120 9
8.620222 -11.662127 0.440223 5
8.556819 -11.661911 0.439249 5
8.507412 -11.676007 0.438250 5
8.475185 -11.674856 0.437770 5
8.383385 -11.677421 0.436299 8
8.319184 -11.674445 0.435346 8
8.257146 -11.669709 0.434454 8
8.203883 -11.685525 0.433351 8
8.143450 -11.686586 0.432380 8
8.085402 -11.690648 0.431394 8
8.020588 -11.684587 0.430468 5
7.970432 -11.694931 0.429494 5
7.918039 -11.701770 0.428542 8
7.852617 -11.697925 0.427560 8
7.795148 -11.705371 0.426509 5
7.735155 -11.699845 0.425637 5
7.680814 -11.702383 0.424715 5
7.629997 -11.714388 0.423685 5
7.570438 -11.712787 0.422744 5
7.507721 -11.705879 0.421840 5
7.435404 -11.683540 0.421043 2
7.375290 -11.684055 0.420047 2
7.345140 -11.726922 0.418807 2
7.291367 -11.732469 0.417822 2
7.237576 -11.733112 0.416919 2
7.186026 -11.741598 0.415914 2
7.147028 -11.765647 0.414844 2
7.126472 -11.778252 0.414280 2
7.064669 -11.815851 0.412585 2
6.571955 -11.724459 0.405820 5
6.513302 -11.716258 0.404955 5
6.498674 -11.786364 0.403450 5
6.486544 -11.861757 0.401892 5
6.482795 -11.948334 0.400277 2
5.051321 -11.855414 0.376001 25
5.015903 -11.881571 0.374842 2
4.580653 -11.878745 0.366537 25
4.527438 -11.858739 0.365878 7
4.481765 -11.869966 0.364774 7
4.461633 -11.941902 0.363018 2
2.878289 -11.642773 0.336230 25
2.805960 -11.526969 0.336934 6
2.736040 -11.573087 0.334518 9
2.765176 -12.057609 0.325658 4
2.712327 -12.030965 0.325025 4
2.661942 -12.013844 0.324257 38
2.621285 -12.029210 0.323062 38
2.586554 -12.061545 0.321661 42
2.572359 -12.097439 0.320641 42
2.425910 -12.136827 0.316615 4
2.383109 -12.143556 0.315526 4
2.295220 -11.924620 0.317879 11
2.151049 -11.836491 0.316375 25
2.072535 -11.863237 0.314067 25
2.026168 -11.843134 0.313411 6
1.986171 -11.858309 0.312198 6
1.951497 -11.904884 0.310482 2
1.877859 -11.990191 0.307099 2
1.817918 -11.884419 0.307817 2
1.944421 -13.896104 0.270763 25
1.899272 -13.926853 0.269097 8
1.855587 -13.969340 0.267228 8
1.808943 -13.991877 0.265685 16
1.780265 -13.963445 0.265577 16
1.706473 -13.948897 0.264128 8
1.656509 -13.945139 0.263021 8
1.619906 -14.030233 0.260456 2
1.486259 -14.633204 0.245229 9
1.442104 -14.730350 0.242228 9
1.078582 -11.627688 0.295498 9
1.302574 -14.876676 0.235935 3
1.242548 -14.791798 0.236178 3
0.454741 6.085146 0.423483 31
0.480946 6.136978 0.423353 47
0.501937 6.130974 0.423950 47
0.526882 6.164696 0.424054 14
0.553514 6.212242 0.423994 14
0.583685 6.289504 0.423579 36
0.597222 6.211589 0.425052 36
0.624310 6.256846 0.425032 14
0.646104 6.254322 0.425588 14
0.693922 6.466133 0.423607 15
0.718925 6.483209 0.423949 15
0.748900 6.537877 0.423854 16
1.439856 11.594651 0.365837 16
1.501063 11.757978 0.364879 11
0.800082 6.414027 0.426877 11
0.765132 6.008977 0.432002 21
0.776168 6.011438 0.432224 21
0.893121 6.578429 0.426639 54
0.923305 6.622408 0.426696 54
0.938007 6.565494 0.427869 43
0.949790 6.492760 0.429205 43
0.964961 6.443707 0.430272 48
1.003929 6.538613 0.429782 48
1.039720 6.617751 0.429447 82
1.002646 6.262907 0.433775 82
0.996017 6.099587 0.436005 17
1.029073 6.160697 0.435866 17
1.063299 6.225581 0.435699 19
1.088326 6.239210 0.436067 19
1.115354 6.262559 0.436337 14
1.138706 6.266170 0.436810 14
1.206031 6.489333 0.435084 28
1.200296 6.345640 0.437038 28
1.171247 6.094361 0.440030 13
1.235398 6.293441 0.438577 13
1.181174 5.938989 0.442498 19
1.339477 6.565663 0.436951 19
1.383122 6.654361 0.436634 68
1.389589 6.575048 0.437921 68
1.417144 6.595457 0.438232 56
1.419190 6.551897 0.438904 56
1.451329 6.530023 0.439922 20
1.368555 6.085117 0.444510 20
1.444216 6.303442 0.443021 16
1.479620 6.352414 0.443086 16
1.422325 6.030737 0.446455 45
1.590368 6.607109 0.441830 45
1.608227 6.586016 0.442516 56
1.635218 6.595532 0.442959 56
1.536985 6.133320 0.447451 24
1.638547 6.420831 0.445520 24
1.652469 6.383899 0.446342 22
1.689654 6.431749 0.446451 22
1.741797 6.531403 0.446138 36
1.675292 6.211442 0.449274 36
1.687498 6.172581 0.450081 28
1.731990 6.245051 0.449989 28
1.746408 6.217886 0.450674 20
1.759951 6.180469 0.451485 20
1.780309 6.170153 0.452053 38
1.785926 6.111979 0.452989 38
1.817311 6.137863 0.453274 33
1.832808 6.116250 0.453897 33
1.894923 6.241333 0.453420 20
1.913116 6.260717 0.453522 20
1.940531 6.226629 0.454560 11
1.970370 6.244196 0.454923 11
2.020183 6.324590 0.454814 20
2.029847 6.277036 0.455673 20
2.037459 6.227975 0.456509 26
2.061759 6.228077 0.456998 26
2.055037 6.139363 0.458093 20
2.164483 6.380716 0.456944 20
2.116224 6.179245 0.458766 13
2.099656 6.066187 0.459997 13
2.160597 6.167462 0.459812 43
2.268017 6.392200 0.458846 43
2.327355 6.483237 0.458767 55
2.370408 6.529028 0.458986 55
2.316879 6.320461 0.460793 24
2.428789 6.545297 0.459909 24
2.456243 6.551825 0.460356 31
2.320959 6.140879 0.463327 31
2.343815 6.136149 0.463835 58
2.496657 6.451984 0.462500 58
2.578504 6.589336 0.462216 55
2.573018 6.513827 0.463134 55
2.568588 6.442124 0.464019 51
2.584409 6.448559 0.464235 51
2.543344 6.251108 0.466114 18
2.552563 6.212445 0.466809 18
2.569448 6.192166 0.467402 26
2.593394 6.188354 0.467906 26
2.617874 6.188587 0.468364 34
2.638608 6.177274 0.468905 34
2.679686 6.211545 0.469218 40
2.707884 6.216431 0.469681 40
2.730099 6.210766 0.470170 22
2.736941 6.165862 0.470892 22
2.832410 6.315645 0.470679 57
2.888288 6.377877 0.470888 57
2.936687 6.425853 0.471147 44
2.928110 6.350245 0.471985 44
2.930068 6.300543 0.472673 46
3.014776 6.419564 0.472659 46
3.128451 6.595569 0.472426 83
3.189441 6.661434 0.472673 83
3.196599 6.617720 0.473372 57
3.209123 6.582399 0.474057 57
3.252817 6.611888 0.474460 85
3.301304 6.650057 0.474835 85
3.327201 6.643519 0.475382 78
3.345203 6.649982 0.475620 78
3.188857 6.217175 0.478408 25
3.242467 6.265714 0.478733 21
3.250079 6.227621 0.479354 21
3.268897 6.210654 0.479900 23
3.325987 6.263840 0.480223 23
3.319808 6.201080 0.480911 8
3.321971 6.154176 0.481543 8
3.360977 6.173645 0.481973 25
3.427688 6.241684 0.482269 25
3.415779 6.170273 0.482961 29
3.430287 6.145861 0.483516 29
3.454612 6.141085 0.483993 40
3.538421 6.235813 0.484241 40
3.557014 6.220303 0.484751 20
3.572550 6.197214 0.485301 20
3.606415 6.205007 0.485778 31
3.857873 6.574274 0.485455 31
3.696213 6.256025 0.486660 22
3.653337 6.136962 0.487405 22
3.780609 6.295869 0.487583 57
3.919652 6.468556 0.487787 57
3.940043 6.451135 0.488338 72
4.087534 6.658456 0.488257 72
3.920511 6.323960 0.489560 26
3.788312 6.066688 0.490499 26
3.995936 6.342166 0.490579 9
4.021278 6.332901 0.491105 9
3.866890 6.051543 0.491966 24
3.914386 6.077762 0.492424 24
4.042957 6.225296 0.492745 21
4.091337 6.250714 0.493224 21
4.201492 6.367040 0.493616 20
4.362017 6.553004 0.493990 20
4.378036 6.527532 0.494547 26
4.233670 6.269993 0.495275 26
4.242922 6.236810 0.495812 20
4.230255 6.174914 0.496335 20
4.267966 6.185070 0.496812 17
4.303393 6.189386 0.497320 17
4.376171 6.245560 0.497811 22
4.413116 6.251022 0.498326 22
4.412524 6.204533 0.498852 22
4.445928 6.204920 0.499367 22
4.454459 6.171350 0.499884 20
4.498593 6.185957 0.500399 20
4.503339 6.147491 0.500909 27
4.541667 6.176247 0.501172 27
4.585974 6.167847 0.501946 15
4.632950 6.184854 0.502470 15
4.649586 6.161997 0.502980 20
4.631624 6.092455 0.503486 20
4.667602 6.094849 0.504003 7
4.709842 6.104921 0.504527 7
4.775996 6.146960 0.505055 7
4.770986 6.094713 0.505556 7
4.744545 6.018500 0.506001 12
5.120577 6.439775 0.506972 12
4.795433 5.997861 0.506982 20
5.377525 6.663769 0.508332 20
5.428763 6.678546 0.508926 63
5.419987 6.620839 0.509421 63
5.476583 6.643902 0.510001 36
5.508734 6.635129 0.510564 36
5.359417 6.412983 0.510769 47
5.338776 6.343816 0.511207 47
5.543803 6.536791 0.512121 23
5.541614 6.488412 0.512601 23
5.519395 6.417556 0.513029 23
5.457072 6.301928 0.513350 23
5.586550 6.403675 0.514134 26
5.556452 6.347469 0.514291 26
5.534678 6.256888 0.514923 18
5.563160 6.244629 0.515452 18
5.578403 6.219945 0.515921 28
5.506648 6.098527 0.516159 28
5.640625 6.200779 0.516990 21
5.781935 6.306996 0.517881 21
5.686132 6.161082 0.518027 28
5.821617 6.261500 0.518892 28
5.860234 6.260699 0.519434 21
5.836338 6.192251 0.519789 21
5.839817 6.152825 0.520230 21
5.901644 6.173683 0.520869 21
5.906327 6.135585 0.521310 31
5.985231 6.173019 0.522015 31
6.017972 6.163135 0.522555 23
6.063782 6.168316 0.523124 23
6.138062 6.201462 0.523803 28
6.186671 6.206386 0.524409 28
6.209683 6.185844 0.524914 34
6.245526 6.177773 0.525470 34
6.265573 6.154235 0.525961 28
6.285532 6.130632 0.526450 28
6.330012 6.130426 0.527040 36
6.420430 6.194977 0.527625 36
6.449415 6.155561 0.528375 26
6.542468 6.199564 0.529184 26
6.577617 6.191138 0.529721 30
6.572258 6.140932 0.530114 30
6.705817 6.220181 0.531119 32
6.741175 6.211058 0.531659 32
6.782489 6.207127 0.532228 30
6.833871 6.209787 0.532864 30
6.873399 6.201533 0.533444 25
6.933942 6.211611 0.534127 25
6.981105 6.209474 0.534747 30
7.037390 6.214962 0.535412 30
7.086233 6.213594 0.536042 25
7.122575 6.198977 0.536628 25
7.201976 6.223057 0.537416 25
7.234301 6.206613 0.537964 25
7.297674 6.218323 0.538654 22
7.350005 6.218130 0.539307 22
7.385484 6.203611 0.539872 17
7.465743 6.225767 0.540676 17
7.501327 6.210746 0.541242 17
7.505832 6.170357 0.541637 17
7.481044 6.108756 0.541848 30
7.695994 6.259535 0.543222 30
7.770410 6.249656 0.544211 16
7.829834 6.251896 0.544914 16
7.893004 6.258889 0.545622 19
7.949013 6.255360 0.546327 19
8.026185 6.270017 0.547137 19
8.089266 6.273268 0.547867 19
8.133863 6.264275 0.548472 21
8.187560 6.259637 0.549149 21
8.257328 6.266696 0.549923 21
8.328850 6.274537 0.550709 21
8.390876 6.274825 0.551439 21
8.441716 6.266477 0.552102 21
8.481282 6.249611 0.552696 26
8.524077 6.234887 0.553309 26
8.608036 6.251768 0.554161 21
8.585783 6.190044 0.554367 21
8.726503 6.244018 0.555595 16
8.803863 6.252274 0.556429 16
8.868257 6.250920 0.557181 16
8.944265 6.257155 0.558009 16
9.023723 6.265198 0.558861 18
9.048801 6.235605 0.559361 18
9.151653 6.258563 0.560368 20
9.159225 6.240191 0.560585 20
9.286590 6.254877 0.561924 18
9.336688 6.240861 0.562588 18
9.464306 6.279798 0.563753 9
9.502886 6.257329 0.564342 9
9.613652 6.281346 0.565416 9
9.711234 6.296028 0.566404 9
9.776978 6.289701 0.567178 6
9.844487 6.284060 0.567965 6
9.909289 6.278708 0.568717 6
9.993333 6.280042 0.569635 6
9.999833 6.235360 0.570001 13
10.130661 6.266937 0.571229 13
10.220807 6.272758 0.572176 13
10.300839 6.271832 0.573055 13
10.336988 6.246585 0.573608 15
10.499100 6.290977 0.575085 15
10.424428 6.197181 0.574865 13
10.345777 6.101967 0.574609 13
10.744267 6.283995 0.577769 14
10.810091 6.273947 0.578536 14
10.924612 6.291272 0.579655 14
11.031118 6.298115 0.580748 14
11.155267 6.314041 0.581972 7
11.268637 6.348971 0.582968 7
11.412187 6.358198 0.584431 27
11.459933 6.329443 0.585101 27
11.524103 6.311986 0.585875 25
11.540741 6.268569 0.586296 25
11.707195 6.305145 0.587829 10
11.783891 6.292929 0.588696 10
12.035973 6.372245 0.590878 5
12.148585 6.376959 0.592019 5
12.277375 6.389215 0.593283 5
11.809890 6.095594 0.590039 5
11.881001 6.079348 0.590856 2
12.813443 6.495590 0.598229 2
12.856351 6.463478 0.598835 8
13.078951 6.514299 0.600843 8
13.087198 6.461262 0.601197 9
13.142018 6.430949 0.601905 9
13.544636 6.567630 0.605298 6
13.538551 6.506234 0.605539 6
13.544863 6.450941 0.605871 9
13.598048 6.417728 0.606565 9
13.693594 6.406826 0.607573 6
14.413574 6.679540 0.613481 6
14.476799 6.647122 0.614262 20
14.411859 6.586998 0.613893 20
14.809111 6.425273 0.618531 3
14.941786 6.420305 0.619851 3
15.883410 6.756071 0.627635 10
15.855192 6.678673 0.627681 10
15.893148 6.629102 0.628252 10
16.053082 6.629426 0.629801 10
16.080496 6.578122 0.630271 3
16.330845 6.609808 0.632562 3
18.243631 7.304368 0.648290 7
18.449474 7.311423 0.650240 7
17.446257 6.845724 0.642375 7
17.462540 6.781598 0.642768 7
17.476723 6.716728 0.643139 76
18.860483 6.797616 0.655953 7
18.908094 6.777286 0.656466 7
19.156542 6.752450 0.658875 4
19.285780 6.721893 0.660178 4
19.384766 6.680148 0.661230 8
19.538631 6.656394 0.662734 8
20.459454 6.892329 0.670592 46
20.426388 6.801709 0.670548 46
19.847412 6.532924 0.665954 8
19.957590 6.491600 0.667086 8
19.991516 6.425241 0.667580 8
20.050816 6.370667 0.668271 8
20.144411 6.245234 0.669453 25
20.418350 6.169330 0.672142 25
23.418159 6.985378 0.697523 5
26.342976 7.259552 0.723389 7
33.938938 8.209242 0.789551 25
33.945938 8.085344 0.789792 85
15.967567 1.301454 0.637003 3
15.924335 1.238925 0.636560 3
15.914565 1.182001 0.636403 10
15.906589 1.125300 0.636258 10
15.920177 1.072916 0.636297 3
15.900013 1.012733 0.636038 3
15.851426 0.847794 0.635363 9
15.880221 0.793424 0.635511 9
15.864879 0.736860 0.635281 20
15.869317 0.681253 0.635215 20
15.867567 0.625393 0.635093 32
15.873616 0.569834 0.635034 32
15.885468 0.514429 0.635021 33
15.895128 0.458893 0.634985 33
15.886602 0.402852 0.634793 23
15.889876 0.347130 0.634697 23
15.983356 -0.040843 0.634525 3
16.009081 -0.097115 0.634588 3
16.016609 -0.153385 0.634496 13
16.021904 -0.212493 0.634373 13
16.045027 -0.269141 0.634403 3
29.317141 -1.315568 0.742376 8
29.064795 -1.702118 0.738895 8
28.830778 -1.794751 0.736587 8
28.802355 -1.894233 0.735976 39
21.271351 -1.768993 0.673014 25
20.439777 -1.844125 0.665683 25
19.229324 -1.938940 0.655040 3
18.930006 -1.975827 0.652343 3
18.925308 -2.039095 0.652021 33
18.933945 -2.107219 0.651787 33
18.938364 -2.174973 0.651514 37
18.940556 -2.242547 0.651219 37
18.964346 -2.312826 0.651091 45
18.968031 -2.380809 0.650799 45
18.975443 -2.449357 0.650531 41
18.968727 -2.516147 0.650148 41
18.961781 -2.582920 0.649759 37
18.984308 -2.653824 0.649597 37
18.988756 -2.722365 0.649288 37
18.992958 -2.790970 0.648972 37
18.990980 -2.858745 0.648604 33
18.996670 -2.927758 0.648291 33
19.002108 -2.996845 0.647971 37
19.014608 -3.032989 0.647886 37
19.026598 -3.134177 0.647442 41
19.019455 -3.201541 0.647011 41
19.019960 -3.270247 0.646635 41
19.032038 -3.341067 0.646342 41
19.039917 -3.411306 0.646013 45
19.053440 -3.482718 0.645721 45
19.047035 -3.550608 0.645273 37
19.038425 -3.618123 0.644804 37
19.053141 -3.690176 0.644507 7
25.413280 -6.032544 0.685520 6
24.972040 -6.020456 0.681693 6
24.678854 -6.041437 0.678952 6
24.406092 -6.020114 0.676674 6
24.127886 -6.086270 0.673747 12
23.868126 -6.109874 0.671269 12
23.651091 -6.142778 0.669102 17
11.026537 -2.910346 0.578904 17
10.937558 -2.926091 0.577995 6
10.776642 -2.923899 0.576567 6
10.646742 -2.929069 0.575362 6
10.429708 -2.911139 0.573537 6
10.373248 -2.934832 0.572855 2
10.424454 -2.988885 0.572919 2
10.077692 -2.928394 0.570228 7
9.979086 -2.938013 0.569262 7
9.859961 -2.938987 0.568172 16
9.759065 -2.948389 0.567181 16
9.649185 -2.952480 0.566147 11
9.569981 -2.965260 0.565324 11
9.462167 -2.968592 0.564311 19
9.417910 -2.989417 0.563741 19
9.348850 -3.002076 0.563006 80
9.168379 -2.981911 0.561504 80
9.075622 -2.989075 0.560590 7
8.876731 -2.991705 0.558727 10
8.799455 -2.983096 0.558080 10
8.723122 -3.008853 0.557157 15
8.618046 -3.006858 0.556194 15
8.615548 -3.038357 0.555907 7
8.518136 -3.038014 0.554997 7
8.549412 -3.081362 0.554924 17
8.568117 -3.123892 0.554737 17
8.579667 -3.162337 0.554516 20
7.958177 -3.093595 0.549218 25
7.397783 -3.146438 0.543330 2
7.338879 -3.152185 0.542701 2
7.324124 -3.176513 0.542326 5
7.340587 -3.198961 0.542273 5
7.341440 -3.247138 0.541820 2
7.308082 -3.263343 0.541335 2
7.241832 -3.264674 0.540667 2
6.786097 -3.117426 0.537588 2
6.780595 -3.143907 0.537272 2
6.751954 -3.158265 0.536844 7
6.821829 -3.221432 0.536912 7
6.522914 -3.109852 0.535033 20
6.456008 -3.106262 0.534396 20
6.405434 -3.110038 0.533848 27
6.373456 -3.121093 0.533412 27
6.391794 -3.156551 0.533234 18
6.371735 -3.174732 0.532843 18
6.394609 -3.214181 0.532667 54
6.390470 -3.240379 0.532352 54
6.389796 -3.268393 0.532052 65
6.391991 -3.299391 0.531748 65
6.401741 -3.332980 0.531493 74
6.398911 -3.360224 0.531174 74
6.396562 -3.386358 0.530870 74
6.405894 -3.420181 0.530604 74
6.411538 -3.452231 0.530316 78
6.426651 -3.474888 0.530229 78
6.413598 -3.511811 0.529690 80
6.410046 -3.539279 0.529352 80
6.406381 -3.566765 0.529010 76
6.416593 -3.602034 0.528728 76
6.417911 -3.632534 0.528403 73
6.405161 -3.655223 0.528014 73
6.405145 -3.683657 0.527695 66
6.400892 -3.711276 0.527338 66
6.406915 -3.744914 0.527022 66
6.419694 -3.782666 0.526729 66
6.411594 -3.808400 0.526348 66
6.410278 -3.838198 0.525991 66
6.415702 -3.872133 0.525658 70
6.420969 -3.906152 0.525321 70
6.424367 -3.939219 0.524974 72
6.415667 -3.965057 0.524576 72
6.415380 -3.996126 0.524208 70
6.416655 -4.028296 0.523843 70
6.420191 -4.060448 0.523501 67
6.424561 -4.094871 0.523139 67
6.417672 -4.120733 0.522754 62
6.416697 -4.152040 0.522368 62
6.420625 -4.186641 0.521994 77
6.438480 -4.214292 0.521860 77
6.433014 -4.259361 0.521251 73
6.421416 -4.284301 0.520816 73
6.419718 -4.315854 0.520411 73
6.421202 -4.349672 0.520011 73
6.427504 -4.386909 0.519623 70
6.433624 -4.424242 0.519229 70
6.427140 -4.451494 0.518816 63
6.424704 -4.483294 0.518390 63
6.431978 -4.521979 0.517988 70
6.434988 -4.559614 0.517548 70
6.443516 -4.599652 0.517140 73
6.437172 -4.629376 0.516689 73
6.413626 -4.645169 0.516214 47
6.392475 -4.664327 0.515722 47
6.421433 -4.719831 0.515347 10
6.411345 -4.747250 0.514875 10
14.798485 -11.498669 0.526010 25
14.347351 -11.426134 0.521527 3
14.363640 -11.521348 0.520442 3
14.292132 -11.546660 0.519226 3
10.387256 -11.281437 1.010204 9
10.941068 -11.961843 1.038025 1
10.850653 -11.947220 1.034470 1
10.778691 -11.947968 1.031771 6
10.731546 -11.979933 1.030329 6
10.665632 -11.990875 1.027969 3
10.607748 -12.010462 1.026003 3
10.676932 -12.173586 1.030297 1
9.790543 -11.249547 0.987468 1
10.111017 -11.696938 1.004144 14
9.980234 -11.878016 1.001199 255
9.961855 -11.940665 1.001188 255
9.807817 -12.006605 0.996198 11
9.840494 -12.132411 0.998773 11
9.761782 -12.380966 0.998602 255
9.723442 -12.421590 0.997645 134
6.642579 -11.871800 0.881356 21
6.609896 -11.910941 0.880724 21
31.577024 -63.097225 2.386071 9
30.702847 -63.808964 2.366021 9
29.368023 -63.256489 2.314265 9
29.292213 -63.644394 2.316877 30
4.967393 -11.911530 0.825611 9
2.717886 -12.104168 0.757978 9
2.662819 -12.067609 0.755813 43
2.612784 -12.042045 0.753959 43
2.575405 -12.062675 0.753148 47
2.557333 -12.080992 0.752878 47
2.361425 -11.879451 0.744189 14
2.311589 -11.846799 0.742253 14
2.265521 -11.831594 0.740684 3
2.156261 -11.698142 0.735557 1
2.083814 -11.752523 0.734241 1
2.045253 -11.773831 0.733433 1
2.006221 -11.793045 0.732584 4
1.963995 -11.794398 0.731385 4
1.929848 -11.842910 0.731109 4
1.871617 -11.761494 0.728246 4
1.829244 -11.760393 0.727015 1
1.791311 -11.786786 0.726315 1
1.754971 -11.810759 0.725627 6
1.706478 -11.769702 0.723644 6
1.663303 -11.762074 0.722304 3
1.622503 -11.770120 0.721263 3
1.578581 -11.756245 0.719816 3
1.537788 -11.763996 0.718777 3
1.494827 -11.755752 0.717444 4
1.472189 -11.742651 0.716614 4
1.413214 -11.754400 0.715129 8
1.371169 -11.751656 0.713910 8
1.331693 -11.752482 0.712818 8
1.273165 -11.608437 0.709065 8
1.246633 -11.736327 0.710209 9
1.204762 -11.732988 0.708996 9
1.163991 -11.739442 0.707961 11
1.120936 -11.743978 0.706837 11
1.067640 -11.624778 0.703607 17
1.036587 -11.728292 0.704280 17
0.998224 -11.737953 0.703368 13
0.957580 -11.745681 0.702367 13
0.452425 6.120439 0.637136 87
0.473010 6.110533 0.637502 40
0.493914 6.104537 0.637957 40
0.513992 6.090512 0.638229 37
0.537253 6.108245 0.639226 37
0.560434 6.123901 0.640180 24
0.579363 6.099719 0.640221 24
0.603089 6.119187 0.641270 29
0.628586 6.152465 0.642644 29
0.646667 6.122117 0.642543 24
0.670454 6.139338 0.643552 24
0.682474 6.063250 0.642371 14
0.708794 6.100154 0.643846 14
0.725514 6.071699 0.643750 21
0.752132 6.108417 0.645232 21
0.777896 6.137103 0.646531 9
0.789437 6.141510 0.646946 9
0.824463 6.156579 0.648239 16
0.857349 6.228449 0.650604 16
0.915699 6.460183 0.656873 26
0.933163 6.425029 0.656674 26
0.895366 6.052389 0.648192 14
0.921705 6.080456 0.649505 14
0.932438 6.021865 0.648651 32
1.061646 6.634630 0.664522 32
1.033407 6.341165 0.657892 13
1.021656 6.150288 0.653771 13
1.040536 6.132595 0.653969 42
1.077431 6.211123 0.656594 42
1.080979 6.112747 0.654752 21
1.070046 5.943782 0.651094 21
1.124716 6.110281 0.655980 13
1.181356 6.280385 0.660997 13
1.158371 6.058548 0.655946 19
1.176594 6.040444 0.656125 19
1.228723 6.186756 0.660544 13
1.288030 6.355992 0.665627 13
1.364485 6.597122 0.672633 54
1.272296 6.078931 0.659711 54
1.289742 6.062672 0.659910 47
1.392092 6.459701 0.670752 47
1.335298 6.062348 0.661261 55
1.354085 6.047601 0.661533 55
1.491697 6.522391 0.674956 35
1.412941 6.105288 0.664427 35
1.443911 6.138781 0.666013 26
1.454876 6.096828 0.665523 26
1.543309 6.356922 0.673272 84
1.536662 6.240903 0.670806 84
1.552767 6.213914 0.670768 37
1.583271 6.236800 0.672140 37
1.546651 6.016792 0.666742 26
1.597945 6.120875 0.670330 26
1.615487 6.101456 0.670488 37
1.691854 6.289710 0.676480 37
1.712100 6.277673 0.676867 39
1.835728 6.620676 0.687314 39
1.859895 6.621910 0.688081 80
1.853193 6.511265 0.685733 80
1.816209 6.307337 0.680647 11
1.789544 6.141979 0.676627 11
1.802044 6.106727 0.676334 16
1.831828 6.130925 0.677726 16
1.911420 6.311236 0.683676 9
1.870686 6.145855 0.679223 9
1.911107 6.153797 0.680637 17
1.950683 6.201824 0.682798 17
1.974360 6.204493 0.683591 9
1.975317 6.132463 0.682240 9
1.957287 6.009785 0.679323 21
2.006910 6.085740 0.682340 21
2.030077 6.084032 0.683039 4
2.009341 5.957813 0.679973 4
2.107630 6.171114 0.687156 13
2.135221 6.180317 0.688208 13
2.149208 6.151837 0.688110 14
2.185146 6.183362 0.689855 14
2.268088 6.340227 0.695481 77
2.255649 6.240266 0.693187 77
2.396812 6.545929 0.703500 61
2.410996 6.514802 0.703366 61
2.421693 6.478504 0.703024 64
2.375620 6.294744 0.698070 64
2.502873 6.551846 0.707024 45
2.536491 6.566407 0.708385 45
2.536108 6.499736 0.707118 61
2.506199 6.365133 0.703619 61
2.495244 6.278852 0.701643 35
2.485513 6.224460 0.700307 35
2.534909 6.244962 0.702300 21
2.569948 6.267022 0.703856 21
2.582305 6.235640 0.703675 100
2.591296 6.196910 0.703247 100
2.606987 6.176981 0.703391 57
2.645447 6.205918 0.705193 57
2.727271 6.331437 0.710220 21
2.854292 6.554904 0.718556 21
2.781790 6.337569 0.712133 31
2.777473 6.267013 0.710685 31
2.838732 6.342226 0.714105 70
3.014694 6.661632 0.725843 70
3.038433 6.654901 0.726508 71
3.062461 6.645729 0.727140 71
3.094808 6.656856 0.728424 73
2.880453 6.154350 0.712038 73
3.156897 6.666767 0.730682 69
3.181873 6.658963 0.731377 69
3.205945 6.649275 0.732009 71
3.108473 6.394066 0.724074 71
3.244342 6.607644 0.732543 60
3.308201 6.676090 0.735943 60
3.332357 6.665948 0.736575 69
3.345801 6.663508 0.736986 69
3.387760 6.661952 0.738380 13
8.130480 15.600602 1.061066 13
8.248656 15.691790 1.066732 10
8.350565 15.750629 1.071265 10
8.456789 15.815981 1.076066 3
8.584624 15.919392 1.082293 3
8.688245 15.976556 1.086866 10
8.809814 16.064659 1.092612 10
8.910649 16.113718 1.096952 10
9.025674 16.186647 1.102210 10
9.127493 16.234636 1.106572 9
3.475570 6.235413 0.733736 9
3.713019 6.599225 0.748401 20
9.447837 16.403080 1.120632 20
3.699135 6.473135 0.745687 18
3.944387 6.836723 0.760622 18
3.787118 6.518616 0.749545 26
3.862286 6.592425 0.753461 26
3.902828 6.607643 0.755142 31
3.804042 6.393987 0.747945 31
3.792797 6.325846 0.746359 18
3.810649 6.303060 0.746586 18
3.856944 6.328380 0.748652 22
4.033716 6.583236 0.759298 22
3.925543 6.341846 0.751297 16
3.880886 6.220968 0.747627 16
3.968574 6.309552 0.752255 18
3.991622 6.297005 0.752852 18
4.020101 6.295128 0.753828 50
4.053008 6.297416 0.755033 50
4.058341 6.257919 0.754544 15
4.073451 6.233415 0.754660 15
4.193460 6.364682 0.761177 20
4.281868 6.444814 0.765696 20
4.172198 6.236514 0.758232 13
4.210924 6.246262 0.759782 13
4.231521 6.229551 0.760236 11
4.636021 6.763792 0.783782 11
4.680263 6.779107 0.785629 18
4.624017 6.649936 0.781428 18
4.679718 6.678942 0.783921 15
4.350092 6.172477 0.763534 15
4.412665 6.213539 0.766480 9
4.377660 6.120317 0.763656 9
4.365767 6.059604 0.762212 11
4.482130 6.172412 0.768307 11
4.655571 6.359729 0.777713 3
4.569496 6.221912 0.772300 3
4.950940 6.562080 0.791810 11
5.027573 6.611465 0.795420 11
4.718453 6.168186 0.776846 11
5.089587 6.595960 0.797436 11
4.724267 6.089834 0.775778 15
5.075596 6.484602 0.795107 15
4.821475 6.122185 0.779876 13
5.096770 6.418822 0.794818 13
5.239194 6.550316 0.802194 13
5.160551 6.408049 0.796997 13
5.163747 6.366552 0.796447 16
5.362359 6.560143 0.806904 16
5.407154 6.569580 0.808714 11
5.245668 6.331912 0.798927 11
5.177088 6.206626 0.794383 9
5.207779 6.198811 0.795399 9
5.246311 6.199939 0.796852 13
5.275743 6.190309 0.797797 13
5.310435 6.186567 0.799032 18
5.342524 6.179658 0.800123 18
5.385239 6.184564 0.801798 24
5.418592 6.200371 0.803294 24
5.466960 6.189245 0.804934 30
5.492516 6.174233 0.805660 30
5.502150 6.143851 0.805550 28
5.543798 6.146357 0.807156 28
5.604527 6.169190 0.809797 35
5.637956 6.159956 0.810916 35
5.692198 6.174889 0.813195 35
5.730146 6.172082 0.814587 35
5.761561 6.164315 0.815658 33
5.795444 6.156822 0.816828 33
5.859865 6.180820 0.819637 35
5.903640 6.182935 0.821333 35
5.939119 6.176244 0.822581 39
5.984440 6.179349 0.824354 39
6.034078 6.186470 0.826353 39
6.082759 6.194397 0.828330 39
6.114563 6.185152 0.829407 31
6.158819 6.185912 0.831111 31
6.201730 6.185038 0.832741 33
6.253299 6.192309 0.834826 33
6.297814 6.192345 0.836534 24
6.335202 6.185221 0.837866 24
6.389967 6.194468 0.840108 18
6.428264 6.209307 0.841800 18
6.483538 6.194455 0.843713 15
6.550353 6.213744 0.846572 15
6.595788 6.214778 0.848342 11
6.622890 6.194270 0.849093 11
6.706365 6.227433 0.852803 13
6.759480 6.234408 0.854962 13
6.812717 6.241099 0.857123 18
6.846327 6.227614 0.858236 18
6.856041 6.192709 0.858116 20
6.898541 6.186931 0.859688 20
6.999664 6.232344 0.864270 28
6.952032 6.147134 0.861210 28
7.065591 6.202265 0.866418 29
7.109459 6.194202 0.868019 29
7.196381 6.224776 0.871847 29
7.227176 6.207028 0.872805 29
7.243094 6.178846 0.873038 19
7.255376 6.145500 0.873059 19
7.347505 6.178484 0.877131 21
7.367445 6.151189 0.877540 21
7.494038 6.211116 0.883342 36
7.596313 6.250079 0.887902 36
7.640296 6.243348 0.889545 21
7.685435 6.257371 0.891516 21
7.751974 6.241279 0.893926 15
7.808191 6.241073 0.896146 15
7.864988 6.243172 0.898422 10
7.897242 6.221306 0.899408 10
7.941016 6.210459 0.900999 12
7.992743 6.205460 0.902986 12
8.051403 6.207649 0.905345 17
8.109653 6.206878 0.907651 17
8.152012 6.193783 0.909166 19
8.213611 6.194791 0.911633 19
8.270497 6.191880 0.913863 21
8.353239 6.207567 0.917369 21
8.408735 6.202744 0.919523 22
8.457823 6.192923 0.921359 22
8.520476 6.194829 0.923891 21
8.600587 6.206473 0.927248 21
8.666203 6.207242 0.929888 19
8.741739 6.214521 0.933011 19
8.801042 6.209916 0.935334 19
8.863706 6.207247 0.937819 19
8.946225 6.217794 0.941271 16
9.014066 6.217708 0.944001 16
9.086981 6.220582 0.946975 9
9.149171 6.239172 0.949713 9
9.505897 6.406813 0.966177 11
9.556497 6.391992 0.968039 11
9.616448 6.337035 0.969793 9
9.713977 6.351926 0.973923 11
9.704100 6.297123 0.972861 11
9.779917 6.297222 0.975938 9
9.791665 6.256294 0.975924 9
10.040836 6.366848 0.987365 6
10.086120 6.343368 0.988928 6
9.990845 6.235327 0.983774 17
10.012510 6.200068 0.984242 17
10.064790 6.183420 0.986177 29
10.212900 6.224279 0.992695 29
10.284885 6.220841 0.995593 14
10.357408 6.212323 0.998457 14
10.372104 6.171728 0.998591 3
11.731442 6.612832 1.059308 9
11.777710 6.241861 1.057158 1
19.254322 7.712061 1.383788 4
19.184753 7.528785 1.379207 2
31.978966 11.884933 1.957207 9
31.638828 11.382329 1.938514 5
32.635967 11.354142 1.980474 9
31.352200 10.786251 1.921378 5
31.295000 10.644279 1.917782 5
20.004156 6.744310 1.407122 2
30.812790 10.246754 1.894087 2
33.066357 10.864877 1.994713 5
32.242783 10.227571 1.954657 9
24.182005 7.591762 1.591306 5
32.162052 9.463341 1.945333 9
32.362129 9.405148 1.953422 5
33.655075 9.651833 2.010379 5
33.702251 9.544126 2.011595 6
33.606068 9.383690 2.006316 6
30.027561 8.274966 1.845523 4
33.053493 8.980971 1.979811 4
33.084610 8.865129 1.980312 5
30.710051 7.435236 1.868848 9
22.391012 -1.865998 1.470132 9
21.221184 -1.918398 1.419484 9
21.303856 -2.001250 1.422974 24
21.312626 -2.077526 1.423280 24
21.235945 -2.220564 1.419842 9
21.266703 -2.522144 1.420965 9
21.286755 -2.827941 1.421695 9
21.302423 -3.134791 1.422309 9
21.409883 -3.227355 1.426938 24
21.428087 -3.307008 1.427724 24
21.400599 -3.379668 1.426544 29
10.930461 -2.969254 0.976411 9
10.796662 -2.973928 0.970707 9
10.654744 -2.977441 0.964657 9
10.505777 -2.975934 0.958298 3
10.333895 -2.966837 0.950948 3
10.196759 -2.966575 0.945101 3
10.071259 -2.968764 0.939758 3
9.944474 -2.967792 0.934355 10
9.853128 -2.980407 0.930495 10
9.705002 -2.973205 0.924173 10
9.599059 -2.977961 0.919678 10
9.502741 -2.984991 0.915599 15
9.435598 -2.998754 0.912781 15
9.398926 -3.021835 0.911284 14
9.132990 -2.974188 0.899859 14
9.049836 -2.984357 0.896358 3
8.961566 -2.990488 0.892629 3
8.875785 -2.995109 0.889004 7
8.777743 -2.979485 0.884801 7
8.692040 -3.001925 0.881236 11
8.592746 -3.001806 0.877030 11
8.609118 -3.039861 0.877842 11
8.536272 -3.048197 0.874786 11
8.433909 -3.043783 0.870442 13
8.313698 -3.035539 0.865333 13
8.284259 -3.058003 0.864164 16
8.204169 -3.061562 0.860793 16
8.120414 -3.063197 0.857264 16
8.049832 -3.069235 0.854307 16
7.959314 -3.065562 0.850476 15
7.875832 -3.065592 0.846958 15
7.790586 -3.064349 0.843362 13
7.707306 -3.063282 0.839851 13
7.638983 -3.067585 0.836992 13
7.546624 -3.061754 0.833085 13
7.464193 -3.057757 0.829604 15
7.392432 -3.059102 0.826594 15
7.330521 -3.062512 0.824008 16
7.251541 -3.059891 0.820682 16
7.180570 -3.058596 0.817700 18
7.103639 -3.055771 0.814462 18
7.035995 -3.056396 0.811631 18
6.984778 -3.049011 0.809454 18
6.924215 -3.068001 0.807001 20
6.847658 -3.063347 0.803778 20
6.776691 -3.060644 0.800800 20
6.731330 -3.068992 0.798943 20
6.677439 -3.071737 0.796705 24
6.623067 -3.075330 0.794453 24
6.554788 -3.070694 0.791583 19
6.496400 -3.073020 0.789161 19
6.445850 -3.077232 0.787076 19
6.386333 -3.076830 0.784596 19
6.377326 -3.100302 0.784337 43
6.354395 -3.115644 0.783460 43
6.354772 -3.142282 0.783610 43
6.345527 -3.165662 0.783344 43
6.302207 -3.172094 0.781580 40
6.319641 -3.208755 0.782493 40
6.322635 -3.238352 0.782772 15
6.307134 -3.260033 0.782245 15
6.317002 -3.293351 0.782832 17
6.330261 -3.328622 0.783571 17
6.331551 -3.356406 0.783776 15
6.316234 -3.376951 0.783256 15
6.314960 -3.404952 0.783360 15
6.330135 -3.427454 0.784112 15
6.331384 -3.471528 0.784413 15
6.340241 -3.505443 0.784972 15
6.324438 -3.525956 0.784440 15
6.319049 -3.552227 0.784372 15
6.325760 -3.585342 0.784843 15
6.327098 -3.615598 0.785077 15
6.335887 -3.648741 0.785637 16
6.319617 -3.669178 0.785093 16
6.320580 -3.699555 0.785318 15
6.326589 -3.733005 0.785769 15
6.332441 -3.766541 0.786217 15
6.343296 -3.803222 0.786890 15
6.326521 -3.823623 0.786333 15
6.323380 -3.852202 0.786387 15
6.337202 -3.891176 0.787201 15
6.340600 -3.924035 0.787552 15
6.345549 -3.958014 0.787975 13
6.341851 -3.986802 0.788013 13
6.331957 -4.010247 0.787766 13
6.341556 -4.047587 0.788405 13
6.333132 -4.072126 0.788228 11
6.349145 -4.113942 0.789161 11
6.331360 -4.134245 0.788578 13
6.339217 -4.155235 0.789040 13
6.342405 -4.205301 0.789515 13
6.347673 -4.240963 0.789977 13
6.356098 -4.278926 0.790584 11
6.341095 -4.301420 0.790138 11
6.349200 -4.339523 0.790736 11
6.343900 -4.368739 0.790732 11
6.349133 -4.403627 0.791195 11
6.353431 -4.439724 0.791631 11
6.346070 -4.467915 0.791541 11
6.341077 -4.499527 0.791574 11
6.353055 -4.541570 0.792367 11
6.351792 -4.574481 0.792562 11
6.354431 -4.608643 0.792925 11
6.343139 -4.634639 0.792670 11
6.336593 -4.664139 0.792633 16
6.344430 -4.704280 0.793255 16
6.360105 -4.750468 0.794237 31
10.439698 -11.839179 1.572826 8
10.429093 -11.995115 1.577902 8
10.150073 -11.759365 1.552359 1
10.010613 -11.931994 1.550398 255
9.979157 -11.979487 1.550298 255
9.943200 -12.017488 1.549584 194
9.851930 -12.247999 1.552905 3
9.754024 -12.479988 1.556050 139
4.897944 -11.891835 1.274540 16
2.713582 -12.135297 1.194221 8
2.657136 -12.092974 1.190047 39
2.609234 -12.077212 1.187489 39
2.560152 -12.045196 1.184106 56
2.553580 -12.116170 1.187310 56
2.467310 -12.232754 1.189802 8
2.381424 -12.248469 1.187437 8
1.785127 -11.816899 1.145309 8
1.727239 -11.702722 1.137725 10
1.112720 -11.356781 1.100555 6
1.071679 -11.367129 1.099782 6
1.033153 -11.383093 1.099373 9
0.958168 -11.418423 1.098809 20
0.444659 6.094532 0.850042 55
0.465164 6.084644 0.850128 55
0.488436 6.104504 0.851933 55
0.508724 6.092481 0.851902 45
0.530759 6.098269 0.852905 45
0.552212 6.098020 0.853563 33
0.573239 6.093725 0.853991 33
0.594914 6.095309 0.854764 30
0.614766 6.080950 0.854611 30
0.638321 6.098247 0.856312 28
0.661029 6.107526 0.857552 28
0.683811 6.116721 0.858792 27
0.703829 6.104052 0.858753 27
0.722443 6.089482 0.858567 26
0.740670 6.064819 0.857822 26
0.762631 6.067782 0.858711 37
0.774046 6.072199 0.859332 37
0.808106 6.083345 0.861079 30
0.820926 6.024869 0.858325 30
0.838242 5.997946 0.857446 56
0.870706 6.067598 0.862341 56
0.886727 6.032644 0.860988 13
0.903496 6.003561 0.859984 13
0.921031 5.986424 0.859659 23
0.930677 5.911824 0.855944 23
0.957169 5.941617 0.858486 39
0.991314 6.012558 0.863533 39
1.036069 6.138311 0.871929 15
1.060024 6.148047 0.873306 15
1.069080 6.079251 0.869905 19
1.080722 6.026145 0.867449 19
1.097053 5.998490 0.866542 37
1.141251 6.109736 0.874153 37
1.163738 6.111236 0.875052 33
1.187475 6.118515 0.876313 33
1.214779 6.147410 0.878874 27
1.238722 6.154493 0.880139 27
1.265304 6.173182 0.882131 23
1.281578 6.145002 0.881221 23
1.305890 6.157909 0.882826 35
1.313943 6.143772 0.882369 35
1.344824 6.126317 0.882597 34
1.374028 6.154251 0.885205 34
1.396871 6.154891 0.886111 53
1.418308 6.149631 0.886651 53
1.438277 6.138484 0.886824 52
1.461035 6.143028 0.887947 52
1.484336 6.149421 0.889194 57
1.506758 6.147719 0.889978 57
1.528170 6.142075 0.890517 53
1.554761 6.151494 0.892066 53
1.569385 6.120638 0.891002 52
1.583813 6.089756 0.889933 52
1.623801 6.151137 0.894791 59
1.644680 6.143163 0.895205 59
1.662225 6.123605 0.894874 46
1.691345 6.144255 0.897147 46
1.713362 6.144028 0.898029 57
1.734119 6.131602 0.898219 57
1.767583 6.165295 0.901370 50
1.782637 6.137740 0.900535 50
1.801062 6.121598 0.900446 45
1.827875 6.136215 0.902328 45
1.843355 6.114566 0.901834 49
1.841885 6.073128 0.899593 49
1.896059 6.124838 0.904584 41
1.932346 6.163344 0.908135 41
1.945182 6.133841 0.907133 42
1.973974 6.145223 0.908954 42
1.976726 6.083148 0.905826 28
2.018048 6.134370 0.910273 28
2.053190 6.166526 0.913464 53
2.077977 6.168386 0.914633 53
2.098384 6.161129 0.915142 56
2.122541 6.160931 0.916184 56
2.147406 6.162514 0.917354 48
2.177129 6.177112 0.919417 48
2.203505 6.182222 0.920845 42
2.222928 6.168538 0.920996 42
2.244407 6.160392 0.921530 33
2.273721 6.172669 0.923471 33
2.297746 6.174069 0.924619 24
2.322881 6.174954 0.925795 24
2.343649 6.164602 0.926199 17
2.369150 6.163017 0.927273 17
2.392851 6.159912 0.928191 16
2.420761 6.170093 0.929986 16
2.443450 6.167236 0.930879 16
2.452666 6.159099 0.930886 16
2.490828 6.153944 0.932382 15
2.513814 6.148537 0.933171 15
2.539937 6.150383 0.934479 16
2.566104 6.152120 0.935788 16
2.584060 6.137756 0.935901 24
2.603821 6.124696 0.936167 24
2.631634 6.129807 0.937737 27
2.659514 6.134799 0.939308 27
2.685570 6.138339 0.940724 34
2.703860 6.119012 0.940622 34
2.726836 6.112810 0.941409 35
2.753175 6.113758 0.942720 35
2.782732 6.124130 0.944663 45
2.816024 6.139274 0.947028 45
2.836330 6.129568 0.947528 53
2.859405 6.122874 0.948316 53
2.891203 6.134037 0.950423 57
2.917837 6.134303 0.951740 57
2.946281 6.138035 0.953322 57
2.970503 6.130395 0.954138 57
2.997238 6.130328 0.955456 57
3.024010 6.130149 0.956776 57
3.055374 6.138733 0.958760 59
3.074293 6.149180 0.960219 59
3.103475 6.129492 0.960712 56
3.128531 6.125334 0.961767 56
3.155468 6.124600 0.963090 53
3.188090 6.134308 0.965214 53
3.218923 6.140350 0.967074 57
3.242207 6.132230 0.967864 57
3.269314 6.131019 0.969189 57
3.300319 6.136677 0.971052 57
3.330432 6.140450 0.972782 66
3.363548 6.149305 0.974917 66
3.385938 6.138909 0.975573 63
3.411270 6.133629 0.976633 63
3.443509 6.142695 0.978746 61
3.474914 6.147540 0.980617 61
3.502300 6.147702 0.982058 57
3.527755 6.141960 0.983120 57
3.560354 6.148121 0.985130 49
3.590988 6.150705 0.986870 49
3.617558 6.146318 0.988069 37
3.653482 6.157158 0.990491 37
3.681176 6.154218 0.991827 22
3.706818 6.145402 0.992781 22
3.742991 6.155775 0.995209 13
3.772788 6.177130 0.997814 13
3.914955 6.335132 1.012895 13
3.972463 6.374187 1.017834 13
3.993571 6.358247 1.018233 25
3.998338 6.317123 1.016573 25
4.061771 6.368649 1.022431 57
4.010461 6.242395 1.013759 57
4.079596 6.299512 1.020197 12
4.099306 6.281559 1.020450 12
4.089975 6.220508 1.017117 30
4.123909 6.221614 1.019044 30
4.155695 6.221650 1.020808 22
4.163770 6.187030 1.019669 22
4.175067 6.157349 1.018941 52
4.203426 6.154581 1.020399 52
4.231814 6.151691 1.021858 39
4.298225 6.200005 1.027784 39
4.308208 6.168371 1.026912 21
4.337831 6.164275 1.028400 21
4.395581 6.198818 1.033228 12
4.437155 6.210473 1.036113 12
24.183475 32.415802 3.336913 8
4.597660 6.200286 1.044840 3
4.627707 6.194946 1.046336 3
4.649266 6.178397 1.046849 12
4.665733 6.153051 1.046685 12
4.677330 6.123784 1.046070 13
4.722054 6.136872 1.049249 13
4.764617 6.149007 1.052266 21
62.385822 72.060738 7.308221 8
5.513074 6.314341 1.103972 8
5.552669 6.292265 1.105461 4
5.548288 6.201994 1.101446 3
32.525089 11.451276 3.187614 5
31.849739 10.964145 3.127007 5
31.887793 10.852388 3.127698 5
31.583294 10.631978 3.100406 5
32.660980 10.739208 3.184026 5
24.164701 7.493574 2.479176 8
24.230127 7.416086 2.482758 2
33.910107 9.981854 3.265204 8
33.940266 9.617060 3.261259 5
29.919264 7.694157 2.922189 8
48.801468 -8.935735 4.349706 8
9.880299 -3.030419 1.296944 7
9.759121 -3.031140 1.287739 7
9.601897 -3.019746 1.275644 11
9.483429 -3.017649 1.266620 11
9.425861 -3.034243 1.262472 36
9.418446 -3.070390 1.262395 36
9.314254 -3.074823 1.254561 27
9.267477 -3.095752 1.251308 27
9.051062 -3.057662 1.234403 12
8.930439 -3.034735 1.224959 12
8.837057 -3.055452 1.218200 12
8.798055 -3.076835 1.215565 12
8.725683 -3.084546 1.210220 13
8.688527 -3.106014 1.207738 13
8.612454 -3.111591 1.202093 15
8.555974 -3.127197 1.198080 15
8.486939 -3.136120 1.193027 16
8.386161 -3.132813 1.185406 16
8.375149 -3.162433 1.185044 26
8.336058 -3.181419 1.182414 26
8.331026 -3.211530 1.182519 12
8.284396 -3.227294 1.179283 12
8.154167 -3.210121 1.169262 10
8.181843 -3.254303 1.172061 10
8.151882 -3.275823 1.170183 9
8.236569 -3.343364 1.177639 9
8.218023 -3.368002 1.176677 11
8.108416 -3.356879 1.168324 11
7.903772 -3.303902 1.152182 13
7.792826 -3.290244 1.143697 13
7.576096 -3.229468 1.126529 7
7.482205 -3.221034 1.119413 7
7.415941 -3.223819 1.114553 4
7.377347 -3.222676 1.111674 4
7.326894 -3.248662 1.108418 4
7.299076 -3.267301 1.106708 4
7.291241 -3.294750 1.106643 9
7.294209 -3.327112 1.107472 9
7.297628 -3.358243 1.108317 4
7.861988 -3.649178 1.155433 4
7.911326 -3.704126 1.160124 16
8.009639 -3.785954 1.168942 16
6.487258 -3.100565 1.043763 1
6.382769 -3.078879 1.035675 1
6.379144 -3.104956 1.035932 60
6.386728 -3.135143 1.037096 60
6.383436 -3.160150 1.037365 60
6.336576 -3.165099 1.034047 60
6.300472 -3.175098 1.031622 58
6.317834 -3.211761 1.033650 58
6.336797 -3.249486 1.035821 21
6.333694 -3.277606 1.036191 21
6.325732 -3.301879 1.036131 18
6.321218 -3.327979 1.036365 18
6.327782 -3.358529 1.037502 18
6.326570 -3.386551 1.038025 18
6.339317 -3.422119 1.039727 18
6.331564 -3.432413 1.039395 18
6.323982 -3.471760 1.039725 18
6.332794 -3.505661 1.041120 18
6.336208 -3.536775 1.042069 18
6.335998 -3.566015 1.042720 18
6.326964 -3.590418 1.042632 15
6.326519 -3.619711 1.043277 15
6.336982 -3.653850 1.044819 15
6.339727 -3.685249 1.045750 15
6.344057 -3.717711 1.046824 16
6.334460 -3.742201 1.046721 16
6.328208 -3.768693 1.046909 15
6.335572 -3.803331 1.048265 15
6.341060 -3.837043 1.049471 15
6.337851 -3.865690 1.049941 15
6.329406 -3.891253 1.049970 15
6.329366 -3.922015 1.050726 15
6.337677 -3.958062 1.052208 15
6.342426 -3.992108 1.053393 15
6.346030 -4.024051 1.054450 15
6.335291 -4.048665 1.054317 15
6.338635 -4.080698 1.055367 15
6.344477 -4.116077 1.056682 15
6.353500 -4.153712 1.058282 13
6.356269 -4.171486 1.058935 13
6.350979 -4.216188 1.059729 13
6.347846 -4.246390 1.060302 13
6.346240 -4.277727 1.061016 13
6.349462 -4.312439 1.062160 13
6.357478 -4.350579 1.063733 13
6.343876 -4.374225 1.063424 13
6.342469 -4.404608 1.064146 13
6.354924 -4.446364 1.066139 13
6.354070 -4.479140 1.066973 13
6.360441 -4.518821 1.068500 13
6.356004 -4.549417 1.069038 13
6.353056 -4.581195 1.069716 13
6.360496 -4.618860 1.071276 13
6.357243 -4.650742 1.071946 13
6.365134 -4.690877 1.073615 37
6.342262 -4.708705 1.072559 37
6.364266 -4.759628 1.075507 10
2.714667 -12.190297 1.636440 13
2.649318 -12.109286 1.626768 19
2.599672 -12.085819 1.622583 19
2.557439 -12.085036 1.620622 26
2.543520 -12.122778 1.623128 26
2.492776 -12.196959 1.627028 4
1.765699 -11.763577 1.560379 13
0.991905 -12.385708 1.584443 13
0.950999 11.979633 1.610208 6
0.970157 11.725920 1.588068 47
1.002468 11.630844 1.580633 47
1.117601 11.959573 1.614111 13
1.163030 11.990837 1.618506 18
0.564377 6.062491 1.065802 18
0.681827 6.144734 1.077422 1
0.693016 6.062957 1.070522 1
0.712034 6.052383 1.070288 14
0.740648 6.104742 1.076047 14
0.826247 6.096284 1.078585 13
0.857797 6.159909 1.085495 14
0.880187 6.162412 1.086604 14
0.905142 6.180560 1.089214 1
0.986577 6.267759 1.100265 13
0.991535 6.167817 1.091587 3
1.026257 6.114964 1.088335 3
6.360336 33.312141 3.724586 13
1.645002 6.702574 1.167936 13
1.786488 6.246911 1.135350 4
7.112309 22.679623 2.829158 13
7.244317 22.655764 2.834075 7
24.181774 32.458904 4.764499 13
24.175629 7.501726 3.374835 13
10.249566 -3.147016 1.707275 4
9.826195 -3.129995 1.660461 13
9.539361 -3.113472 1.628681 13
9.459879 -3.126511 1.620316 28
9.447000 -3.159290 1.619723 28
9.300789 -3.145400 1.603428 27
9.297157 -3.162466 1.603463 27
9.434576 -3.264701 1.621045 45
9.434366 -3.301935 1.621988 45
9.427094 -3.334904 1.622062 45
9.419121 -3.369526 1.622115 45
9.404134 -3.399783 1.621299 16
9.176733 -3.356596 1.595485 16
9.174269 -3.392437 1.596199 2
9.121352 -3.409622 1.590951 2
9.239650 -3.490726 1.606001 16
9.167911 -3.500805 1.598541 16
9.004014 -3.473266 1.580080 2
8.978837 -3.500053 1.578139 2
8.966543 -3.531775 1.577738 5
8.954139 -3.563453 1.577335 5
8.913931 -3.584033 1.573627 5
8.893970 -3.612554 1.572339 5
8.889285 -3.645406 1.572829 5
8.885677 -3.680593 1.573516 5
8.862387 -3.705846 1.571801 5
8.865876 -3.744076 1.573361 5
8.847898 -3.771512 1.572302 5
8.840142 -3.805117 1.572536 5
8.855990 -3.848950 1.575621 5
8.852897 -3.866183 1.575845 5
8.855472 -3.925051 1.578024 5
8.856231 -3.962794 1.579340 5
8.887673 -4.014414 1.584376 5
8.907998 -4.061386 1.588091 5
