# .PCD v.7 - Point Cloud Data file format
VERSION .7
FIELDS x y z intensity
SIZE 4 4 4 1
TYPE F F F U
COUNT 1 1 1 1
WIDTH 1568
HEIGHT 1
VIEWPOINT 0 0 0 1 0 0 0
POINTS 1568
DATA ascii
-1.099326 10.881073 0.404072 20
-1.063022 10.897893 0.402886 9
-1.090284 10.254684 0.438833 14
-0.978214 11.070426 0.392685 3
-0.985156 10.649712 0.416105 3
-0.886502 10.948595 0.398737 5
-0.129131 10.642376 0.407580 22
-0.100936 10.616643 0.408614 21
-0.063368 10.621517 0.407840 12
1.772797 10.576264 0.375037 1
1.904361 10.610089 0.370037 21
1.948410 10.622443 0.368293 7
3.815302 10.662269 0.310566 2
3.886075 10.703635 0.306214 1
2.358298 8.108793 0.479697 0
2.327724 8.005840 0.485542 0
2.317452 7.937174 0.489084 0
2.317597 7.880734 0.491691 0
2.296201 7.790538 0.496606 0
2.292205 7.731729 0.499454 0
2.296419 7.686512 0.501381 0
2.303515 7.648818 0.502854 0
2.303916 7.601083 0.505020 0
2.326953 7.586157 0.504869 0
2.333579 7.543676 0.506559 0
2.348677 7.519402 0.507109 0
2.369218 7.500996 0.507189 0
2.316336 7.373044 0.514903 0
2.327406 7.341528 0.515910 0
2.347292 7.323220 0.515991 0
2.372770 7.315490 0.515385 0
2.287013 7.141826 0.526345 0
2.319849 7.143354 0.525039 0
2.322956 7.102213 0.526744 0
2.320165 7.055348 0.528921 0
2.332043 7.027351 0.529701 0
2.320526 6.966879 0.532800 0
2.408790 6.957166 0.529799 8
2.409832 6.872025 0.533448 0
2.413577 6.834354 0.534925 0
2.426727 6.809484 0.535473 0
2.439757 6.784595 0.536020 0
2.464796 6.775544 0.535404 0
2.480078 6.753735 0.535718 0
2.500157 6.738200 0.535566 0
2.532476 6.738326 0.534248 0
2.545092 6.713195 0.534794 0
2.565029 6.697433 0.534641 0
2.667139 6.784575 0.526788 0
2.688818 6.772310 0.526405 0
2.638600 6.669152 0.532784 0
2.734094 6.745901 0.525621 0
2.754144 6.729479 0.525462 0
2.804680 6.749910 0.522498 0
2.799184 6.702562 0.524675 0
2.857582 6.731799 0.521006 0
2.846654 6.678346 0.523651 0
2.874231 6.670654 0.522786 0
2.917404 6.681032 0.520516 0
2.913745 6.636765 0.522460 0
2.926535 6.609822 0.522991 0
3.068746 6.734802 0.511818 0
2.996335 6.612373 0.519856 0
3.033493 6.616812 0.518057 0
3.095665 6.646983 0.514135 0
3.137689 6.614507 0.513561 2
3.181504 6.623221 0.511276 2
3.214634 6.619938 0.509930 2
3.318326 6.692684 0.502469 0
3.349076 6.685907 0.501352 0
3.388684 6.648701 0.500999 2
3.455662 6.640047 0.498288 36
3.483656 6.629726 0.497401 8
3.581523 6.651508 0.492088 2
3.634949 6.626851 0.490541 5
3.679983 6.632703 0.488231 2
3.749629 6.664634 0.483803 2
3.799658 6.676527 0.481025 3
3.808053 6.645204 0.481781 1
3.876071 6.632550 0.479036 0
3.964845 6.678514 0.473165 0
4.008763 6.678797 0.471067 0
4.027581 6.658971 0.470881 0
4.047318 6.638035 0.470685 0
4.102006 6.649729 0.467644 0
4.268116 6.764270 0.455589 0
4.142320 6.606203 0.467238 0
4.293710 6.665432 0.457817 0
4.331264 6.659605 0.456188 0
4.368855 6.653584 0.454558 0
4.515911 6.746636 0.444140 0
4.520983 6.710783 0.445119 0
4.559910 6.702777 0.443471 0
4.619761 6.676539 0.441392 0
4.654706 6.666537 0.439988 0
4.771718 6.726284 0.432148 0
4.806925 6.715645 0.430739 0
4.818676 6.683099 0.431225 0
4.869156 6.684973 0.428620 0
4.872614 6.649559 0.429605 0
4.906746 6.639553 0.428202 0
5.035634 6.702739 0.419608 0
5.071023 6.690857 0.418188 0
5.105423 6.680031 0.416778 0
5.116857 6.646616 0.417258 0
5.300409 6.710743 0.405791 0
5.341335 6.703859 0.403894 0
5.365365 6.679508 0.403409 0
5.397811 6.663654 0.402215 0
5.417554 6.637935 0.401980 0
5.560186 6.707685 0.392401 0
5.591835 6.692338 0.391213 0
5.622252 6.671803 0.390240 0
5.788380 6.756279 0.378961 1
5.722725 6.663795 0.385190 0
5.832629 6.703043 0.378214 1
5.857970 6.681869 0.377498 1
5.893954 6.666237 0.376047 1
6.017518 6.713265 0.368095 1
6.048180 6.690932 0.367106 1
6.110631 6.650933 0.364911 3
6.290167 6.693496 0.354040 7
6.349514 6.691769 0.350883 3
6.395749 6.680707 0.348689 2
6.481701 6.696224 0.343595 3
6.591073 6.726780 0.336804 3
6.787385 6.683050 0.327251 3
6.822966 6.664844 0.325779 1
10.549988 9.011200 0.058283 1
10.571147 8.963194 0.058375 1
10.541483 8.883165 0.062104 1
10.582466 8.847956 0.060742 1
10.592838 8.793584 0.061562 1
10.613178 8.745524 0.061655 1
10.626525 8.693250 0.062233 1
10.641739 8.645247 0.062588 1
10.660192 8.599292 0.062700 1
10.725662 8.575522 0.059611 1
10.745169 8.527119 0.059702 1
10.774815 8.484746 0.059062 1
10.797424 8.438232 0.058909 1
10.818573 8.393882 0.058775 1
10.838673 8.343017 0.058845 1
10.871172 8.302247 0.057959 1
10.888373 8.255725 0.058068 1
10.899702 8.203016 0.058645 1
10.933003 8.159713 0.057738 1
10.946196 8.111131 0.058090 1
10.967445 8.064117 0.057935 1
10.975711 8.007167 0.058737 1
11.012557 7.913311 0.058689 16
11.043675 7.871719 0.057798 16
11.075854 7.827719 0.056886 17
11.109057 7.789979 0.055769 17
11.118494 7.736994 0.056346 16
11.164436 7.699916 0.054450 14
11.187752 7.654060 0.054046 13
11.210907 7.608123 0.053641 8
11.239902 7.567969 0.052764 4
10.604124 7.196496 0.097568 1
10.597002 7.138553 0.099148 1
10.643167 7.052466 0.098130 3
10.667830 7.010152 0.097497 3
10.702139 6.975066 0.096144 4
10.815886 6.977089 0.089369 3
11.093774 7.051842 0.071479 1
11.409676 7.139081 0.051085 1
11.420133 7.087406 0.051416 1
11.440253 7.043000 0.051027 1
11.447742 6.987322 0.051585 1
11.489430 6.952533 0.049713 1
11.503854 6.899987 0.049776 1
11.531697 6.856135 0.048871 1
11.537398 6.802686 0.049449 1
11.563918 6.761026 0.048563 1
11.584950 6.711418 0.048130 1
11.601130 6.662560 0.047966 1
11.612465 6.614499 0.048069 1
11.628295 6.565570 0.047904 1
11.651346 6.519605 0.047243 1
11.659427 6.467587 0.047574 1
11.685856 6.422965 0.046664 1
11.708425 6.376760 0.046002 1
11.711310 6.325596 0.046602 1
11.727022 6.274013 0.046415 1
11.751902 6.231444 0.045524 1
11.762620 6.180722 0.045607 1
11.777785 6.128990 0.045420 1
11.798470 6.084790 0.044776 1
11.777348 5.968208 0.047683 13
11.820921 5.929652 0.045523 19
11.849341 5.885517 0.044358 11
11.911528 5.853131 0.040947 3
11.898216 5.794218 0.042526 1
11.903545 5.741929 0.042858 1
11.848183 5.669161 0.047190 1
11.856028 5.620806 0.047295 1
11.848546 5.567426 0.048402 1
11.846232 5.510571 0.049217 1
11.858103 5.461119 0.049053 1
11.869026 5.414053 0.048909 1
11.873700 5.359728 0.049225 1
11.884278 5.312638 0.049082 1
11.903816 5.263041 0.048396 1
11.894971 5.210062 0.049507 1
11.917236 5.163971 0.048590 1
11.916388 5.110957 0.049179 1
11.919168 5.059123 0.049518 1
11.859705 4.991975 0.053901 1
11.862737 4.938005 0.054222 1
11.891776 4.894060 0.052803 1
11.878370 4.838196 0.054152 1
11.880804 4.784281 0.054474 1
11.881724 4.735233 0.054838 1
11.886973 4.684833 0.054930 1
11.884317 4.632410 0.055526 1
11.907887 4.589488 0.054378 1
11.893268 4.534130 0.055733 1
11.910008 4.484304 0.055048 1
11.909872 4.435401 0.055414 1
11.901809 4.384638 0.056287 1
11.909667 4.335292 0.056128 1
11.913465 4.285011 0.056223 1
11.874887 4.222331 0.059082 1
11.878278 4.172227 0.059178 1
11.873157 4.122791 0.059802 1
11.876188 4.072747 0.059900 1
11.859543 4.018447 0.061265 1
11.877809 3.971869 0.060349 1
11.888618 3.921129 0.059920 1
11.902144 3.876000 0.059277 1
11.900375 3.825193 0.059630 1
11.878851 3.770501 0.061255 1
11.900196 3.724493 0.060084 1
11.890036 3.672298 0.060947 1
11.891444 3.622444 0.061048 1
11.880901 3.570417 0.061913 1
11.897652 3.523521 0.060996 1
11.890668 3.472314 0.061608 1
11.887427 3.421878 0.061966 1
11.836382 3.365781 0.065406 1
11.844564 3.317606 0.065001 1
11.852580 3.269403 0.064595 1
11.848604 3.219264 0.064956 1
11.852332 3.170424 0.064807 1
11.847998 3.120369 0.065169 1
11.843483 3.070370 0.065532 1
11.846685 3.021591 0.065384 1
11.833910 2.970546 0.066260 1
11.856526 2.924596 0.064832 1
11.839439 2.873115 0.065966 1
11.837989 2.823880 0.066075 1
11.824486 2.773143 0.066955 1
11.830601 2.725013 0.066552 1
11.836254 2.679270 0.066170 1
11.849683 2.634453 0.065275 1
11.851348 2.585778 0.065129 1
11.840940 2.535778 0.065755 1
11.850195 2.488023 0.065096 1
11.867224 2.441055 0.063923 1
11.836436 2.389153 0.065837 1
11.849156 2.341762 0.064921 1
11.853765 2.293548 0.064520 1
11.854230 2.244958 0.064376 1
11.850547 2.196033 0.064491 1
11.830918 2.094941 0.065477 6
11.822542 2.048284 0.065872 4
11.872461 1.908945 0.062110 1
11.791901 1.855389 0.067141 1
11.776339 1.707677 0.067484 1
11.750827 1.658361 0.068901 1
11.757038 1.610676 0.068246 1
11.751020 1.564849 0.068390 1
11.693639 1.183211 0.069678 1
11.642342 1.132620 0.072652 1
11.626781 1.082653 0.073284 1
11.615015 1.037553 0.073696 1
11.619065 0.992535 0.073066 1
11.599009 0.945199 0.073982 1
11.578787 0.898003 0.074898 1
-16.064098 1.039116 0.073756 1
-16.119770 1.086261 0.070629 1
-16.111366 1.138070 0.071555 1
-16.114813 1.185046 0.071689 1
-16.118021 1.236989 0.071863 1
-16.121140 1.284015 0.071997 1
-16.131966 1.336203 0.071671 1
-16.142670 1.385999 0.071325 1
-16.141302 1.433023 0.071709 1
-16.143684 1.482656 0.071863 1
-16.145893 1.532310 0.072017 1
-16.155905 1.582318 0.071672 1
-16.153776 1.631862 0.072076 1
-16.171413 1.682370 0.071233 3
-16.181023 1.730110 0.070869 3
-16.214390 1.779246 0.069010 3
-16.291134 1.836186 0.064454 3
-16.193308 1.930152 0.070990 17
-16.185982 1.979547 0.071642 17
-16.206356 2.030939 0.070553 3
-16.218773 2.079387 0.069942 3
-16.195011 2.127558 0.071588 3
-16.190979 2.177235 0.071990 3
-16.194729 2.227589 0.071896 3
-16.174444 2.275826 0.073290 3
-16.185560 2.329407 0.072720 3
-16.180824 2.379050 0.073122 3
-16.180136 2.426596 0.073255 3
-16.155207 2.474144 0.074894 3
-16.173513 2.528734 0.073829 3
-16.172325 2.576297 0.073962 1
-16.167011 2.623413 0.074342 1
-16.172850 2.676879 0.074020 1
-16.163239 2.723513 0.074647 1
-16.176622 2.778044 0.073831 1
-16.198355 2.828752 0.072483 1
-16.196161 2.876477 0.072616 1
-16.181604 2.925078 0.073508 1
-16.178741 2.975255 0.073661 1
-16.171396 3.027350 0.074079 1
-16.132624 3.072297 0.076447 1
-16.113081 3.122438 0.077602 1
-16.121738 3.171786 0.076994 1
-16.114450 3.218731 0.077370 1
-16.114096 3.271860 0.077294 1
-16.102131 3.320598 0.077935 1
-16.110098 3.370126 0.077328 1
-16.089502 3.419937 0.078479 1
-16.092756 3.471309 0.078137 1
-16.088404 3.518860 0.078265 1
-16.079517 3.568156 0.078659 1
-16.082232 3.619614 0.078317 1
-16.061224 3.666655 0.079445 1
-16.141977 3.733295 0.074206 1
-16.132341 3.782777 0.074600 1
-16.130856 3.831324 0.074485 1
-16.120876 3.880766 0.074878 1
-16.110214 3.932644 0.075291 1
-16.104307 3.980372 0.075419 3
-16.074293 4.025524 0.077032 1
-16.071438 4.076474 0.076935 1
-16.064501 4.126575 0.077081 1
-16.065174 4.178425 0.076740 1
-16.065659 4.230318 0.076399 1
-16.065950 4.282253 0.076058 1
-16.042744 4.328703 0.077178 1
-16.042675 4.380640 0.076836 1
-16.030779 4.429771 0.077225 1
-16.026463 4.480784 0.077126 1
-16.026449 4.530329 0.076765 1
-16.061079 4.588799 0.074217 1
-16.056187 4.639995 0.074119 1
-16.038881 4.690615 0.074769 1
-15.999549 4.730082 0.076836 1
-15.997997 4.782185 0.076494 1
-15.995584 4.836771 0.076171 1
-15.990468 4.885425 0.076052 1
-15.984498 4.936535 0.075953 1
-15.977645 4.990096 0.075872 1
-15.952116 5.035670 0.076982 1
-15.946311 5.084286 0.076862 1
-16.003965 5.157094 0.072669 1
-15.993917 5.204786 0.072792 1
-15.982223 5.257351 0.072953 1
-15.971834 5.304997 0.073076 1
-15.968148 5.357441 0.072734 1
-15.949036 5.405105 0.073357 1
-15.938147 5.452679 0.073478 1
-15.902907 5.548904 0.074480 16
-15.890725 5.598795 0.074619 17
-15.889724 5.652458 0.074035 4
-15.898438 5.763812 0.072145 3
-15.870342 5.917493 0.071836 26
-15.838048 5.960629 0.073174 11
-15.863938 6.076917 0.070066 3
-15.846124 6.125415 0.070442 3
-15.831880 6.175248 0.070577 3
-15.797869 6.220403 0.071930 3
-15.784204 6.267682 0.072045 3
-15.758272 6.313025 0.072897 3
-15.735913 6.359702 0.073508 3
-15.676245 6.391657 0.076512 3
-15.653622 6.438022 0.077120 3
-15.679966 6.501256 0.074601 3
-15.623672 6.534096 0.077360 3
-15.593178 6.577210 0.078444 3
-15.577308 6.626286 0.078571 3
-15.541850 6.669991 0.079910 3
-15.518289 6.715806 0.080513 3
-15.510270 6.765428 0.080143 3
-15.471715 6.804794 0.081698 1
-15.444037 6.848736 0.082536 3
-15.427186 6.897367 0.082658 1
-15.391906 6.937868 0.083971 3
-15.360152 6.979825 0.085044 1
-15.340240 7.024223 0.085384 1
-15.327450 7.071862 0.085247 1
-15.288021 7.110150 0.086792 1
-15.262980 7.154952 0.087385 1
-15.241405 7.201345 0.087739 1
-15.216057 7.245958 0.088330 1
-15.190558 7.290471 0.088920 1
-15.172111 7.338340 0.089034 1
-15.164268 7.391382 0.088436 1
-15.127521 7.430412 0.089735 1
-15.103853 7.478624 0.090102 1
-15.085863 7.523950 0.090196 1
-15.055864 7.566139 0.091017 1
-15.025731 7.608198 0.091837 1
-15.003737 7.651484 0.092165 1
-15.075134 10.427572 0.112721 3
-15.032434 10.466256 0.113683 3
-15.015431 10.523603 0.112970 3
-14.978881 10.566746 0.113512 3
-14.921360 10.664558 0.113546 22
-14.854106 10.681082 0.116158 45
-14.793256 10.702087 0.118349 31
-14.752948 10.741976 0.119092 16
-14.735162 10.870139 0.116401 3
-14.713226 10.924487 0.115890 3
-14.681640 10.971404 0.116003 3
-14.634210 11.005838 0.117158 5
-14.567942 11.025137 0.119561 7
-14.532861 11.069080 0.119879 9
-14.491411 11.107882 0.120611 9
-14.449843 11.146519 0.121343 9
-14.423611 11.197642 0.121032 9
-14.446479 11.289375 0.117394 16
-14.442467 11.363151 0.115436 7
-14.411087 11.407044 0.115525 13
-14.327615 11.407098 0.119145 11
-14.245509 11.411440 0.122569 9
-14.137411 11.396704 0.127665 11
-14.046537 11.392239 0.131703 7
-13.943769 11.376801 0.136567 10
-13.832229 11.352893 0.142049 21
-13.755812 11.355286 0.145231 24
-13.659753 11.343448 0.149668 28
-13.571690 11.334355 0.153672 22
-13.476067 11.321468 0.158101 24
-13.374746 11.302685 0.162939 21
-13.291428 11.299450 0.166532 21
-13.211215 11.298458 0.169914 15
-13.116469 11.283488 0.174327 24
-13.048304 11.292456 0.176876 19
-12.971459 11.292884 0.180041 17
-12.871490 11.270987 0.184856 15
-12.792091 11.267765 0.188221 13
-12.715738 11.266873 0.191376 13
-12.616494 11.243418 0.196179 11
-12.537627 11.238853 0.199533 14
-12.458923 11.233863 0.202885 14
-12.371835 11.220050 0.206851 13
-12.290650 11.211373 0.210402 11
-12.194452 11.183553 0.215173 9
-11.789349 10.848628 0.242396 12
-12.035956 11.166745 0.222050 14
-7.940499 7.115233 0.519169 1
-7.899630 7.115993 0.520753 1
-7.875453 7.133809 0.521102 1
-7.813190 7.154673 0.522825 14
-7.740650 7.118832 0.526861 1
-7.717575 7.135050 0.527199 2
-7.644402 7.099539 0.531237 2
-7.614922 7.110540 0.531989 4
-7.580038 7.202000 0.530138 1
-7.547654 7.209690 0.531092 2
-7.398275 7.086068 0.541058 2
-7.347838 7.072119 0.543440 1
-7.310757 7.072890 0.544797 1
-7.280054 7.078566 0.545736 1
-7.269253 7.109166 0.545044 0
-7.263518 7.145818 0.543942 1
-7.262785 7.188575 0.542431 0
-7.145437 7.094395 0.550120 0
-7.131836 7.121617 0.549629 0
-7.110414 7.139630 0.549751 0
-7.024142 7.123065 0.553463 0
-6.979920 7.112900 0.555419 0
-6.943397 7.111794 0.556760 0
-6.911965 7.116723 0.557693 0
-6.873059 7.112159 0.559236 0
-6.835312 7.106549 0.560772 0
-6.836256 7.151720 0.559050 0
-6.787580 7.134149 0.561405 0
-6.714517 7.084815 0.565795 0
-6.698117 7.107689 0.565497 0
-6.647525 7.086186 0.568050 0
-6.633501 7.112035 0.567547 0
-6.616940 7.134677 0.567247 0
-6.569055 7.115779 0.569592 0
-6.530921 7.109425 0.571121 0
-6.504786 7.118923 0.571632 0
-6.483376 7.134748 0.571736 0
-6.453555 7.136812 0.572647 0
-6.378118 7.078094 0.577422 0
-6.352181 7.086995 0.577928 0
-6.321589 7.089289 0.578840 0
-6.346530 7.169626 0.574878 0
-6.239809 7.064070 0.582487 0
-6.230040 7.095338 0.581568 0
-6.185932 7.077388 0.583693 0
-6.155602 7.078942 0.584599 0
-6.127568 7.083656 0.585301 0
-6.146669 7.157659 0.581745 0
-6.100573 7.135789 0.584068 0
-6.063563 7.126957 0.585578 0
-5.950400 7.000745 0.594172 0
-6.033785 7.170712 0.584738 0
-5.917108 7.041827 0.593538 0
-5.979684 7.182243 0.585929 0
-5.856374 7.038392 0.595529 0
-5.836342 7.055997 0.595416 0
-5.800179 7.045873 0.596917 0
-5.802432 7.096431 0.594776 0
-5.764178 7.082696 0.596477 0
-5.749210 7.106124 0.595954 0
-5.715297 7.098892 0.597248 0
-5.621154 6.992591 0.604401 0
-5.601239 7.004697 0.604476 0
-5.580232 7.017369 0.604554 0
-5.569407 7.047126 0.603622 0
-5.609242 7.162854 0.597643 0
-5.521952 7.065903 0.604183 0
-5.486674 7.054124 0.605672 0
-5.459507 7.056014 0.606352 0
-5.439383 7.067584 0.606422 0
-5.417246 7.075613 0.606693 0
-5.334152 6.980339 0.613020 0
-5.299592 6.967666 0.614502 0
-5.257801 6.990831 0.614641 2
-5.258930 7.040314 0.612490 4
-5.247302 7.069361 0.611551 2
-5.236333 7.102493 0.610414 4
-5.139155 6.968705 0.618733 1
-5.067132 6.880276 0.624431 2
-5.041008 6.880464 0.625099 2
-5.013081 6.876996 0.625966 2
-4.985216 6.873404 0.626833 2
-4.962857 6.880367 0.627095 2
-4.940485 6.887246 0.627357 2
-4.916313 6.890469 0.627819 6
-4.893932 6.897172 0.628079 9
-4.864481 6.889456 0.629143 5
-4.842129 6.895966 0.629401 3
-4.816288 6.895200 0.630061 2
-4.793244 6.897433 0.630517 2
-4.764041 6.889245 0.631576 4
-4.707601 6.876094 0.633493 9
-4.646487 6.851549 0.636007 2
-4.626020 6.860888 0.636059 2
-4.594047 6.844655 0.637515 2
-4.568725 6.842865 0.638167 2
-4.552540 6.858791 0.637813 2
-4.526665 6.852716 0.638661 1
-4.509374 6.868968 0.638309 0
-4.496729 6.896183 0.637353 2
-4.494873 6.949115 0.634995 1
-4.495779 7.009468 0.632235 1
-4.501384 7.085091 0.628676 2
-4.376433 6.842824 0.642350 0
-4.314579 6.863684 0.642678 0
-4.294072 6.871865 0.642721 0
-4.240367 6.858624 0.644407 2
-4.225613 6.881461 0.643646 3
-4.206073 6.888940 0.643683 3
-4.121826 6.911836 0.644233 0
-4.120148 6.971950 0.641469 0
-4.123451 7.047172 0.637903 0
-4.098312 7.043385 0.638539 0
-4.080072 7.062495 0.637976 0
-4.112322 7.224685 0.629811 0
-4.090556 7.232159 0.629846 0
-4.062186 7.216477 0.631078 0
-4.039006 7.215834 0.631509 0
-4.018687 7.230999 0.631144 0
-4.029510 7.487871 0.618845 0
-4.033919 7.662386 0.610514 5
-4.017446 7.776101 0.605380 6
-4.010893 7.844832 0.602215 4
-3.970922 7.881640 0.601073 0
-3.972039 8.163883 0.587575 0
-4.060885 10.790870 0.459462 3
-4.018439 10.759049 0.461475 9
-3.986047 10.765819 0.461491 18
-3.955114 10.788488 0.460709 7
-2.905193 11.943596 0.410993 3
-2.862685 11.895068 0.413567 5
-2.740142 11.788362 0.419286 9
-2.701049 11.743060 0.421657 13
-2.666710 11.765388 0.420636 13
-2.635545 11.871458 0.415421 10
-2.599678 11.909641 0.413597 3
-2.564430 11.963662 0.410974 10
-2.506176 11.578700 0.430304 2
-2.440281 11.761847 0.421260 10
-2.374924 11.044888 0.457161 6
-2.331395 10.822711 0.468308 9
-2.307897 11.191332 0.449908 10
-2.268757 11.076681 0.455664 8
-2.234994 11.065666 0.456230 18
-2.193849 10.814948 0.468774 5
-2.161352 10.903575 0.464345 10
-2.126694 10.900221 0.464508 12
-2.092169 10.904735 0.464270 11
-2.055648 10.709388 0.474019 4
-1.989421 10.677850 0.475540 7
-1.955644 10.621962 0.478296 5
-1.852819 10.805140 0.468975 10
-1.817537 10.876608 0.465332 17
-1.779968 11.047806 0.456690 8
-1.745304 11.027143 0.457641 15
-1.710285 11.026331 0.457592 10
-1.678441 10.913581 0.463140 10
-1.643946 10.908543 0.463289 6
-1.607647 10.955287 0.460837 10
-1.580324 10.762379 0.470384 16
-1.550795 10.693210 0.473734 10
-1.512568 10.787500 0.468880 2
-1.465243 11.053218 0.455420 3
-1.426353 11.123238 0.451761 8
-1.377511 10.724358 0.471453 4
-1.289769 11.043041 0.455122 12
-1.256375 11.016727 0.456261 17
-1.207304 11.205449 0.446586 14
-1.203642 10.788511 0.467348 11
-1.175886 10.706168 0.471290 5
-1.105448 11.137287 0.449391 2
-1.068784 10.757095 0.468088 5
-1.004936 11.068119 0.452189 11
-0.983846 10.921592 0.459333 18
-0.930182 11.104920 0.449841 13
-0.902011 11.033721 0.453176 14
-0.876054 10.946563 0.457314 8
-0.117743 10.655517 0.464232 4
-0.058095 10.603227 0.466056 19
-0.020620 10.616108 0.464953 9
1.912713 10.605939 0.430646 18
1.946239 10.592360 0.430494 15
1.990345 10.604530 0.428912 3
2.400946 8.113974 0.526820 51
2.367090 7.895280 0.536928 0
2.408218 7.907153 0.535115 0
2.333668 7.736839 0.544507 0
2.367963 7.738622 0.543317 0
2.384976 7.713408 0.543787 0
2.345191 7.601123 0.549659 0
2.348505 7.555996 0.551377 0
2.358167 7.520923 0.552473 0
2.374281 7.495835 0.552945 0
2.386950 7.463324 0.553826 0
2.389361 7.418333 0.555547 0
2.415141 7.410475 0.554986 0
2.431875 7.389344 0.555257 0
2.371209 7.251649 0.562807 0
2.381608 7.220104 0.563698 0
2.402233 7.205672 0.563555 0
2.423891 7.190406 0.563403 0
2.426955 7.149035 0.564920 0
2.453074 7.140174 0.564351 0
2.404299 7.027612 0.570464 0
2.415931 6.999423 0.571149 0
2.443510 6.949449 0.572100 0
2.444161 6.909174 0.573630 0
2.481554 6.916139 0.572013 0
2.500825 6.896631 0.572062 0
2.457511 6.799135 0.577362 0
2.480179 6.786850 0.577001 0
2.483294 6.749176 0.578316 0
2.518065 6.752554 0.576906 0
2.547990 6.749469 0.575914 0
2.602677 6.777614 0.572822 0
2.622840 6.761651 0.572666 0
2.642947 6.745617 0.572510 0
2.688055 6.760623 0.570253 0
2.698092 6.731953 0.570935 0
2.735786 6.737310 0.569305 0
2.745655 6.708545 0.569987 0
2.859884 6.805879 0.562042 0
2.784447 6.676381 0.569676 0
2.818682 6.678967 0.568260 0
2.919480 6.755936 0.561559 0
2.956117 6.756250 0.560121 0
2.970998 6.732992 0.560378 0
2.991003 6.715744 0.560212 0
3.020442 6.711344 0.559209 0
3.057804 6.715825 0.557572 0
3.069819 6.689289 0.558038 0
3.073749 6.653781 0.559137 0
3.104132 6.648080 0.558123 0
3.147908 6.657071 0.556050 0
3.190018 6.624219 0.555497 2
3.205957 6.604170 0.555545 2
3.244515 6.606612 0.553890 2
3.292309 6.616696 0.551589 2
3.331056 6.618700 0.549930 2
3.357917 6.609826 0.549127 2
3.642021 6.868831 0.528578 4
3.491380 6.631382 0.542861 9
3.563954 6.666708 0.538644 4
3.572541 6.635978 0.539311 7
3.600619 6.625160 0.538491 2
3.698978 6.606009 0.534958 2
3.826643 6.692762 0.526676 1
3.894114 6.600353 0.526766 0
3.980198 6.643216 0.521663 0
3.999882 6.622446 0.521469 0
4.004930 6.587939 0.522342 0
4.058508 6.600811 0.519592 0
4.078043 6.579768 0.519395 0
4.223948 6.674895 0.509997 0
4.243741 6.653273 0.509795 0
4.304889 6.669139 0.506595 0
4.303880 6.628529 0.507891 0
4.323510 6.606628 0.507687 0
4.417745 6.650947 0.502122 0
4.512364 6.694675 0.496551 0
4.457082 6.606282 0.501707 0
4.552004 6.649348 0.496130 0
4.571706 6.626582 0.495919 0
4.721747 6.715501 0.486465 0
4.686921 6.645551 0.490120 0
4.781891 6.687933 0.484538 0
4.771129 6.638688 0.486473 0
4.744763 6.576803 0.489486 0
4.862688 6.634841 0.482376 0
4.937890 6.656627 0.478276 0
4.957613 6.632513 0.478054 0
4.977253 6.608330 0.477832 0
5.115089 6.679192 0.469407 0
5.094312 6.622062 0.471988 0
5.192165 6.659431 0.466360 0
5.211897 6.634429 0.466131 0
5.231541 6.609359 0.465902 0
5.295280 6.618496 0.462643 0
5.349676 6.619944 0.460030 0
5.527910 6.715701 0.448969 0
5.468304 6.629150 0.454146 0
5.567670 6.663283 0.448491 0
5.667364 6.696791 0.442830 0
5.744937 6.712999 0.438682 0
5.808857 6.720609 0.435410 0
5.808471 6.680653 0.436478 0
5.825041 6.651151 0.436449 0
5.967802 6.712774 0.427942 0
5.945508 6.654821 0.430518 0
6.027057 6.671176 0.426133 0
6.027247 6.629438 0.427186 0
6.164753 6.641963 0.420144 1
6.220570 6.638530 0.417489 2
6.339059 6.677676 0.410689 3
6.467908 6.679938 0.404271 3
6.505280 6.660122 0.402900 3
6.628115 6.699081 0.395860 3
6.680108 6.649243 0.394457 15
6.841189 6.665189 0.386019 2
11.792843 9.790318 0.064666 1
11.835480 9.685849 0.064920 11
11.872496 9.641874 0.064049 3
10.548565 8.753190 0.151169 1
10.546299 8.688447 0.152734 1
10.564919 8.642765 0.152802 1
10.654317 8.579982 0.149619 3
10.757481 8.578719 0.144367 1
10.868465 8.587383 0.138488 3
10.953424 8.576949 0.134345 3
12.192407 9.235270 0.056602 1
12.238365 9.195808 0.055059 1
12.258543 9.144704 0.055080 1
12.279952 9.091070 0.055079 1
12.312999 9.040784 0.054394 1
12.344473 8.992861 0.053730 1
12.368802 8.940940 0.053506 1
12.398562 8.895305 0.052863 1
12.354572 8.809352 0.056863 1
12.385264 8.761237 0.056198 1
12.419313 8.714894 0.055311 1
12.426351 8.650874 0.056173 1
12.444588 8.599392 0.056194 1
12.481648 8.554622 0.055083 1
12.486673 8.493117 0.055968 1
12.505648 8.438985 0.055966 1
12.554169 8.396806 0.054165 1
12.569217 8.340686 0.054384 1
12.568500 8.279924 0.055515 1
12.597407 8.230943 0.054845 1
10.602285 7.183961 0.179860 1
10.580477 7.064766 0.183095 1
10.579981 7.010582 0.184047 1
10.740867 6.979098 0.175917 4
12.783577 7.757680 0.052828 3
12.830411 7.654582 0.051925 7
12.860851 7.606167 0.051026 5
12.924006 7.572158 0.048111 3
12.932233 7.513752 0.048553 1
12.932905 7.452188 0.049442 1
12.948006 7.397007 0.049436 1
12.980168 7.352227 0.048332 1
12.986440 7.296436 0.048797 1
13.015706 7.247303 0.047893 1
13.027439 7.187791 0.048088 1
13.074826 7.146028 0.046060 1
13.088795 7.090507 0.046052 1
13.097798 7.036103 0.046293 1
13.111362 6.980553 0.046285 1
13.140622 6.928194 0.045355 1
13.149041 6.873736 0.045596 1
13.176912 6.823831 0.044687 1
13.185964 6.766685 0.044905 1
13.199533 6.708313 0.044875 1
13.229610 6.662200 0.043762 1
13.249290 6.609142 0.043303 1
13.273506 6.554728 0.042594 1
13.270275 6.493373 0.043490 1
13.288416 6.442836 0.043053 1
13.314860 6.392237 0.042141 1
13.330760 6.334896 0.041884 1
13.355923 6.286769 0.040993 1
13.374291 6.233272 0.040532 1
13.389594 6.175754 0.040274 1
13.347190 5.986434 0.044587 16
13.391115 5.941551 0.042537 9
13.432029 5.839342 0.041183 1
13.388658 5.763916 0.044339 3
13.367247 5.643085 0.046629 11
13.390217 5.594526 0.045738 3
13.425315 5.546584 0.044139 1
13.384386 5.473361 0.047077 1
13.422165 5.429094 0.045272 1
13.422177 5.370996 0.045726 1
13.441194 5.318354 0.045038 1
13.375368 5.242157 0.049377 1
13.383118 5.183814 0.049354 1
13.386069 5.127110 0.049583 1
13.399679 5.076197 0.049149 1
13.375195 5.012423 0.050981 1
13.374341 4.952191 0.051419 1
13.383501 4.900331 0.051214 1
13.389284 4.844800 0.051217 1
13.387115 4.787359 0.051679 1
13.380850 4.729034 0.052371 1
13.331653 4.660547 0.055590 1
13.348232 4.608063 0.054907 1
13.329006 4.550033 0.056315 1
13.337420 4.495748 0.056092 1
13.326165 4.437056 0.057019 1
13.326383 4.381080 0.057258 1
13.310789 4.321739 0.058418 1
13.326204 4.269249 0.057736 1
13.317994 4.211749 0.058437 1
13.317390 4.155966 0.058678 1
13.316584 4.100227 0.058919 1
13.268583 4.035136 0.061932 1
13.333954 3.992728 0.058249 1
13.265892 3.924209 0.062421 1
13.256397 3.867331 0.063129 1
13.246690 3.810555 0.063838 1
13.267721 3.762256 0.062718 1
13.257151 3.708231 0.063451 1
13.242920 3.650964 0.064394 1
13.252543 3.595222 0.063925 1
13.249259 3.542777 0.064196 1
13.258052 3.489669 0.063750 1
13.262715 3.435898 0.063536 1
13.255355 3.380265 0.064019 1
13.267528 3.327743 0.063340 1
13.259772 3.272204 0.063824 1
13.196500 3.208650 0.067566 1
13.204126 3.155729 0.067123 1
13.215523 3.103332 0.066447 1
13.194725 3.049231 0.067656 1
13.206102 2.994193 0.066958 1
13.197138 2.939202 0.067448 1
13.203824 2.886280 0.067006 1
13.202717 2.829725 0.067009 1
13.192847 2.777560 0.067523 1
13.195002 2.724200 0.067315 1
13.196968 2.670847 0.067108 1
13.206404 2.621000 0.066455 1
13.196093 2.566396 0.066950 1
13.193531 2.512681 0.066977 1
13.178600 2.460489 0.067730 1
13.175664 2.406890 0.067759 1
13.192423 2.355122 0.066616 1
13.201048 2.302564 0.065942 1
13.189812 2.245666 0.066419 1
13.134253 2.137668 0.069322 5
13.122211 2.083815 0.069826 5
13.145366 1.979536 0.068012 1
13.196527 1.929766 0.064750 1
13.127937 1.872655 0.068552 1
13.118939 1.819323 0.068823 1
13.089814 1.765037 0.070274 1
13.108356 1.713263 0.068896 1
13.082840 1.659415 0.070113 1
13.120967 1.608372 0.067555 1
13.087096 1.554377 0.069246 1
13.096930 1.502119 0.068341 1
13.090618 1.449312 0.068380 1
13.080059 1.399072 0.068679 1
13.065403 1.346190 0.069193 1
13.066529 1.293737 0.068761 1
13.055495 1.241081 0.069041 1
13.048269 1.188558 0.069084 1
13.036867 1.136049 0.069365 1
12.981359 1.083349 0.072256 1
12.953618 1.031114 0.073489 1
12.937674 0.979065 0.074012 1
12.929534 0.927094 0.074061 1
12.925205 0.875149 0.073873 1
12.920695 0.823234 0.073685 1
12.896043 0.771642 0.074687 1
12.891172 0.719856 0.074501 1
12.866161 0.668535 0.075506 1
12.876965 0.619070 0.074389 1
12.863655 0.570209 0.074702 1
12.850101 0.518846 0.074995 1
12.836370 0.467573 0.075289 1
12.830441 0.416080 0.075106 1
12.824333 0.364622 0.074924 1
12.770183 0.315391 0.077610 1
12.807592 0.262010 0.074801 1
12.749114 0.213411 0.077729 1
12.730343 0.162967 0.078269 1
12.719370 0.112168 0.078331 1
12.680164 0.060646 0.080049 1
12.700881 0.010503 0.078217 1
12.697348 -0.040669 0.077801 1
12.673726 -0.090358 0.078585 1
12.645955 -0.139588 0.079611 1
-17.542696 1.000007 0.071656 1
-17.498663 1.054213 0.074605 1
-17.558271 1.108904 0.071638 1
-17.553822 1.160580 0.072289 1
-17.561142 1.215121 0.072280 1
-17.552254 1.272151 0.073202 1
-17.563234 1.324106 0.072944 1
-17.569983 1.378762 0.072935 1
-17.584448 1.436424 0.072496 1
-17.574837 1.490699 0.073394 1
-17.577011 1.545338 0.073613 1
-17.591070 1.597738 0.073130 1
-17.596973 1.649901 0.073100 1
-17.590487 1.707020 0.073793 1
-17.615702 1.765681 0.072677 1
-17.609079 1.817377 0.073325 1
-17.725893 1.875983 0.066972 1
-17.730703 1.931481 0.066968 1
-17.687752 2.041899 0.069914 14
-17.668266 2.092924 0.071239 12
-17.668200 2.203165 0.071678 1
-17.671856 2.258626 0.071673 1
-17.663147 2.315863 0.072364 1
-17.654470 2.370313 0.073033 1
-17.645605 2.424720 0.073701 1
-17.648479 2.480213 0.073694 1
-17.655399 2.533397 0.073441 1
-17.638300 2.584219 0.074535 1
-17.640322 2.642504 0.074551 1
-17.638750 2.694919 0.074746 1
-17.628759 2.749186 0.075412 1
-17.618582 2.803405 0.076077 1
-17.635651 2.863622 0.075196 1
-17.621447 2.914614 0.076062 1
-17.626545 2.970769 0.075831 1
-17.607681 3.023893 0.076942 1
-17.648014 3.084839 0.074700 1
-17.628761 3.137955 0.075810 1
-17.625149 3.193187 0.076026 1
-17.621342 3.248419 0.076242 1
-17.613388 3.303068 0.076681 1
-17.601707 3.354362 0.077320 1
-17.597332 3.409552 0.077535 1
-17.596704 3.465365 0.077526 1
-17.607708 3.523118 0.076851 1
-17.583035 3.575109 0.078177 1
-17.577879 3.630288 0.078391 1
-17.591736 3.691588 0.077516 1
-17.582716 3.743405 0.077930 1
-17.584827 3.800036 0.077699 1
-17.559237 3.851672 0.079022 1
-17.560955 3.908303 0.078791 1
-17.558544 3.964234 0.078781 1
-17.540253 4.017136 0.079658 1
-17.533535 4.072272 0.079870 1
-17.527166 4.124682 0.080059 1
-17.508886 4.174679 0.080912 1
-17.512774 4.234905 0.080481 1
-17.501379 4.289169 0.080912 1
-17.493696 4.344235 0.081122 1
-17.493622 4.401002 0.080890 1
-17.490046 4.454228 0.080857 1
-17.485674 4.510178 0.080845 1
-17.547264 4.581383 0.077086 1
-17.554104 4.640317 0.076415 1
-17.533522 4.692875 0.077286 1
-17.516644 4.746271 0.077936 1
-17.502800 4.803258 0.078387 1
-17.508797 4.862310 0.077715 1
-17.492023 4.912867 0.078342 1
-17.482130 4.968046 0.078550 1
-17.475203 5.026916 0.078560 1
-17.469479 5.080376 0.078526 1
-17.471287 5.135905 0.078053 1
-17.472166 5.194198 0.077602 1
-17.468977 5.251489 0.077371 1
-17.449432 5.307225 0.078037 1
-17.442743 5.360731 0.078002 1
-17.443550 5.416436 0.077530 1
-17.420357 5.468228 0.078392 1
-17.416155 5.525536 0.078159 1
-17.395626 5.581010 0.078822 1
-17.379532 5.634857 0.079244 1
-17.339510 5.684340 0.080996 1
-17.381126 5.752989 0.078122 1
-17.391956 5.812435 0.076994 1
-17.397053 5.876189 0.076128 1
-17.359686 5.979910 0.077166 22
-17.333731 6.033823 0.078042 18
-17.386183 6.167571 0.073854 1
-17.368042 6.221381 0.074273 1
-17.349712 6.275128 0.074692 1
-17.312332 6.322258 0.076196 3
-17.304956 6.379780 0.075961 1
-17.283260 6.429295 0.076573 3
-17.275484 6.486792 0.076337 1
-17.241211 6.534765 0.077619 1
-17.225538 6.589442 0.077816 1
-17.190945 6.637135 0.079095 1
-17.167427 6.688859 0.079724 1
-17.139996 6.739074 0.080567 1
-17.119862 6.792021 0.080977 1
-17.099543 6.844898 0.081386 1
-17.052998 6.887528 0.083307 1
-17.032345 6.940171 0.083713 1
-17.004089 6.989782 0.084551 1
-16.994194 7.046731 0.084308 1
-16.958187 7.093147 0.085575 1
-16.930502 7.139808 0.086389 1
-16.921120 7.194003 0.086125 1
-16.884661 7.240013 0.087388 1
-16.851744 7.287399 0.088434 1
-16.829697 7.339337 0.088833 1
-16.800133 7.388035 0.089662 1
-16.788721 7.444574 0.089414 1
-16.766125 7.496292 0.089810 1
-16.768908 7.559267 0.088702 1
-16.749557 7.612547 0.088883 1
-16.721573 7.665057 0.089512 1
-16.688478 7.708993 0.090530 1
-16.664961 7.760359 0.090923 1
-16.655754 7.818375 0.090457 1
-16.639088 7.873017 0.090420 1
-16.599348 7.919930 0.091686 1
-16.579916 7.970154 0.091842 1
-16.544691 8.015939 0.092872 1
-16.437477 8.026641 0.098178 1
-16.321266 8.091372 0.102986 3
-16.289267 8.137888 0.103793 1
-16.328480 8.220176 0.100330 1
-16.404186 8.318381 0.094717 1
-16.374987 8.366931 0.095312 1
-16.345625 8.415366 0.095906 1
-16.321882 8.469882 0.096091 1
-16.217915 8.479100 0.101156 1
-16.272896 8.571823 0.096635 1
-16.161812 8.576563 0.102120 1
-16.124720 8.620402 0.103132 1
-16.116915 8.676857 0.102423 1
-16.069000 8.714712 0.104070 1
-16.059460 8.773562 0.103378 1
-16.035719 8.824668 0.103536 1
-15.997861 8.867885 0.104542 1
-15.970302 8.916832 0.104910 1
-15.952981 8.971621 0.104640 1
-15.925060 9.020411 0.105007 1
-15.888009 9.060664 0.105989 1
-15.852880 9.105198 0.106777 1
-15.834820 9.159719 0.106504 1
-15.785633 9.195864 0.108136 1
-15.770641 9.252272 0.107650 1
-15.733452 9.298703 0.108451 1
-15.688781 9.333954 0.109848 1
-15.656191 9.379733 0.110416 1
-15.637043 9.433781 0.110139 1
-15.607512 9.481466 0.110494 1
-15.577812 9.529048 0.110848 1
-15.524311 9.561589 0.112677 1
-15.501072 9.613171 0.112607 1
-15.485874 9.666650 0.112097 1
-15.443631 9.702779 0.113272 1
-15.426551 9.758505 0.112778 1
-15.372508 9.790115 0.114599 1
-15.361726 9.850092 0.113683 1
-15.320769 9.890170 0.114659 1
-15.296279 9.941200 0.114582 1
-15.278213 9.996644 0.114085 1
-15.240116 10.038575 0.114848 1
-15.205182 10.082610 0.115399 1
-15.179957 10.133328 0.115319 1
-15.154541 10.183981 0.115238 1
-15.122393 10.229978 0.115576 3
-15.098228 10.278181 0.115477 1
-15.073886 10.326326 0.115377 3
-17.551420 11.094852 0.088459 6
-17.641417 11.234968 0.081763 4
-17.582224 11.274260 0.083479 4
-17.518557 11.384786 0.083889 6
-17.472260 11.432333 0.084851 6
-17.421036 11.472499 0.086164 9
-17.316919 11.476390 0.090465 19
-17.316458 11.554838 0.088805 27
-17.114618 11.572559 0.096869 31
-17.031860 11.593203 0.099868 38
-16.936104 11.604155 0.103609 34
-16.845104 11.621810 0.106992 44
-16.717115 11.608356 0.112587 40
-16.646255 11.631439 0.114993 38
-16.557407 11.644942 0.118345 42
-16.450689 11.648648 0.122641 17
-16.315752 11.622914 0.128755 14
-16.211321 11.622778 0.133023 10
-16.105211 11.624511 0.137304 24
-15.920159 11.558006 0.146372 20
-15.881884 11.601814 0.146894 16
-15.756040 11.582208 0.152441 14
-15.647622 11.578909 0.156887 16
-15.528653 11.562764 0.162052 15
-15.428823 11.560719 0.166101 13
-15.307232 11.540763 0.171441 11
-15.206539 11.532708 0.175648 13
-15.088621 11.513900 0.180793 22
-14.995869 11.514479 0.184453 11
-14.895805 11.504718 0.188647 13
-14.787935 11.491588 0.193222 12
-14.677232 11.475291 0.197978 14
-14.576021 11.466009 0.202174 12
-14.475031 11.456148 0.206367 14
-14.371207 11.443137 0.210739 14
-14.277994 11.442018 0.214384 14
-14.174627 11.427838 0.218747 17
-14.070299 11.408346 0.223275 15
-13.976501 11.400839 0.227076 14
-13.878079 11.392257 0.231073 13
-13.796700 11.394221 0.234130 13
-13.708291 11.385749 0.237720 13
-13.615273 11.376182 0.241506 9
-13.543283 11.384773 0.244001 9
-13.459517 11.382273 0.247227 6
-13.402506 11.403521 0.248797 4
-13.445643 11.516287 0.244123 9
-13.307906 11.459480 0.250816 3
-13.257772 11.490117 0.251843 3
-8.348721 7.218799 0.551421 0
-8.295588 7.210266 0.553589 0
-8.165871 7.125586 0.560691 0
-8.172745 7.175401 0.559015 0
-8.376664 7.513591 0.541940 7
-7.940639 7.112891 0.569105 1
-7.902548 7.116518 0.570344 2
-7.861734 7.117076 0.571764 2
-7.827582 7.122176 0.572811 4
-7.784133 7.119444 0.574410 8
-7.773683 7.151360 0.573822 10
-7.768546 7.189108 0.572869 2
-7.570974 7.105317 0.582199 17
-7.600738 7.180984 0.578878 8
-7.498678 7.111741 0.584466 2
-7.442571 7.092393 0.586960 2
-7.389326 7.075711 0.589270 2
-7.349513 7.073687 0.590671 2
-7.320338 7.083459 0.591343 1
-7.308000 7.110227 0.590920 1
-7.307566 7.153000 0.589595 1
-7.267774 7.150436 0.590991 0
-7.163124 7.071761 0.596917 0
-7.147048 7.095975 0.596677 0
-7.091487 7.116717 0.597826 0
-7.075191 7.140735 0.597585 0
-7.091866 7.204769 0.594990 0
-7.065085 7.216462 0.595472 0
-6.939898 7.107188 0.603006 0
-6.933597 7.143178 0.602037 0
-6.898166 7.140939 0.603232 0
-6.884148 7.167511 0.602805 0
-6.840248 7.156459 0.604545 0
-6.821173 7.176597 0.604477 0
-6.784811 7.174622 0.605673 0
-6.763205 7.191424 0.605784 0
-6.646542 7.084611 0.612930 0
-6.630099 7.107284 0.612677 0
-6.596660 7.107623 0.613686 0
-6.565678 7.110997 0.614513 0
-6.551468 7.136638 0.614078 0
-6.532375 7.155836 0.614003 0
-6.457414 7.096958 0.618243 0
-6.485604 7.180360 0.614566 0
-6.372444 7.069990 0.621687 0
-6.367555 7.108049 0.620527 0
-6.322938 7.090892 0.622426 0
-6.301626 7.106082 0.622524 0
-6.264149 7.098332 0.623880 0
-6.229069 7.093671 0.625055 0
-6.230536 7.141358 0.623355 0
-6.188642 7.126612 0.625067 0
-6.092762 7.032489 0.631086 0
-6.076143 7.053489 0.630819 0
-6.038156 7.040595 0.632342 0
-6.090341 7.164396 0.626513 0
-5.986995 7.055598 0.633240 0
-5.968007 7.072953 0.633150 0
-5.941322 7.080911 0.633601 0
-5.902650 7.067950 0.635122 0
-5.892234 7.098473 0.634313 0
-5.809564 7.013830 0.639589 0
-5.784243 7.020480 0.640032 0
-5.757870 7.027689 0.640477 0
-5.729371 7.026690 0.641272 0
-5.718809 7.056794 0.640459 0
-5.680877 7.042642 0.641971 0
-5.649332 7.038535 0.642946 0
-5.626137 7.047956 0.643204 0
-5.602921 7.057288 0.643462 0
-5.576654 7.059035 0.644072 0
-5.508683 6.992505 0.648258 0
-5.479632 6.991066 0.649048 0
-5.441630 6.971621 0.650726 0
-5.406752 6.959511 0.652050 0
-5.398757 6.996378 0.650877 0
-5.369887 6.994444 0.651663 0
-5.323421 6.961047 0.654054 0
-5.275280 6.923910 0.656622 0
-5.251114 6.978426 0.655155 3
-5.235073 6.996321 0.654864 2
-5.225501 7.028805 0.653862 3
-5.221407 7.071860 0.652326 3
-5.213301 7.107903 0.651147 5
-5.191935 7.119220 0.651213 2
-5.043804 6.885581 0.663561 1
-5.014016 6.878572 0.664514 1
-4.989797 6.882087 0.664932 1
-4.961960 6.878385 0.665705 2
-4.934187 6.874561 0.666477 2
-4.906476 6.870615 0.667248 2
-4.885190 6.876773 0.667482 2
-4.862128 6.879271 0.667893 2
-4.838055 6.882182 0.668306 2
-4.812255 6.881401 0.668896 2
-4.782012 6.873798 0.669844 2
-4.754603 6.869175 0.670610 2
-4.728964 6.868048 0.671197 2
-4.701676 6.863192 0.671961 2
-4.677159 6.861371 0.672545 2
-4.648328 6.852656 0.673485 2
-4.626204 6.858365 0.673714 2
-4.602431 6.860346 0.674120 2
-4.580907 6.869990 0.674173 1
-4.563603 6.886413 0.673867 0
-4.540906 6.944326 0.672012 1
-4.545338 7.012049 0.669223 1
-4.572782 7.135037 0.663776 1
-4.381238 6.851368 0.678800 0
-4.372874 6.889372 0.677427 0
-4.394722 7.005596 0.672336 0
-4.370745 7.006638 0.672734 0
-4.310760 6.974553 0.675119 0
-4.295656 6.997618 0.674452 0
-4.268940 6.990815 0.675201 0
-4.252254 7.010040 0.674711 0
-4.248143 7.062877 0.672627 0
-4.224148 7.063337 0.673020 0
-4.209538 7.085806 0.672349 0
-4.189625 7.097373 0.672210 0
-4.191376 7.169013 0.669241 0
-4.165770 7.165473 0.669809 0
-4.159095 7.218732 0.667725 0
-4.129711 7.271325 0.666027 1
-4.131029 7.346928 0.662881 2
-4.106278 7.346894 0.663269 1
-4.098001 7.396041 0.661359 0
-4.084399 7.430028 0.660156 1
-4.033176 7.421516 0.661280 1
-4.004659 7.409674 0.662194 1
-3.969015 7.533873 0.657517 17
-3.969359 7.617328 0.654015 21
-3.961123 7.674067 0.651749 20
-3.953690 7.730480 0.649481 16
-3.953750 7.813768 0.645977 26
-3.947646 7.882118 0.643181 24
-3.937806 7.938978 0.640914 4
-4.563153 10.639296 0.518749 45
-4.524704 10.637184 0.519313 44
-4.489000 10.638344 0.519697 44
-4.454003 10.635069 0.520256 48
-4.418361 10.635969 0.520638 48
-4.381769 10.632862 0.521196 50
-4.346188 10.633496 0.521577 51
-4.308740 10.626235 0.522309 54
-4.272304 10.622716 0.522863 54
-4.235160 10.623345 0.523242 53
-4.199724 10.623443 0.523618 55
-4.164210 10.615233 0.524345 51
-4.127897 10.602997 0.525247 55
-4.090880 10.594898 0.525972 54
-4.055676 10.602642 0.525993 54
-4.017934 10.598534 0.526541 53
-3.981925 10.593925 0.527087 54
-3.946838 10.584923 0.527808 50
-3.912630 10.579710 0.528352 52
-3.879941 10.590384 0.528190 47
-3.843216 10.589511 0.528557 50
-3.808954 10.592100 0.528745 51
-3.775630 10.590324 0.529109 49
-3.738989 10.589053 0.529472 47
-3.704055 10.587339 0.529834 51
-3.670830 10.585200 0.530195 53
-3.637339 10.591111 0.530202 51
-3.601132 10.581151 0.530914 54
-3.566336 10.578937 0.531272 56
-3.532868 10.584483 0.531276 56
-3.499789 10.581753 0.531632 57
-3.463399 10.579434 0.531988 57
-3.428720 10.576722 0.532342 54
-3.396342 10.577585 0.532519 56
-3.362301 10.578585 0.532694 57
-3.327707 10.575507 0.533046 56
-3.293151 10.572306 0.533396 58
-3.257560 10.561059 0.534097 57
-3.225202 10.573451 0.533741 58
-3.191246 10.573844 0.533912 56
-3.156808 10.570151 0.534258 56
-3.121447 10.558400 0.534956 52
-3.088318 10.550292 0.535477 53
-3.056166 10.550009 0.535645 54
-3.022361 10.549803 0.535811 54
-2.988142 10.545506 0.536153 56
-2.954794 10.549034 0.536141 53
-2.920635 10.544494 0.536481 52
-2.887291 10.547787 0.536467 53
-2.853192 10.543006 0.536805 54
-2.819495 10.542084 0.536966 52
-2.787482 10.540898 0.537126 47
-2.751494 10.531919 0.537637 51
-2.718195 10.534621 0.537618 50
-2.686552 10.537081 0.537600 48
-2.653235 10.539557 0.537579 45
-2.619635 10.537930 0.537734 49
-2.586315 10.540173 0.537712 46
-2.552493 10.534322 0.538041 48
-2.519187 10.536330 0.538017 50
-2.485874 10.538222 0.537992 49
-2.452349 10.536007 0.538142 48
-2.420510 10.533594 0.538293 49
-2.387028 10.531150 0.538441 52
-2.353734 10.532580 0.538412 51
-2.320285 10.529902 0.538559 50
-2.287132 10.535092 0.538351 50
-2.253579 10.528187 0.538672 49
-2.220187 10.525157 0.538816 52
-2.186914 10.526005 0.538782 51
-2.153639 10.526737 0.538748 53
-2.120295 10.523357 0.538889 51
-2.087029 10.523857 0.538852 54
-2.053723 10.520245 0.538991 54
-2.020469 10.520513 0.538953 53
-1.988877 10.520658 0.538915 54
-1.955622 10.520700 0.538875 53
-1.920704 10.520617 0.538832 54
-1.887449 10.520421 0.538789 55
-1.854240 10.516111 0.538923 55
-1.821118 10.507691 0.539232 55
-1.789426 10.515168 0.538836 55
-1.756363 10.506522 0.539143 55
-1.723059 10.509747 0.538920 56
-1.690070 10.500871 0.539225 56
-1.656758 10.503863 0.539000 57
-1.623564 10.502745 0.538950 58
-1.590529 10.497518 0.539076 58
-1.557188 10.500161 0.538848 57
-1.523823 10.502687 0.538618 58
-1.490831 10.497113 0.538742 57
-1.457239 10.503397 0.538333 56
-1.424497 10.493603 0.538632 56
-1.391340 10.491674 0.538576 60
-1.359595 10.493723 0.538344 70
-1.326437 10.491568 0.538286 72
-1.293288 10.489296 0.538227 68
-1.260440 10.482924 0.538344 71
-1.227014 10.484406 0.538106 70
-1.193890 10.481789 0.538044 72
-1.160775 10.479054 0.537981 71
-1.127670 10.476206 0.537917 75
-1.096230 10.473392 0.537856 73
-1.061491 10.470160 0.537787 71
-1.028418 10.466965 0.537720 71
-0.994951 10.467628 0.537475 71
-0.961469 10.468175 0.537229 73
-0.930056 10.464810 0.537163 72
-0.898655 10.461341 0.537097 73
-0.864695 10.465516 0.536671 71
-0.829987 10.461436 0.536595 72
-0.796459 10.461398 0.536344 67
-0.763919 10.453313 0.536448 72
-0.730906 10.449079 0.536372 73
-0.695200 10.452431 0.535938 72
-0.661105 10.455874 0.535505 70
-0.629734 10.451513 0.535431 71
-0.596729 10.446811 0.535352 70
-0.563156 10.445946 0.535095 69
-0.529573 10.444962 0.534837 72
-0.496591 10.439909 0.534755 70
-0.464025 10.442897 0.534321 71
-0.432699 10.437882 0.534241 71
-0.397443 10.436162 0.533975 76
-0.363161 10.438529 0.533534 76
-0.329523 10.436833 0.533269 75
-0.294490 10.442889 0.532648 75
-0.262224 10.433084 0.532738 75
-0.228565 10.431028 0.532470 76
-0.193430 10.436709 0.531846 69
-0.160479 10.430484 0.531755 75
-0.127673 10.432308 0.531311 87
-0.093963 10.429773 0.531040 81
-0.058671 10.434953 0.530411 81
-0.024122 10.436087 0.529959 83
0.010457 10.437094 0.529507 78
0.045897 10.441883 0.528874 80
0.077178 10.427010 0.529133 80
0.111017 10.431911 0.528504 80
0.148206 10.435955 0.527863 80
0.182037 10.432434 0.527584 78
0.218561 10.440474 0.526768 78
0.248964 10.429305 0.526848 81
0.283735 10.429310 0.526387 77
0.317595 10.425303 0.526104 77
0.353356 10.428938 0.525462 75
0.387241 10.424682 0.525176 76
0.423082 10.428052 0.524532 73
0.457982 10.427417 0.524065 71
0.490896 10.418917 0.523955 67
0.525818 10.418031 0.523487 69
0.561796 10.420876 0.522838 69
0.594687 10.412014 0.522725 67
0.629665 10.410744 0.522253 67
0.665166 10.417500 0.521428 69
0.698045 10.408278 0.521312 65
0.733088 10.406625 0.520837 68
0.768153 10.404841 0.520361 67
0.804363 10.406762 0.519704 66
0.841759 10.412375 0.518867 68
0.875770 10.406363 0.518567 69
0.912792 10.416018 0.517554 67
0.946842 10.409749 0.517252 67
0.987294 10.418099 0.516224 69
1.022145 10.419703 0.515567 70
1.058683 10.420651 0.514902 66
1.094033 10.417658 0.514415 65
1.128998 10.418869 0.513755 62
1.166908 10.423200 0.512906 57
1.205260 10.423039 0.512230 59
1.242007 10.423284 0.511559 56
1.277497 10.419606 0.511067 52
1.314311 10.419571 0.510394 48
1.349841 10.415623 0.509899 50
1.386719 10.415307 0.509223 49
1.421992 10.415440 0.508553 47
1.457583 10.411088 0.508056 43
1.494828 10.406000 0.507550 43
1.533219 10.408868 0.506689 45
1.568626 10.408456 0.506014 42
1.605712 10.407291 0.505331 42
1.644045 10.414075 0.504293 41
1.684311 10.415709 0.503420 38
1.725900 10.425261 0.502191 35
1.761733 10.419769 0.501684 26
1.798886 10.422223 0.500821 22
1.836250 10.420163 0.500131 22
1.875151 10.421659 0.499258 21
1.914108 10.422998 0.498384 22
1.951590 10.420489 0.497690 23
1.992190 10.425204 0.496632 28
2.032870 10.429751 0.495573 36
2.072060 10.430453 0.494693 35
2.111303 10.430997 0.493812 34
2.152195 10.435045 0.492749 40
2.189908 10.435988 0.491873 41
2.230941 10.439708 0.490807 41
2.268785 10.435961 0.490102 40
2.306653 10.432065 0.489395 39
2.347862 10.435290 0.488325 39
2.385804 10.431084 0.487616 40
2.423769 10.426726 0.486906 41
2.463452 10.425838 0.486012 45
2.503183 10.424787 0.485118 35
2.546402 10.430784 0.483858 44
2.591452 10.440196 0.482415 47
2.631382 10.438625 0.481516 44
2.667951 10.434111 0.480806 46
2.708080 10.436623 0.479731 39
2.753357 10.440903 0.478455 36
2.793486 10.438669 0.477550 30
2.835465 10.439835 0.476461 22
2.870228 10.426593 0.476101 18
2.910456 10.423876 0.475192 17
2.954414 10.428081 0.473917 15
2.998461 10.432093 0.472640 13
3.037209 10.429723 0.471736 12
3.084934 10.436015 0.470263 12
3.123793 10.433306 0.469356 7
3.166500 10.437466 0.468082 4
3.209022 10.437039 0.466980 2
3.247742 10.429433 0.466242 1
2.414920 8.243871 0.570336 0
2.388313 8.143193 0.574776 0
2.378608 8.074214 0.577572 0
2.378114 8.018223 0.579625 0
2.394166 7.989464 0.580207 0
2.342153 7.852345 0.586683 0
2.357533 7.823772 0.587267 0
2.341542 7.748739 0.590439 0
2.330583 7.679867 0.593237 0
2.346384 7.650673 0.593816 0
2.315067 7.551902 0.598278 0
2.330217 7.527666 0.598688 0
2.337573 7.489319 0.599830 0
2.346929 7.454325 0.600788 0
2.356094 7.419346 0.601746 0
2.356113 7.371142 0.603444 0
2.333347 7.289999 0.606993 0
2.346254 7.261797 0.607583 0
2.339747 7.208044 0.609663 0
2.343143 7.166768 0.610995 0
2.369257 7.158249 0.610474 0
2.365376 7.107211 0.612363 0
2.391328 7.098583 0.611842 0
2.396307 7.060632 0.612990 0
2.388078 7.002532 0.615245 0
2.409028 6.987318 0.615095 0
2.417065 6.956686 0.615880 0
2.409359 6.902809 0.617960 0
2.425190 6.881110 0.618181 0
2.448114 6.868962 0.617844 0
2.450722 6.831989 0.619003 0
2.467642 6.814149 0.619046 0
2.493808 6.804225 0.618513 0
2.505311 6.775208 0.619099 0
2.518111 6.750122 0.619505 0
2.543106 6.740746 0.618979 0
2.554720 6.716368 0.619393 0
2.556285 6.679458 0.620554 0
2.614532 6.709671 0.617590 0
2.641978 6.703002 0.616874 0
2.681023 6.712536 0.615230 0
2.754040 6.761285 0.611144 0
2.708147 6.664566 0.615850 0
2.740662 6.663620 0.614756 0
2.780906 6.671719 0.613098 0
2.834117 6.694901 0.610502 0
2.820435 6.638482 0.612777 0
2.850479 6.633923 0.611866 0
2.888358 6.638319 0.610390 0
2.946239 6.667557 0.607419 0
2.979131 6.665466 0.606315 0
2.991001 6.639175 0.606713 0
3.031831 6.645823 0.605042 0
3.051532 6.628363 0.604875 0
3.084496 6.625720 0.603766 0
3.104127 6.608076 0.603598 0
