# .PCD v.7 - Point Cloud Data file format
VERSION .7
FIELDS x y z intensity
SIZE 4 4 4 1
TYPE F F F U
COUNT 1 1 1 1
WIDTH 1481
HEIGHT 1
VIEWPOINT 0 0 0 1 0 0 0
POINTS 1481
DATA ascii
-16.038691 -11.123265 0.202063 1
-16.222998 -11.105925 0.196530 6
-16.281004 -11.072319 0.195556 6
-16.371708 -11.061320 0.192879 7
-16.472361 -11.056643 0.189694 6
-16.571404 -11.053928 0.186500 8
-16.669037 -11.045851 0.183490 9
-16.776714 -11.043944 0.179972 9
-16.881241 -11.039175 0.176626 8
-16.987661 -11.031182 0.173295 8
-17.092476 -11.025178 0.169954 6
-17.199022 -11.023413 0.166435 6
-17.307468 -11.018378 0.162929 5
-17.422771 -11.017056 0.159087 7
-17.534889 -11.012888 0.155418 4
-17.650532 -11.010209 0.151581 6
-17.759594 -11.002567 0.148086 4
-17.878942 -11.000665 0.144086 4
-18.008642 -11.004395 0.139579 4
-18.128366 -11.001031 0.135585 4
-18.268694 -11.009500 0.130577 4
-18.392212 -11.006714 0.126419 4
-18.468023 -10.974243 0.124635 1
-18.742596 -11.060577 0.113034 1
-22.274340 -12.337539 -0.040861 2
-22.694836 -12.477697 -0.058952 2
-20.412260 -11.038309 0.055379 9
-23.863869 -12.533394 -0.101551 2
-23.636930 -12.216853 -0.086233 2
-23.615450 -12.110247 -0.083048 2
-24.113447 -12.171418 -0.102247 2
-24.085979 -12.065850 -0.098906 2
-24.713247 -12.285556 -0.126327 3
-22.372791 -11.031837 -0.014400 2
-22.415146 -10.871906 -0.012433 2
-24.713570 -11.883487 -0.117548 9
-23.920330 -11.223418 -0.074606 38
-23.754475 -11.058577 -0.065076 39
-24.002083 -11.084468 -0.074657 44
-24.224497 -11.087867 -0.082858 27
-24.062628 -10.921864 -0.073484 11
-24.115330 -10.852912 -0.073994 22
-24.275599 -10.826540 -0.079340 33
-24.082582 -10.649682 -0.068636 13
-24.048372 -10.547867 -0.065314 11
-24.188059 -10.516452 -0.069837 8
-24.358887 -10.492752 -0.075677 11
-24.557669 -10.484228 -0.082866 11
-24.740248 -10.472266 -0.089398 11
-24.932035 -10.458240 -0.096243 14
-25.125645 -10.438951 -0.103066 8
-25.328896 -10.426924 -0.110402 12
-25.539768 -10.416555 -0.118066 9
-25.730627 -10.401626 -0.124908 9
-25.947695 -10.395733 -0.132912 12
-26.147985 -10.377065 -0.140059 9
-26.376188 -10.362875 -0.148350 9
-26.580561 -10.342927 -0.155653 9
-26.790945 -10.328801 -0.163302 9
-27.030975 -10.314392 -0.172074 10
-12.861077 -5.007651 0.458285 19
-12.837372 -4.956072 0.460108 54
-12.793957 -4.899836 0.462754 56
-12.773550 -4.850087 0.464408 66
-12.722765 -4.789924 0.467391 69
-12.698116 -4.739348 0.469210 67
-12.683943 -4.694754 0.470521 69
-12.674009 -4.649718 0.471674 34
-12.677279 -4.526524 0.473635 1
-12.670454 -4.483064 0.474620 1
-12.664053 -4.437834 0.475613 1
-12.645444 -4.390938 0.477094 1
-12.637499 -4.349650 0.478070 1
-12.588543 -4.291762 0.480882 0
-12.534923 -4.234952 0.483850 0
-12.556574 -4.163171 0.484149 2
-12.586116 -4.133787 0.483468 1
-12.620494 -4.101649 0.482638 1
-12.627881 -4.061604 0.482966 1
-12.619209 -4.019057 0.483946 1
-12.614220 -3.977681 0.484761 1
-12.616778 -3.938495 0.485245 1
-12.607621 -3.896189 0.486225 1
-12.570777 -3.848602 0.488350 2
-12.590280 -3.774737 0.488657 74
-12.573211 -3.728961 0.489972 74
-12.582142 -3.693885 0.490117 69
-12.583660 -3.655001 0.490600 74
-12.600563 -3.619946 0.490424 75
-12.597478 -3.581962 0.491063 76
-12.614139 -3.546807 0.490887 75
-12.626792 -3.510654 0.490876 76
-12.647539 -3.474383 0.490544 75
-12.663843 -3.438971 0.490369 75
-12.679613 -3.405338 0.490187 75
-12.711302 -3.373191 0.489355 72
-12.758522 -3.344228 0.487868 75
-12.809980 -3.313908 0.486226 73
-12.860965 -3.285136 0.484577 60
-13.334939 -3.301531 0.465708 19
-13.280108 -3.249553 0.468493 26
-13.295675 -3.211688 0.468328 7
-13.621081 -3.190754 0.455718 12
-13.699356 -3.163139 0.452939 14
-13.887725 -3.154784 0.445581 16
-14.040379 -3.141007 0.439692 17
-14.177685 -3.121394 0.434469 17
-14.315000 -3.100848 0.429250 17
-14.472033 -3.082629 0.423218 16
-14.620840 -3.064266 0.417507 16
-14.778262 -3.041729 0.411493 15
-14.943238 -3.021545 0.405147 15
-15.108227 -3.000234 0.398806 13
-15.289038 -2.980128 0.391817 11
-15.489646 -2.961630 0.384017 9
-15.682369 -2.940644 0.376549 7
-15.823631 -2.911293 0.371205 1
-16.178783 -2.909488 0.357069 2
-16.403292 -2.888261 0.348316 11
-16.528690 -2.852982 0.343638 14
-16.538664 -2.805282 0.343672 2
-25.557934 -3.825200 -0.025487 2
-25.476278 -3.732403 -0.021413 2
-25.393806 -3.644292 -0.017357 2
-25.411228 -3.559397 -0.017333 2
-25.396114 -3.475160 -0.016025 2
-25.428413 -3.395900 -0.016667 2
-25.432598 -3.313718 -0.016172 2
-25.408644 -3.228907 -0.014542 2
-25.360128 -3.146200 -0.011956 2
-25.363440 -3.064299 -0.011462 2
-25.386377 -2.984073 -0.011780 2
-25.369202 -2.900506 -0.010476 2
-25.359697 -2.817697 -0.009497 2
-25.373816 -2.736733 -0.009491 2
-25.339809 -2.652347 -0.007541 2
-25.309486 -2.568484 -0.005755 2
-25.318752 -2.487362 -0.005587 2
-25.267889 -2.402639 -0.002994 2
-25.220711 -2.318512 -0.000565 2
-25.372791 -2.245192 -0.006215 2
-25.472746 -2.168288 -0.009762 2
-25.209118 -2.074197 0.001387 2
-25.472231 -2.004060 -0.008778 2
-25.455566 -1.921356 -0.007640 2
-25.466572 -1.839757 -0.007632 2
-25.461313 -1.757589 -0.006980 2
-25.463758 -1.675692 -0.006650 2
-25.286118 -1.589390 0.000931 2
-25.144125 -1.505090 0.007057 2
-25.089745 -1.423324 0.009636 2
-25.330750 -1.350149 0.000287 2
-25.139894 -1.270703 0.008321 2
-25.116661 -1.189755 0.009611 2
17.180904 0.142460 0.263570 1
17.148916 0.073448 0.264566 1
17.140453 0.009297 0.264732 1
17.171867 -0.056118 0.263476 1
21.394924 -0.089291 0.113854 2
21.432791 -0.251593 0.112066 2
21.359516 -0.339696 0.114403 2
21.361738 -0.421241 0.114075 2
21.391560 -0.498091 0.112773 2
21.446508 -0.656519 0.110294 2
21.539608 -0.741370 0.106694 2
21.592390 -0.823107 0.104523 2
21.628899 -0.905287 0.102918 2
21.829018 -0.987497 0.095503 2
22.191811 -1.236124 0.081612 3
22.312227 -1.912286 0.074088 3
22.049402 -2.323266 0.081091 3
15.583734 -2.031376 0.311659 1
15.296795 -2.075463 0.321544 1
14.922005 -2.111896 0.334577 1
14.423541 -2.137314 0.352046 1
13.857329 -2.154417 0.371957 1
13.343227 -2.168793 0.390038 1
12.936609 -2.190794 0.404262 1
12.689080 -2.274632 0.412431 27
12.672659 -2.324836 0.412657 35
12.668007 -2.376046 0.412453 53
12.659198 -2.426857 0.412394 46
12.654190 -2.478019 0.412191 26
12.652981 -2.529574 0.411845 30
12.655564 -2.581560 0.411356 31
12.646044 -2.632272 0.411297 31
12.648263 -2.684289 0.410808 33
12.642656 -2.732856 0.410616 30
12.640858 -2.781881 0.410280 30
12.642228 -2.836516 0.409781 30
12.647686 -2.889134 0.409148 28
12.641065 -2.940253 0.408946 28
12.646151 -2.992950 0.408313 28
12.651046 -3.045705 0.407680 30
12.655752 -3.098519 0.407047 30
12.660267 -3.151391 0.406413 31
12.672500 -3.205497 0.405492 35
12.672677 -3.257906 0.405002 37
12.680967 -3.309014 0.404234 35
12.696565 -3.364024 0.403168 42
12.700122 -3.417241 0.402533 41
12.707429 -3.471169 0.401755 41
12.710598 -3.524506 0.401120 33
12.710081 -3.574642 0.400640 38
12.736491 -3.632255 0.399138 41
12.754810 -3.688659 0.397925 30
12.725742 -3.736522 0.398446 8
24.674124 -6.230109 -0.044016 3
24.832186 -6.358288 -0.050895 3
24.825129 -6.454299 -0.051696 3
24.779541 -6.537579 -0.051029 3
24.701420 -6.618720 -0.049220 3
25.320587 -7.248244 -0.077897 3
25.357079 -7.357105 -0.080447 4
25.569374 -7.502690 -0.089519 4
25.547712 -7.594079 -0.089874 4
25.441837 -7.675218 -0.087213 4
25.736702 -7.849335 -0.099513 4
25.954340 -8.001327 -0.108893 4
26.052538 -8.135187 -0.113948 4
26.292028 -8.295876 -0.124212 4
27.291431 -8.662004 -0.163198 4
27.210463 -8.749889 -0.161554 4
29.902737 -9.575646 -0.264557 5
29.628151 -9.626397 -0.255822 5
29.326653 -9.667806 -0.246058 5
29.020611 -9.694137 -0.235953 5
28.670919 -9.711905 -0.224254 5
28.359905 -9.738374 -0.214007 5
28.062126 -9.760880 -0.204169 4
27.772976 -9.795289 -0.194803 4
27.471733 -9.812833 -0.184804 4
27.188299 -9.839348 -0.175549 4
26.912687 -9.866332 -0.166578 4
26.537968 -9.860745 -0.153796 4
26.278070 -9.888537 -0.145395 4
26.003090 -9.909786 -0.136402 4
25.739727 -9.932892 -0.127842 8
25.495552 -9.960449 -0.120007 8
25.243933 -9.983912 -0.111872 8
24.986469 -9.998493 -0.103420 8
24.754162 -10.025058 -0.096006 8
24.574974 -10.068147 -0.090641 4
24.384478 -10.106192 -0.084831 3
24.254438 -10.164053 -0.081366 3
24.120548 -10.219790 -0.077750 3
23.967028 -10.364889 -0.074902 3
23.979311 -10.471875 -0.077013 7
23.863611 -10.532148 -0.074123 3
24.144964 -10.739372 -0.086829 11
24.607092 -11.123158 -0.108434 48
24.485815 -11.183038 -0.105400 12
24.312265 -11.221963 -0.100301 20
24.317421 -11.329787 -0.102272 8
21.867008 -10.461262 -0.006763 3
21.813286 -10.627988 -0.007823 6
21.253952 -10.496838 0.012820 6
21.320520 -10.619032 0.008525 6
21.316387 -10.712653 0.007035 6
23.784969 -11.844568 -0.093589 31
22.129070 -11.447972 -0.032499 7
22.110828 -11.540129 -0.033557 7
23.595715 -12.294546 -0.095436 3
19.931009 -10.767265 0.051235 2
19.915075 -10.851942 0.050206 9
21.435446 -11.632471 -0.013332 3
19.547764 -10.868445 0.061779 5
18.782684 -10.694741 0.089680 2
18.589586 -10.692446 0.095933 2
18.472610 -10.724877 0.099075 2
18.261906 -10.711766 0.106078 2
18.096436 -10.714643 0.111318 5
17.933073 -10.721760 0.116401 5
17.777082 -10.731378 0.121190 5
17.617687 -10.738251 0.126132 4
17.458488 -10.744131 0.131078 7
17.320904 -10.759814 0.135135 7
17.165632 -10.765598 0.139940 7
17.007002 -10.768593 0.144897 6
16.873438 -10.783456 0.148816 6
16.732916 -10.793808 0.153036 4
16.594379 -10.808405 0.157098 4
16.471825 -10.826395 0.160580 4
16.340513 -10.834788 0.164524 2
18.821289 -12.256034 0.057706 2
18.655531 -12.259866 0.062803 2
15.944049 -10.861663 0.176350 2
15.930564 -10.935847 0.175221 2
15.846943 -11.052950 0.175353 2
30.744226 -19.578430 -0.466109 7
23.344894 -15.495977 -0.150734 4
30.229139 -19.577492 -0.450201 7
15.386203 -11.197314 0.186462 4
15.329906 -11.245754 0.187135 2
30.867002 -20.560877 -0.491057 7
30.462870 -20.628656 -0.480229 7
29.629417 -20.276247 -0.447108 7
16.547438 -12.400768 0.124625 2
29.283400 -20.366245 -0.438633 6
13.927922 -11.102247 0.232838 10
13.872402 -11.144888 0.233533 8
15.327765 -12.244226 0.164840 2
22.786276 -17.198662 -0.171655 4
22.315296 -17.244631 -0.158750 4
22.089811 -17.222105 -0.151562 4
21.963606 -17.259007 -0.148712 4
21.926117 -17.349651 -0.149754 4
21.875542 -17.437601 -0.150360 4
14.852380 -12.695104 0.168305 2
12.333544 -11.024322 0.281868 1
12.220052 -11.019114 0.285298 1
12.108518 -11.010776 0.288741 3
11.996963 -11.009015 0.292017 3
11.897091 -11.011147 0.294853 4
11.808833 -11.017329 0.297247 4
11.696335 -11.008943 0.300690 4
11.603393 -11.014093 0.303231 6
11.504155 -11.013962 0.306075 13
11.416446 -11.018085 0.308478 9
11.312579 -11.016788 0.311469 10
11.220212 -11.019794 0.314018 10
11.132913 -11.022408 0.316427 10
11.035907 -11.024239 0.319123 12
10.943973 -11.025680 0.321678 12
10.860245 -11.029268 0.323941 13
10.768596 -11.029710 0.326500 13
10.677101 -11.029634 0.329061 13
10.592020 -11.034018 0.331321 13
10.508812 -11.035747 0.333591 15
10.414649 -11.031675 0.336309 13
10.339283 -11.042191 0.338122 13
10.254714 -11.044708 0.340389 13
10.164109 -11.041676 0.342962 12
10.092132 -11.053447 0.344627 11
10.004885 -11.052023 0.347052 11
9.923912 -11.055261 0.349175 5
9.849163 -11.063225 0.350997 8
9.768423 -11.065598 0.353124 8
9.735038 -11.104569 0.352985 9
9.660465 -11.111467 0.354811 5
9.537776 -11.075948 0.359066 2
9.466547 -11.084520 0.360744 1
9.389410 -11.087424 0.362728 1
9.303436 -11.081940 0.365168 1
9.244427 -11.099991 0.366243 1
9.001477 -10.951690 0.376737 1
10.060360 -12.530891 0.305209 9
7.876710 -11.263683 0.396735 18
7.843650 -11.300985 0.396463 21
5.875100 -11.326052 0.441506 18
5.824576 -11.334373 0.442337 16
5.798136 -11.374394 0.441631 7
1.522863 -7.016563 0.671181 0
1.421402 -6.890691 0.677323 0
1.310862 -6.746882 0.684241 0
1.298801 -6.772274 0.683587 0
1.245101 -6.724692 0.686179 0
1.199631 -6.690731 0.688154 0
1.160293 -6.666986 0.689666 0
1.135725 -6.666952 0.690098 0
1.104422 -6.656857 0.690992 0
1.077060 -6.653628 0.691578 0
1.055469 -6.660820 0.691700 0
1.024408 -6.650325 0.692596 0
0.989700 -6.632627 0.693802 0
0.973820 -6.650097 0.693461 0
0.935602 -6.625036 0.694977 0
0.914173 -6.631702 0.695101 0
0.872608 -6.599197 0.696929 0
0.854929 -6.612751 0.696744 0
0.828167 -6.608418 0.697334 0
0.812224 -6.625401 0.696995 0
0.790857 -6.631605 0.697121 0
0.749246 -6.594228 0.699107 0
0.728013 -6.600200 0.699234 0
0.703285 -6.598898 0.699671 0
0.678601 -6.597492 0.700108 0
0.655677 -6.599590 0.700391 1
0.629360 -6.594367 0.700984 1
0.608190 -6.599890 0.701113 1
0.587014 -6.605334 0.701242 1
0.559162 -6.596167 0.701991 1
0.538025 -6.601428 0.702121 1
0.515240 -6.602965 0.702406 1
0.492475 -6.604412 0.702691 1
0.473939 -6.612647 0.702668 2
0.447983 -6.606605 0.703264 2
0.425281 -6.607783 0.703550 3
0.402601 -6.608871 0.703837 2
0.378377 -6.606192 0.704279 2
0.355754 -6.607094 0.704566 3
0.331614 -6.604218 0.705009 4
0.309050 -6.604936 0.705298 4
0.289537 -6.612962 0.705276 4
0.262491 -6.602399 0.706030 4
0.238522 -6.599134 0.706475 4
0.214604 -6.595770 0.706919 4
0.193173 -6.595645 0.707210 6
0.171767 -6.595438 0.707502 6
0.148440 -6.595902 0.707791 7
0.128961 -6.603368 0.707771 9
0.103372 -6.591701 0.708530 7
0.086705 -6.606498 0.708200 8
0.062057 -6.602860 0.708646 8
0.041182 -6.606270 0.708783 8
0.018950 -6.605844 0.709075 8
-0.005946 -6.597803 0.709679 9
-0.026764 -6.600961 0.709817 9
-0.047579 -6.604043 0.709955 9
-0.067086 -6.610824 0.709938 11
-0.092107 -6.598294 0.710699 10
-0.114154 -6.597347 0.710994 11
-0.136171 -6.596315 0.711289 11
-0.155651 -6.602787 0.711273 13
-0.175418 -6.605074 0.711414 13
-0.198358 -6.604116 0.711709 14
-0.222721 -6.595139 0.712316 14
-0.244825 -6.589566 0.712769 14
-0.266441 -6.592145 0.712909 15
-0.284731 -6.601984 0.712740 17
-0.306738 -6.596168 0.713194 17
-0.330808 -6.586730 0.713802 18
-0.351387 -6.588691 0.713945 19
-0.370838 -6.594412 0.713932 18
-0.393633 -6.588544 0.714386 21
-0.414178 -6.590273 0.714530 22
-0.435797 -6.588079 0.714829 23
-0.456313 -6.589654 0.714973 26
-0.475849 -6.590888 0.715118 26
-0.496348 -6.592316 0.715263 28
-0.516839 -6.593668 0.715408 28
-0.540364 -6.583347 0.716020 31
-0.559796 -6.588409 0.716010 31
-0.579245 -6.593402 0.716000 30
-0.599685 -6.594452 0.716146 32
-0.619155 -6.599306 0.716137 34
-0.641482 -6.592443 0.716595 34
-0.659971 -6.596918 0.716586 34
-0.679450 -6.601562 0.716578 38
-0.700757 -6.598352 0.716881 37
-0.722026 -6.595062 0.717185 40
-0.742377 -6.595590 0.717333 44
-0.761850 -6.599946 0.717326 49
-0.783043 -6.596425 0.717630 47
-0.802519 -6.600639 0.717623 49
-0.823659 -6.596963 0.717928 51
-0.843947 -6.597122 0.718078 52
-0.864223 -6.597208 0.718228 55
-0.883511 -6.597024 0.718378 57
-0.904733 -6.597157 0.718528 54
-0.922479 -6.604683 0.718368 59
-0.943470 -6.600557 0.718675 62
-0.966121 -6.592602 0.719137 68
-0.985582 -6.596178 0.719133 65
-1.002677 -6.607381 0.718818 109
-1.023567 -6.602954 0.719126 106
-1.044713 -6.602556 0.719278 106
-1.064556 -6.597810 0.719587 108
-1.084035 -6.601041 0.719584 108
-1.103525 -6.604205 0.719581 111
-1.123645 -6.603352 0.719735 108
-1.144961 -6.594525 0.720200 112
-1.163836 -6.601429 0.720043 114
-1.183510 -6.596262 0.720353 115
-1.203548 -6.595122 0.720508 118
-1.223016 -6.597868 0.720507 119
-1.243032 -6.596586 0.720662 120
-1.263029 -6.595232 0.720818 120
-1.282498 -6.597771 0.720818 120
-1.302471 -6.596276 0.720974 120
-1.321943 -6.598678 0.720974 122
-1.342829 -6.589102 0.721442 120
-1.361821 -6.595334 0.721288 122
-1.381289 -6.597528 0.721289 122
-1.400338 -6.603628 0.721135 122
-1.420248 -6.601712 0.721293 123
-1.439963 -6.591674 0.721762 124
-1.459804 -6.589617 0.721920 137
-1.478880 -6.595448 0.721767 123
-1.499064 -6.589272 0.722082 140
-1.518510 -6.590987 0.722085 138
-1.537963 -6.592634 0.722089 140
-1.557420 -6.594213 0.722093 141
-1.577186 -6.591739 0.722252 141
-1.596641 -6.593182 0.722257 141
-1.616100 -6.594556 0.722262 141
-1.636085 -6.587885 0.722578 142
-1.655279 -6.593112 0.722427 141
-1.674232 -6.586244 0.722744 142
-1.693228 -6.595330 0.722438 142
-1.713105 -6.588384 0.722756 142
-1.732739 -6.585359 0.722918 142
-1.752170 -6.586258 0.722925 142
-1.771441 -6.591084 0.722776 142
-1.790892 -6.591848 0.722783 141
-1.810345 -6.592545 0.722790 141
-1.829923 -6.589178 0.722953 141
-1.849367 -6.589738 0.722961 140
-1.867840 -6.590207 0.722969 138
-1.887207 -6.594631 0.722822 137
-1.906803 -6.586998 0.723142 136
-1.926345 -6.579297 0.723462 133
-1.945754 -6.579521 0.723472 133
-1.965189 -6.575680 0.723637 61
-1.984540 -6.591755 0.723024 117
-2.003020 -6.591776 0.723034 111
-2.022407 -6.575745 0.723667 52
-2.041833 -6.579630 0.723522 44
-2.062258 -6.583436 0.723377 35
-2.080651 -6.579203 0.723544 28
-2.099231 -6.586898 0.723243 25
-2.119637 -6.586497 0.723256 20
-2.138970 -6.582050 0.723423 16
-2.158615 -6.589523 0.723124 15
-2.177803 -6.580945 0.723448 13
-2.196527 -6.588315 0.723149 13
-2.215811 -6.583601 0.723318 12
-2.235233 -6.582814 0.723331 12
-2.254652 -6.581960 0.723345 13
-2.275434 -6.588974 0.723048 13
-2.295297 -6.595962 0.722751 13
-2.313789 -6.594952 0.722765 13
-2.332039 -6.589891 0.722934 13
-2.352960 -6.596615 0.722639 13
-2.373226 -6.607314 0.722188 13
-2.392730 -6.605978 0.722204 14
-2.412229 -6.604573 0.722219 15
-2.431056 -6.607161 0.722079 16
-2.450559 -6.605622 0.722096 15
-2.471062 -6.615965 0.721646 16
-2.491922 -6.618183 0.721509 17
-2.512191 -6.624393 0.721215 17
-2.530776 -6.622664 0.721232 17
-2.551702 -6.624659 0.721095 16
-2.572482 -6.634628 0.720647 15
-2.592499 -6.636571 0.720510 15
-2.611671 -6.630496 0.720684 15
-2.631168 -6.636381 0.720392 14
-2.651232 -6.638114 0.720256 13
-2.671282 -6.647831 0.719808 13
-2.691413 -6.649421 0.719673 8
-2.712546 -6.650815 0.719539 10
-2.733231 -6.656221 0.719249 10
-2.752449 -6.657721 0.719113 9
-2.774297 -6.670900 0.718513 7
-2.794577 -6.672122 0.718379 6
-2.812749 -6.665500 0.718555 6
-2.834382 -6.682545 0.717800 6
-2.854742 -6.683551 0.717667 6
-2.875730 -6.688434 0.717379 5
-2.896138 -6.689291 0.717247 4
-2.916563 -6.690074 0.717115 3
-2.937655 -6.694727 0.716828 4
-2.958792 -6.699303 0.716541 2
-2.979972 -6.703800 0.716255 2
-3.001888 -6.712154 0.715814 1
-3.024161 -6.716312 0.715530 1
-3.046205 -6.724497 0.715090 0
-3.070257 -6.748500 0.714029 0
-3.096980 -6.780067 0.712660 0
-3.121651 -6.799746 0.711756 0
-3.146474 -6.819323 0.710853 0
-3.179101 -6.882104 0.708245 0
-3.217200 -6.964100 0.704865 0
-4.110539 -11.146641 0.539171 0
-4.244535 -11.416491 0.527968 20
-4.275675 -11.385169 0.528947 13
-4.319611 -11.420480 0.527293 9
-4.335582 -11.322664 0.530905 4
-6.288484 -11.448313 0.506574 15
-6.319983 -11.426652 0.506957 17
-6.364015 -11.429941 0.506269 11
-11.906608 -19.546280 0.137084 2
-12.164120 -19.565973 0.132254 2
-12.498754 -19.709436 0.121802 2
-12.657832 -19.830807 0.114977 2
-12.588629 -19.557478 0.125531 2
-11.201984 -16.878239 0.240818 3
-12.304718 -18.636671 0.161884 2
-12.795070 -19.182789 0.134821 6
-11.782022 -17.348270 0.214805 5
-8.291403 -11.439008 0.476390 3
-8.329818 -11.420398 0.476345 21
-8.351460 -11.374391 0.477518 22
-8.389673 -11.355557 0.477474 5
-12.479838 -17.840000 0.185835 3
-11.917836 -16.814871 0.230418 1
-12.653281 -17.725971 0.186523 3
-12.758079 -17.639650 0.187483 9
-12.827668 -17.613501 0.187066 5
-12.968982 -17.702520 0.181477 6
-12.424772 -16.518780 0.230895 7
-13.086514 -17.378998 0.189957 7
-13.150323 -17.350103 0.189688 15
-12.044799 -15.626758 0.267502 4
-13.491771 -17.600386 0.174902 8
-12.128487 -15.525013 0.269210 3
-13.703251 -17.662376 0.168761 16
-12.045135 -15.094604 0.284854 22
-12.147880 -15.134099 0.281539 11
-12.264960 -15.197499 0.277158 29
-11.774356 -14.318497 0.315329 9
-13.958974 -17.172312 0.179517 4
-14.165843 -17.332331 0.170189 10
-12.191634 -14.591104 0.298120 43
-12.632016 -15.075060 0.273653 17
-12.797304 -15.190473 0.266576 19
-12.883257 -15.195192 0.264648 27
-12.881330 -15.090716 0.267998 3
-12.981971 -15.118871 0.265006 42
-12.219398 -14.045809 0.314842 3
-12.730826 -14.604670 0.286482 11
-10.313403 -11.394591 0.438400 3
-10.347063 -11.362399 0.438686 18
-10.373035 -11.320794 0.439425 19
-13.249505 -14.663785 0.273534 3
-15.186726 -16.900042 0.162268 4
-15.356513 -16.877914 0.159235 6
-15.584438 -16.809906 0.156277 10
-15.652570 -16.777498 0.155744 10
-16.091185 -17.169477 0.134019 4
-17.115801 -18.222164 0.079097 10
-16.460554 -17.361074 0.119902 11
-14.137380 -14.639682 0.254552 1
-14.339686 -14.678358 0.248779 3
-14.774724 -14.958054 0.230434 26
-14.763962 -14.853923 0.233778 1
-11.959933 -11.664748 0.393366 26
-12.005260 -11.638646 0.393076 27
-12.056029 -11.618155 0.392487 16
-15.506078 -15.155045 0.207550 5
-14.352520 -13.857740 0.272740 9
-16.242399 -15.616499 0.176628 2
-15.242710 -14.497506 0.232946 17
-13.799621 -12.945269 0.312409 7
-13.381305 -12.442467 0.336963 1
-12.332891 -11.246457 0.396636 27
-12.321147 -11.167299 0.399182 7
-12.378302 -11.148947 0.398308 5
-12.439436 -11.137696 0.397129 3
-12.503497 -11.128914 0.395802 2
-12.582072 -11.133616 0.393730 4
-12.656143 -11.137001 0.391801 5
-12.720485 -11.127164 0.390478 8
-12.790723 -11.122465 0.388858 11
-12.861059 -11.117398 0.387240 9
-12.942065 -11.118188 0.385186 9
-13.004963 -11.108860 0.383860 11
-13.079741 -11.109991 0.381940 12
-13.158170 -11.106843 0.380040 15
-13.231988 -11.102546 0.378281 16
-13.307137 -11.102489 0.376366 16
-13.391912 -11.103370 0.374173 19
-13.472084 -11.103127 0.372122 16
-13.558415 -11.107704 0.369776 17
-13.623773 -11.093476 0.368471 17
-13.707351 -11.094559 0.366277 16
-13.791077 -11.095180 0.364085 13
-13.870611 -11.088094 0.362200 13
-13.952852 -11.089883 0.360003 12
-14.033927 -11.086570 0.357964 11
-14.115124 -11.082814 0.355928 11
-14.202608 -11.083700 0.353597 11
-14.287153 -11.081565 0.351416 8
-14.368731 -11.076440 0.349386 6
-14.462862 -11.080911 0.346765 6
-14.560293 -11.087347 0.343998 6
-14.636027 -11.075801 0.342269 4
-14.733788 -11.081196 0.339507 3
-14.828594 -11.083563 0.336894 3
-14.921814 -11.087646 0.334274 3
-15.001150 -11.076720 0.332405 1
-17.428642 -12.864311 0.221243 5
-17.546202 -12.868537 0.217937 3
-17.546038 -12.782845 0.220096 1
-16.379620 -11.209897 0.291132 19
-16.416609 -11.164458 0.291194 6
-20.122953 -12.575623 0.152477 2
-18.326077 -11.190990 0.235968 1
-18.432426 -11.102627 0.234843 11
-18.856770 -11.282170 0.218430 1
-18.960932 -11.264603 0.215763 3
-19.206459 -10.927109 0.215851 1
-19.306896 -10.904655 0.213341 1
-19.490860 -10.928910 0.207337 2
-19.640352 -10.932418 0.202795 2
-19.737705 -10.905811 0.200440 4
-19.861351 -10.897234 0.196909 6
-19.990360 -10.886727 0.193250 6
-20.124746 -10.874187 0.189462 6
-20.261080 -10.865877 0.185518 6
-20.394051 -10.854850 0.181723 6
-20.527166 -10.843015 0.177932 8
-20.663960 -10.832229 0.173998 6
-20.804447 -10.822454 0.169923 6
-20.948645 -10.813654 0.165706 6
-21.107239 -10.811257 0.160913 4
-21.248224 -10.798820 0.156849 4
-21.403637 -10.792709 0.152208 4
-21.577122 -10.794560 0.146847 4
-21.707863 -10.774040 0.143229 2
-21.894415 -10.784369 0.137282 2
-22.430206 -10.870947 0.119067 5
-22.442839 -10.789233 0.120240 5
-23.797266 -11.338519 0.067790 3
-24.095367 -11.296116 0.059322 21
-24.338051 -11.314293 0.051419 46
-24.326590 -11.214673 0.053627 28
-23.994207 -10.970264 0.068534 18
-24.010578 -10.885257 0.069582 12
-24.063160 -10.816479 0.069187 18
-24.455824 -10.897132 0.055389 34
-24.464523 -10.807511 0.056730 24
-24.450851 -10.708448 0.058935 24
-24.539682 -10.653589 0.057108 21
-24.628403 -10.598228 0.055283 59
-24.857101 -10.601086 0.047992 15
-25.071327 -10.596334 0.041283 15
-25.193363 -10.552214 0.038174 3
-27.936823 -11.574063 -0.066678 3
-30.175983 -12.370731 -0.151626 4
-30.159752 -12.250101 -0.149056 4
-26.428547 -10.663398 -0.003087 10
-28.790157 -11.385450 -0.090742 8
-26.731911 -10.489965 -0.009910 3
-29.525455 -11.455095 -0.115485 4
-28.887352 -10.993718 -0.087443 12
-28.998802 -10.922637 -0.089891 24
-12.900528 -4.977140 0.524845 14
-12.876657 -4.925558 0.526436 55
-12.841260 -4.870177 0.528455 37
-12.801174 -4.815652 0.530607 11
-12.778920 -4.721389 0.532788 0
-12.690190 -4.609760 0.537378 1
-12.691899 -4.566780 0.537970 1
-12.692212 -4.527568 0.538547 2
-12.768432 -4.513061 0.536272 6
-12.727871 -4.456498 0.538432 2
-12.683229 -4.399073 0.540733 1
-12.767461 -4.384414 0.538183 4
-12.656915 -4.309085 0.542895 0
-12.584213 -4.246224 0.546181 0
-12.572449 -4.202347 0.547188 0
-12.556675 -4.157452 0.548337 0
-12.623333 -4.100731 0.546925 6
-12.711426 -4.083761 0.544247 3
-12.714367 -4.044182 0.544687 3
-12.705608 -4.001402 0.545552 3
-12.693340 -3.955796 0.546566 2
-12.649509 -3.903824 0.548706 1
-12.670605 -3.871590 0.548428 3
-12.622516 -3.819048 0.550707 2
-12.590148 -3.769048 0.552427 1
-12.635756 -3.703748 0.551736 42
-12.654699 -3.627574 0.552051 6
-12.669324 -3.514994 0.552930 5
-12.700917 -3.484985 0.552229 40
-12.689969 -3.443199 0.553089 60
-12.702686 -3.404872 0.553110 72
-12.726570 -3.370923 0.552700 75
-12.765574 -3.342083 0.551720 72
-12.797482 -3.307582 0.551037 59
-12.860592 -3.279392 0.549229 57
-12.903666 -3.248673 0.548119 58
-12.918840 -3.214079 0.547986 13
-13.291040 -3.206975 0.535506 18
-13.568964 -3.179210 0.526410 2
-13.639352 -3.150331 0.524329 15
-13.764764 -3.130869 0.520285 11
-13.921678 -3.116096 0.515122 14
-14.062872 -3.097538 0.510524 14
-14.219849 -3.080679 0.505369 15
-14.373264 -3.059939 0.500367 15
-14.526339 -3.040288 0.495361 14
-14.683022 -3.022429 0.490210 12
-14.848319 -3.000289 0.484802 12
-15.017233 -2.979831 0.479249 14
-15.190114 -2.958798 0.473560 13
-15.370583 -2.940050 0.467588 12
-15.547112 -2.919572 0.461760 11
-15.728268 -2.893694 0.455816 10
-16.185373 -2.852783 0.440585 3
-16.354313 -2.823691 0.435066 3
-16.582743 -2.800710 0.427460 11
-29.362280 -4.172359 -0.020165 3
-29.360676 -4.080274 -0.019378 3
-29.347878 -3.977395 -0.018134 3
-29.362522 -3.877558 -0.017865 3
-29.344019 -3.783993 -0.016522 3
-29.361471 -3.689307 -0.016412 3
-29.366655 -3.593410 -0.015885 3
-29.418846 -3.506618 -0.017045 3
-29.355688 -3.404647 -0.014156 3
-29.264265 -3.300814 -0.010297 3
-29.507565 -3.219674 -0.018080 3
-29.275930 -3.105359 -0.009366 3
-29.135191 -3.004113 -0.003868 3
-29.157917 -2.910495 -0.004039 3
-29.156385 -2.815159 -0.003378 3
-29.146837 -2.714621 -0.002421 3
-29.192507 -2.622204 -0.003422 3
-29.138075 -2.523959 -0.000962 3
-29.091274 -2.426528 0.001219 3
-29.072073 -2.330796 0.002431 3
-29.040556 -2.234677 0.004057 3
-29.056625 -2.140779 0.004023 3
-28.784750 -2.035875 0.013934 3
-29.039846 -1.951042 0.005614 3
-28.799206 -1.849111 0.014412 3
-28.793829 -1.760019 0.015047 3
-28.784271 -1.666200 0.015837 3
-29.034178 -1.577817 0.007667 3
-29.043966 -1.483586 0.007772 3
-29.017387 -1.393518 0.009096 3
-28.918653 -1.293479 0.012936 3
-28.771547 -1.198530 0.018406 3
-28.811996 -1.105208 0.017405 3
17.498627 1.362667 0.367663 2
16.838284 1.088664 0.386924 8
16.837927 1.018743 0.386876 6
16.840601 0.955845 0.386738 6
16.810148 0.819983 0.387489 2
16.877968 0.696974 0.385330 16
16.868479 0.623088 0.385504 16
16.839619 0.488131 0.386141 2
16.940439 0.429682 0.383061 2
16.722504 0.284879 0.389227 2
17.807875 0.294536 0.357163 2
16.758869 0.159165 0.387888 2
17.014507 0.105283 0.380207 2
16.862621 0.030234 0.384524 2
17.117712 -0.022491 0.376848 2
30.984762 -1.240602 -0.038152 6
31.175814 -1.815271 -0.046377 7
31.372658 -1.936561 -0.052785 7
31.261305 -2.282194 -0.051205 7
15.525440 -1.988539 0.416102 1
14.727939 -2.064585 0.439254 1
14.237458 -2.090871 0.453601 1
13.823172 -2.113486 0.465713 1
12.742527 -2.144861 0.497455 1
12.694664 -2.192816 0.498567 25
12.650844 -2.238227 0.499571 83
12.621828 -2.341235 0.499755 188
12.637264 -2.391581 0.498963 109
12.592340 -2.441345 0.499950 40
12.595239 -2.493076 0.499508 32
12.598221 -2.542297 0.499076 32
12.592812 -2.593246 0.498875 32
12.591482 -2.642071 0.498563 32
12.601321 -2.697366 0.497871 35
12.599341 -2.748794 0.497549 32
12.601460 -2.798165 0.497117 33
12.595159 -2.849123 0.496916 35
12.608505 -2.902614 0.496112 35
12.609766 -2.954646 0.495670 36
12.610841 -3.006710 0.495227 35
12.623610 -3.060462 0.494423 32
12.616392 -3.111496 0.494222 36
12.620864 -3.164245 0.493659 35
12.625145 -3.217050 0.493096 36
12.629628 -3.267358 0.492542 37
12.633537 -3.320275 0.491979 35
12.641202 -3.373880 0.491294 38
12.640780 -3.426270 0.490851 37
12.660316 -3.479438 0.489813 37
12.675719 -3.532088 0.488895 38
12.676577 -3.643116 0.487867 220
12.706657 -3.701503 0.486454 104
24.624197 -6.158286 0.116259 4
24.371609 -6.200309 0.123204 4
24.263184 -6.274292 0.125640 4
24.230705 -6.453749 0.124820 4
35.475864 -8.933407 -0.226148 10
35.227978 -9.003318 -0.219666 9
35.000645 -9.089770 -0.213959 9
35.671913 -9.387836 -0.236452 10
35.560993 -9.625002 -0.235717 20
35.583702 -9.775312 -0.237962 10
33.885273 -9.505215 -0.186068 9
33.839870 -9.626693 -0.186067 9
36.977539 -10.531421 -0.286294 11
35.449326 -10.283257 -0.239581 10
35.194080 -10.364923 -0.233143 10
35.351051 -10.543099 -0.239642 10
31.901257 -9.783367 -0.132037 8
35.233353 -10.790434 -0.239061 10
33.755669 -10.529525 -0.193720 9
33.438778 -10.584464 -0.185280 9
33.304893 -10.680676 -0.182570 9
29.781986 -9.830074 -0.071886 6
29.885744 -9.978813 -0.076610 6
32.638245 -10.882761 -0.165927 8
32.691944 -11.029103 -0.169219 8
32.679802 -11.156871 -0.170424 8
28.020878 -9.908938 -0.022641 5
27.753775 -9.937280 -0.015400 5
27.469952 -9.964450 -0.007681 5
27.125158 -9.970955 0.002015 5
26.883757 -10.007236 0.008396 5
26.505177 -9.998699 0.019218 5
26.088923 -9.975486 0.031281 4
25.969965 -10.045242 0.033740 4
25.638029 -10.044780 0.043108 4
25.613939 -10.143709 0.042491 4
25.343023 -10.160191 0.049898 4
26.011610 -10.492521 0.026686 4
25.717638 -10.598436 0.033513 4
25.650053 -10.683260 0.034255 9
25.616140 -10.779719 0.033886 9
25.585657 -10.877404 0.033393 9
25.340496 -10.897561 0.039957 4
23.886280 -10.474472 0.086402 4
25.216583 -11.073558 0.040945 9
25.291712 -11.204293 0.037006 14
25.237278 -11.292443 0.037262 14
25.010712 -11.314838 0.043226 14
25.024918 -11.423025 0.041271 9
24.749954 -11.424541 0.048856 4
24.862303 -11.576345 0.043534 9
24.855005 -11.681851 0.042183 14
21.797060 -10.564099 0.142991 7
21.756178 -10.644107 0.142924 3
24.262688 -11.761071 0.057302 4
24.322895 -11.898487 0.053577 9
24.255232 -11.977986 0.054225 4
22.483978 -11.434987 0.110975 4
22.932371 -11.728662 0.094201 4
19.931070 -10.530396 0.194605 3
19.923365 -10.618116 0.193442 3
19.812925 -10.660645 0.195773 3
19.760874 -10.728583 0.196109 3
19.278452 -10.602557 0.211180 3
19.121115 -10.620525 0.215147 3
18.945742 -10.629177 0.219742 3
18.795965 -10.648480 0.223467 3
18.583054 -10.641677 0.229307 3
18.413607 -10.645088 0.233804 5
18.260736 -10.659604 0.237666 5
18.108015 -10.673170 0.241531 5
17.924749 -10.666625 0.246541 5
17.779583 -10.681720 0.250163 8
17.620209 -10.688850 0.254291 5
17.478928 -10.703885 0.257795 8
17.319914 -10.709091 0.261930 7
17.177067 -10.717178 0.265580 7
17.036247 -10.729563 0.269095 7
16.881353 -10.733768 0.273116 5
16.749807 -10.753173 0.276248 5
16.602367 -10.759223 0.280025 5
16.476326 -10.775563 0.283051 2
16.336163 -10.775348 0.286732 2
16.215731 -10.797111 0.289501 2
29.847851 -18.250303 -0.199743 8
15.872354 -10.851208 0.297492 4
15.909605 -10.957382 0.294603 16
15.853861 -10.999944 0.295276 7
30.258772 -19.363655 -0.230610 9
23.326918 -15.539154 0.018772 4
29.627972 -19.298347 -0.213144 9
29.695232 -19.485117 -0.218351 9
29.537813 -19.682108 -0.218012 9
29.784796 -19.970856 -0.229773 9
31.133703 -20.932219 -0.282397 10
16.658638 -12.411271 0.248229 2
15.689177 -11.904355 0.282539 2
15.673366 -11.975594 0.281563 2
13.876486 -11.093396 0.343994 18
22.459530 -17.022566 0.012224 4
22.323399 -17.055038 0.014957 4
22.277256 -17.146482 0.014265 4
21.818245 -16.955673 0.029468 4
22.075649 -17.495483 0.012155 4
22.031145 -17.588501 0.011340 4
14.855668 -12.732686 0.286748 2
20.938425 -17.433079 0.041161 4
20.903322 -17.523079 0.040120 4
11.568334 -11.161130 0.399156 19
11.510487 -11.191599 0.399878 4
9.834457 -11.005024 0.443047 1
9.873800 -11.180980 0.438131 12
9.829167 -11.214536 0.438368 12
10.100345 -12.517038 0.401696 1
8.511812 -11.077766 0.470676 1
8.435204 -11.070969 0.472489 1
8.389681 -11.100797 0.472742 1
8.285793 -11.069947 0.475713 1
8.231359 -11.079788 0.476633 2
8.176288 -11.095751 0.477412 3
8.077010 -11.070869 0.480124 2
8.004122 -11.064574 0.481817 3
7.952124 -11.082380 0.482471 10
7.863707 -11.062865 0.484806 7
7.806253 -11.074339 0.485721 7
7.730397 -11.070003 0.487407 6
7.670313 -11.077970 0.488454 6
7.611044 -11.079394 0.489643 7
7.537342 -11.072279 0.491339 7
7.466548 -11.067681 0.492907 10
7.402344 -11.073112 0.494083 9
7.344459 -11.077877 0.495141 11
7.279467 -11.078113 0.496454 10
7.212832 -11.079625 0.497763 11
7.148067 -11.079188 0.499079 10
7.085174 -11.076837 0.500401 11
7.025981 -11.081705 0.501460 11
6.967767 -11.090835 0.502385 13
6.903422 -11.089132 0.503705 12
6.842713 -11.084018 0.505037 12
6.789125 -11.093737 0.505841 13
6.723348 -11.092640 0.507160 12
6.669034 -11.097267 0.508101 13
6.607833 -11.097068 0.509297 14
6.544981 -11.098057 0.510490 14
6.483179 -11.092701 0.511824 16
6.428249 -11.102256 0.512628 16
6.372571 -11.107004 0.513569 16
6.313638 -11.103868 0.514777 18
6.255591 -11.104984 0.515850 18
6.190073 -11.096512 0.517314 18
6.144052 -11.108063 0.517874 17
6.088779 -11.111474 0.518820 18
6.029332 -11.112897 0.519893 18
5.980941 -11.120646 0.520585 18
5.908616 -11.101262 0.522446 13
5.856175 -11.106729 0.523266 13
5.806240 -11.115115 0.523957 18
5.758775 -11.126448 0.524518 20
5.706481 -11.131212 0.525341 20
5.644598 -11.122983 0.526686 19
5.585268 -11.117642 0.527903 20
5.535629 -11.124829 0.528598 18
5.486033 -11.131794 0.529294 18
5.432906 -11.126277 0.530391 18
5.381075 -11.129560 0.531220 18
5.329313 -11.132604 0.532049 17
5.272950 -11.128920 0.533141 16
5.221350 -11.131473 0.533972 17
5.172132 -11.137050 0.534674 18
5.118362 -11.135868 0.535637 16
5.073323 -11.143033 0.536214 18
5.021990 -11.144667 0.537049 18
4.970732 -11.146066 0.537885 18
4.921805 -11.150531 0.538591 19
4.863957 -11.141543 0.539821 19
4.812953 -11.142226 0.540659 18
4.766469 -11.149324 0.541237 19
4.717811 -11.152890 0.541946 19
4.667012 -11.152901 0.542787 19
4.616295 -11.152679 0.543629 20
4.565662 -11.152228 0.544472 20
4.517274 -11.154909 0.545185 19
4.466798 -11.154007 0.546029 20
4.418546 -11.156253 0.546744 19
4.368231 -11.154902 0.547590 20
4.328235 -11.165788 0.547916 16
4.282256 -11.170818 0.548502 17
4.236320 -11.175653 0.549089 17
4.184186 -11.170048 0.550069 16
4.136303 -11.171045 0.550789 16
4.084377 -11.164975 0.551771 17
4.036657 -11.165539 0.552492 16
3.993072 -11.172778 0.552951 16
3.949510 -11.179837 0.553411 15
3.897938 -11.172888 0.554397 16
3.850481 -11.172631 0.555121 14
3.809049 -11.182579 0.555452 15
3.769591 -11.195840 0.555652 13
1.169092 -6.745983 0.724869 0
1.118304 -6.700937 0.726938 0
1.083160 -6.683697 0.727956 0
1.057671 -6.683871 0.728318 0
1.026558 -6.673363 0.729075 0
0.993681 -6.659176 0.729963 0
0.981424 -6.683742 0.729406 0
0.956083 -6.683483 0.729769 0
0.941806 -6.704419 0.729344 0
0.872666 -6.618616 0.732866 0
0.845852 -6.614357 0.733363 0
0.826304 -6.624257 0.733333 0
0.797948 -6.611657 0.734097 0
0.772104 -6.611129 0.734461 0
0.743751 -6.602832 0.735091 0
0.718992 -6.601594 0.735458 0
0.696012 -6.603851 0.735694 0
0.674026 -6.605549 0.735932 0
0.646681 -6.600864 0.736430 0
0.623053 -6.598756 0.736800 0
0.602586 -6.608333 0.736772 0
0.578035 -6.606494 0.737142 0
0.551866 -6.600916 0.737643 0
0.530717 -6.606149 0.737750 0
0.503323 -6.592192 0.738518 0
0.480604 -6.593592 0.738757 0
0.454347 -6.592100 0.739126 0
0.438427 -6.603447 0.738972 1
0.412571 -6.597248 0.739476 0
0.382064 -6.579912 0.740376 1
0.356985 -6.577564 0.740748 1
0.333894 -6.574293 0.741122 1
0.311983 -6.579119 0.741231 1
0.292561 -6.587156 0.741209 1
0.265024 -6.572518 0.741980 1
0.243159 -6.577075 0.742090 1
0.220778 -6.577447 0.742333 2
0.203305 -6.584396 0.742314 2
0.178519 -6.581268 0.742688 2
0.156200 -6.581384 0.742932 2
0.142042 -6.599700 0.742517 2
0.112611 -6.580983 0.743422 2
0.093618 -6.592432 0.743270 2
0.068157 -6.580609 0.743912 2
0.043210 -6.572787 0.744422 2
0.022841 -6.580239 0.744403 2
0.000326 -6.575632 0.744783 2
-0.023105 -6.571282 0.745161 3
-0.043825 -6.574379 0.745276 3
-0.067172 -6.569848 0.745656 4
-0.090464 -6.565221 0.746035 4
-0.110155 -6.567739 0.746152 4
-0.131779 -6.570839 0.746267 5
-0.151169 -6.577327 0.746251 5
-0.178356 -6.556845 0.747162 4
-0.200169 -6.555566 0.747412 5
-0.221951 -6.554203 0.747661 5
-0.241283 -6.560376 0.747647 7
-0.266617 -6.547409 0.748294 7
-0.289473 -6.541970 0.748677 7
-0.307592 -6.551730 0.748531 7
-0.328070 -6.553777 0.748649 8
-0.346256 -6.563411 0.748504 8
-0.365781 -6.565030 0.748624 8
-0.389616 -6.555346 0.749141 8
-0.406743 -6.568619 0.748864 9
-0.426124 -6.574147 0.748852 11
-0.448753 -6.568057 0.749237 12
-0.471321 -6.561877 0.749623 13
-0.490677 -6.567180 0.749612 12
-0.513161 -6.560831 0.749998 13
-0.533536 -6.562123 0.750120 13
-0.553902 -6.563340 0.750242 14
-0.574259 -6.564482 0.750364 16
-0.594621 -6.561430 0.750620 15
-0.616883 -6.554667 0.751008 16
-0.638135 -6.555817 0.751131 16
-0.656478 -6.556183 0.751255 16
-0.675893 -6.569079 0.750981 16
-0.698930 -6.558100 0.751503 11
-0.718272 -6.562608 0.751495 3
-0.736582 -6.562710 0.751620 1
-0.756129 -6.575323 0.751347 0
-0.778111 -6.567918 0.751737 1
-0.796396 -6.567823 0.751864 1
-0.816740 -6.572197 0.751857 1
-0.832033 -6.595859 0.751188 2
-0.852145 -6.591870 0.751447 15
-0.880500 -6.556855 0.752766 25
-0.898870 -6.560538 0.752761 30
-0.918984 -6.560424 0.752889 26
-0.938333 -6.564164 0.752884 30
-0.959909 -6.556049 0.753277 33
-0.978276 -6.559468 0.753272 40
-0.999299 -6.559242 0.753401 35
-1.020734 -6.550892 0.753795 39
-1.039366 -6.558216 0.753659 40
-1.059375 -6.557594 0.753788 43
-1.080025 -6.552957 0.754050 43
-1.101272 -6.544297 0.754445 47
-1.119935 -6.551349 0.754310 50
-1.139251 -6.554388 0.754308 47
-1.158212 -6.553259 0.754439 51
-1.176360 -6.564073 0.754172 56
-1.198014 -6.551089 0.754701 63
-1.215802 -6.557677 0.754568 63
-1.237199 -6.552594 0.754832 67
-1.255986 -6.559185 0.754699 65
-1.276883 -6.549857 0.755096 72
-1.296697 -6.548381 0.755229 78
-1.315036 -6.550683 0.755229 77
-1.335315 -6.553157 0.755230 77
-1.355098 -6.551473 0.755364 77
-1.373066 -6.565609 0.754967 79
-1.392769 -6.555735 0.755366 79
-1.411677 -6.561797 0.755235 81
-1.431435 -6.559840 0.755370 80
-1.449990 -6.569748 0.755107 101
-1.470129 -6.563675 0.755375 81
-1.489119 -6.569472 0.755245 103
-1.508849 -6.567240 0.755381 103
-1.528218 -6.568921 0.755384 103
-1.547267 -6.574519 0.755255 102
-1.566972 -6.572080 0.755392 102
-1.585388 -6.573486 0.755396 103
-1.605346 -6.566924 0.755665 103
-1.623745 -6.568202 0.755670 104
-1.644341 -6.565555 0.755808 103
-1.662735 -6.566704 0.755813 104
-1.683297 -6.563912 0.755951 104
-1.702440 -6.568976 0.755824 105
-1.720845 -6.569933 0.755830 103
-1.740035 -6.574867 0.755704 103
-1.758285 -6.579693 0.755578 103
-1.780112 -6.568596 0.755983 102
-1.799484 -6.569331 0.755990 81
-1.816921 -6.569933 0.755997 101
-1.836533 -6.562547 0.756269 79
-1.856748 -6.567106 0.756145 80
-1.875236 -6.563554 0.756286 79
-1.895633 -6.559977 0.756427 78
-1.913945 -6.564290 0.756303 73
-1.933349 -6.560560 0.756445 65
-1.952726 -6.556761 0.756586 59
-1.972036 -6.560891 0.756463 55
-1.991386 -6.556957 0.756606 56
-2.011708 -6.568945 0.756219 26
-2.031080 -6.568871 0.756230 35
-2.048549 -6.572744 0.756107 33
-2.068031 -6.580536 0.755853 29
-2.088287 -6.572255 0.756130 27
-2.107825 -6.579907 0.755876 23
-2.127143 -6.575500 0.756021 20
-2.145776 -6.583042 0.755767 18
-2.165078 -6.578503 0.755912 18
-2.184350 -6.573898 0.756057 16
-2.204031 -6.581211 0.755805 15
-2.224576 -6.584421 0.755687 14
-2.243378 -6.591634 0.755435 13
-2.262263 -6.578771 0.755845 14
-2.282434 -6.573780 0.755992 13
-2.302472 -6.584736 0.755610 13
-2.322359 -6.591629 0.755360 13
-2.340836 -6.590529 0.755374 13
-2.360023 -6.585317 0.755521 13
-2.378479 -6.584093 0.755536 13
-2.398471 -6.590713 0.755287 11
-2.417917 -6.589289 0.755303 12
-2.438956 -6.595691 0.755055 11
-2.457119 -6.590220 0.755203 10
-2.476903 -6.592575 0.755088 12
-2.497419 -6.602822 0.754708 9
-2.516537 -6.597072 0.754858 9
-2.534439 -6.599401 0.754741 9
-2.554309 -6.601480 0.754627 8
-2.574609 -6.607465 0.754381 8
-2.594112 -6.605426 0.754399 8
-2.614044 -6.607292 0.754286 7
-2.634898 -6.617032 0.753909 6
-2.653970 -6.610812 0.754060 6
-2.674440 -6.616433 0.753816 4
-2.695943 -6.629915 0.753307 5
-2.715523 -6.627452 0.753327 4
-2.736594 -6.628756 0.753217 4
-2.754658 -6.622321 0.753368 3
-2.775854 -6.631533 0.752993 4
-2.797123 -6.640666 0.752619 4
-2.817316 -6.641806 0.752509 3
-2.838898 -6.658836 0.751870 3
-2.859180 -6.659826 0.751760 2
-2.880712 -6.668643 0.751387 2
-2.901686 -6.673431 0.751146 1
-2.924634 -6.689978 0.750510 0
-2.953965 -6.737814 0.748820 2
-2.970910 -6.722796 0.749238 7
-3.023277 -6.786734 0.746915 3
-3.046252 -6.798863 0.746412 0
-3.069324 -6.810902 0.745911 0
-3.092493 -6.822849 0.745409 0
-3.119525 -6.854337 0.744250 0
-3.160597 -6.956329 0.740720 0
-4.029237 -11.210282 0.597728 0
-4.114057 -11.446060 0.589612 0
-4.103406 -11.219728 0.597031 0
-4.215615 -11.388166 0.590944 13
-4.239809 -11.333881 0.592571 7
-4.280112 -11.345520 0.591964 5
-4.309140 -11.306293 0.593068 4
-4.371875 -11.250978 0.594486 0
-4.417659 -11.285441 0.593092 0
-4.459063 -11.300269 0.592356 0
-4.500599 -11.314933 0.591620 0
-4.530781 -11.282852 0.592463 0
-4.573390 -11.301104 0.591598 0
-4.611235 -11.299809 0.591390 0
-4.647107 -11.290632 0.591446 0
-4.682946 -11.281330 0.591502 1
-4.726951 -11.302817 0.590508 1
-4.762833 -11.293237 0.590565 1
-4.801094 -11.299447 0.590094 2
-4.839092 -11.297315 0.589890 2
-4.877110 -11.295042 0.589687 2
-4.916238 -11.296475 0.589352 2
-4.953201 -11.290076 0.589281 2
-4.992392 -11.291221 0.588948 3
-5.032758 -11.296051 0.588484 4
-5.070904 -11.293063 0.588283 4
-5.112542 -11.301414 0.587690 7
-5.147244 -11.286665 0.587883 6
-5.186623 -11.287071 0.587553 6
-5.224844 -11.283514 0.587355 7
-5.261867 -11.276006 0.587288 7
-5.300101 -11.272169 0.587091 7
-5.340826 -11.275792 0.586632 8
-5.382867 -11.283053 0.586043 8
-5.421205 -11.278769 0.585848 7
-5.458277 -11.270553 0.585784 8
-5.499207 -11.273554 0.585328 8
-5.537590 -11.268835 0.585134 8
-5.578619 -11.271523 0.584679 9
-5.622371 -11.281590 0.583963 9
-5.660861 -11.276413 0.583772 11
-5.698492 -11.279906 0.583312 13
-5.740185 -11.277551 0.582994 12
-5.779712 -11.280097 0.582539 14
-5.820088 -11.273668 0.582353 14
-5.857270 -11.264013 0.582295 15
-5.897275 -11.261697 0.581976 14
-5.937311 -11.259226 0.581658 16
-5.977377 -11.256600 0.581341 16
-6.018934 -11.257541 0.580893 16
-6.058758 -11.259024 0.580443 16
-6.100724 -11.255213 0.580131 16
-6.143930 -11.259366 0.579555 15
-6.182403 -11.256672 0.579237 15
-6.227265 -11.264184 0.578532 13
-6.266327 -11.252313 0.578484 14
-6.309780 -11.255782 0.577911 14
-6.351745 -11.255393 0.577469 15
-6.393338 -11.263717 0.576759 16
-6.433839 -11.259326 0.576449 15
-6.476334 -11.249552 0.576277 16
-6.520096 -11.252150 0.575708 15
-6.560675 -11.247264 0.575400 15
-6.602916 -11.245865 0.574962 15
-6.648510 -11.251575 0.574265 17
-6.687534 -11.242556 0.574089 16
-6.726341 -11.242294 0.573645 17
-6.775712 -11.245807 0.572958 17
-6.816334 -11.248838 0.572386 18
-6.862379 -11.249171 0.571827 18
-6.901463 -11.243807 0.571519 18
-6.945830 -11.244631 0.570958 18
-6.985003 -11.234490 0.570786 18
-7.032994 -11.242135 0.569966 19
-7.075764 -11.238828 0.569536 20
-7.114990 -11.228197 0.569367 19
-7.163200 -11.230788 0.568683 19
-7.206082 -11.226949 0.568256 19
-7.256316 -11.237156 0.567310 19
-7.297593 -11.238338 0.566745 19
-7.342426 -11.233025 0.566325 20
-7.387376 -11.231995 0.565770 19
-7.432384 -11.230775 0.565217 25
-7.471778 -11.218797 0.565053 19
-7.520667 -11.224250 0.564242 25
-7.560222 -11.216417 0.563945 22
-7.611049 -11.220490 0.563141 20
-7.656480 -11.222808 0.562457 19
-7.705550 -11.222944 0.561784 20
-7.754879 -11.227345 0.560978 20
-7.798382 -11.221098 0.560560 18
-7.840132 -11.215691 0.560138 20
-7.885687 -11.212554 0.559593 21
-7.929280 -11.205769 0.559178 19
-7.984793 -11.214999 0.558122 19
-8.030529 -11.211250 0.557580 20
-8.080407 -11.214173 0.556779 19
-8.128319 -11.213446 0.556109 18
-8.180444 -11.219346 0.555182 18
-8.224349 -11.211358 0.554772 17
-8.272781 -11.214498 0.553970 15
-8.314654 -11.202733 0.553690 15
-8.366775 -11.203250 0.552901 15
-8.415428 -11.205762 0.552101 19
-8.465946 -11.206935 0.551309 20
-8.516551 -11.207878 0.550517 20
-8.562908 -11.201872 0.549983 21
-8.614058 -11.206879 0.549059 19
-8.660526 -11.200458 0.548527 19
-8.709230 -11.197174 0.547868 18
-8.761981 -11.195825 0.547086 19
-8.815259 -11.198736 0.546172 19
-8.869099 -11.205913 0.545124 19
-8.920345 -11.205022 0.544340 17
-8.969411 -11.200598 0.543685 15
-9.023070 -11.202538 0.542774 17
-9.069477 -11.189860 0.542384 16
-9.120993 -11.188046 0.541604 14
-9.174886 -11.189261 0.540696 15
-9.229415 -11.194745 0.539656 17
-9.278854 -11.188953 0.539006 16
-9.337695 -11.195913 0.537846 14
-9.389624 -11.192881 0.537071 13
-9.439260 -11.186383 0.536424 12
-9.496057 -11.189318 0.535395 12
-9.548198 -11.185560 0.534623 11
-9.609982 -11.194367 0.533340 11
-9.659890 -11.186901 0.532698 11
-9.714673 -11.185579 0.531801 11
-9.771968 -11.187176 0.530777 9
-9.819612 -11.175824 0.530266 8
-9.879521 -11.180060 0.529117 8
-9.939555 -11.184001 0.527969 8
-9.999712 -11.187646 0.526822 6
-10.053250 -11.186134 0.525925 5
-10.105427 -11.175299 0.525298 5
-10.183414 -11.199916 0.523262 5
-10.251609 -11.211683 0.521737 6
-10.285366 -11.184265 0.521865 6
-10.341095 -11.180003 0.520980 5
-10.396120 -11.170929 0.520231 3
-12.581308 -13.726786 0.413254 3
-13.095742 -14.250356 0.390127 19
-13.098009 -14.159622 0.392471 3
-13.097188 -14.065989 0.394941 8
-15.743663 -17.063396 0.267931 5
-15.655801 -16.854244 0.275008 5
-15.637712 -16.716568 0.278926 7
-15.937265 -16.948689 0.267329 5
-14.907099 -15.565146 0.322380 6
-14.491597 -14.998315 0.344801 38
-14.516253 -14.927881 0.346144 8
-14.511036 -14.824860 0.348882 16
-14.974201 -15.235871 0.329555 6
-11.918404 -11.740146 0.477085 13
-11.941279 -11.686174 0.478012 23
-11.970248 -11.642664 0.478551 23
-12.016408 -11.621168 0.478196 15
-14.212211 -13.770165 0.381352 5
-14.494312 -13.964819 0.370944 13
-13.815324 -13.007530 0.408177 3
-18.228100 -17.381481 0.212101 6
-12.306753 -11.339168 0.479480 11
-12.329289 -11.282611 0.480417 18
-12.370020 -11.258537 0.480186 3
-16.716433 -15.448736 0.289933 4
-14.732191 -13.412081 0.379804 7
-16.793449 -15.318056 0.291545 7
-15.129927 -13.621885 0.366603 18
-16.945019 -15.264084 0.289747 9
-14.599113 -12.944546 0.393829 15
-14.133759 -12.424071 0.415922 9
-14.251489 -12.450435 0.412852 16
-14.307867 -12.430918 0.412146 4
-16.282368 -14.164504 0.329770 6
-16.795055 -14.545998 0.310005 4
-16.601768 -14.271362 0.320548 2
-16.282637 -13.891109 0.336220 12
-16.101059 -13.638555 0.345982 6
-16.174913 -13.615813 0.344949 6
-15.562274 -12.986957 0.372636 5
-14.825084 -12.178197 0.407147 6
-17.051319 -14.023052 0.316777 4
-16.312471 -13.306435 0.349172 20
-16.002275 -12.862970 0.366033 3
-16.055784 -12.824306 0.365751 1
-14.331343 -11.302896 0.437864 16
-14.343827 -11.244096 0.438921 15
-16.339840 -11.223571 0.394318 17
-16.372112 -11.171148 0.394662 5
-18.314487 -11.231750 0.347378 2
-18.366617 -11.109978 0.348476 8
-18.377871 -11.038184 0.349584 4
-18.434998 -10.990533 0.349107 2
-18.483624 -10.863257 0.350342 2
-18.784458 -10.967541 0.341004 2
-18.896645 -10.950525 0.338571 2
-19.053820 -10.966958 0.334399 2
-19.166313 -10.948425 0.331972 2
-19.291039 -10.940174 0.329045 4
-19.429815 -10.939083 0.325631 4
-19.530493 -10.915524 0.323567 6
-19.673082 -10.914822 0.320038 6
-19.793182 -10.904702 0.317232 6
-19.939642 -10.904275 0.313587 7
-20.068773 -10.893358 0.310557 7
-20.201561 -10.883565 0.307407 7
-20.330978 -10.871072 0.304383 7
-20.479889 -10.863972 0.300766 7
-20.625557 -10.862413 0.297125 7
-20.762510 -10.851153 0.293867 7
-20.910255 -10.844585 0.290248 7
