# .PCD v.7 - Point Cloud Data file format
VERSION .7
FIELDS x y z intensity
SIZE 4 4 4 1
TYPE F F F U
COUNT 1 1 1 1
WIDTH 1517
HEIGHT 1
VIEWPOINT 0 0 0 1 0 0 0
POINTS 1517
DATA ascii
-50.186905 -8.393200 2.921676 28
-62.668549 -6.861205 3.431483 63
-62.744247 -6.654562 3.434631 63
64.536255 -2.859011 4.774055 40
63.667202 -4.648982 4.721046 39
64.749474 -5.410321 4.783005 41
64.546043 -5.863726 4.771291 41
7.515078 -2.617866 1.490464 0
7.277225 -2.611237 1.476894 0
7.122142 -2.617434 1.468113 0
6.947475 -2.619055 1.458198 0
6.788625 -2.622341 1.449198 0
6.606305 -2.620158 1.438837 0
6.459701 -2.621939 1.430535 0
6.387687 -2.637130 1.426558 0
6.225252 -2.635609 1.417347 0
6.113838 -2.643159 1.411096 0
6.037692 -2.657124 1.406894 0
6.008183 -2.681703 1.405415 0
6.006248 -2.710470 1.405533 0
6.000604 -2.737010 1.405430 0
5.971159 -2.759816 1.403958 0
5.972841 -2.789359 1.404304 0
5.927354 -2.809773 1.401920 0
5.948629 -2.842297 1.403406 0
5.934448 -2.868219 1.402845 0
5.900424 -2.890845 1.401144 0
5.878651 -2.913300 1.400135 0
5.934414 -2.954551 1.403661 0
5.931154 -2.984578 1.403774 0
5.939398 -3.017531 1.404568 0
5.897910 -3.034961 1.402427 0
5.906657 -3.065140 1.403231 0
5.856626 -3.082948 1.400628 0
5.830451 -3.103854 1.399395 0
5.888682 -3.148862 1.403137 0
5.919730 -3.186924 1.405294 0
5.896731 -3.210285 1.404282 0
5.885585 -3.235379 1.403954 0
5.877811 -3.262890 1.403848 0
5.877614 -3.292588 1.404194 0
5.907973 -3.331275 1.406348 0
5.907522 -3.361131 1.406694 0
5.891658 -3.386424 1.406136 0
5.940675 -3.431362 1.409418 0
5.928399 -3.457890 1.409085 0
5.942727 -3.492672 1.410334 0
5.972143 -3.532385 1.412484 0
5.997574 -3.571120 1.414408 0
6.027083 -3.609888 1.416563 0
6.021798 -3.639131 1.416681 0
6.039157 -3.675884 1.418152 0
6.082400 -3.723063 1.421196 0
6.077182 -3.751129 1.421319 0
6.211198 -3.828418 1.429775 0
6.148513 -3.838784 1.426511 1
6.172557 -3.879078 1.428429 0
9.528922 -10.206658 1.755457 1
9.495186 -10.248850 1.755305 1
9.469124 -10.293940 1.755603 1
9.487876 -10.372265 1.759000 1
9.294135 -10.679321 1.760659 1
9.236152 -10.697832 1.758755 1
8.991119 -10.553802 1.743182 1
8.873564 -10.518538 1.736874 1
8.995348 -10.761066 1.750488 1
8.892744 -10.738233 1.745284 1
8.986517 -10.890973 1.754622 1
8.866119 -10.851552 1.748099 1
9.192739 -11.434895 1.782563 1
8.182918 -10.561778 1.708923 1
3.745171 -6.477344 1.376480 0
3.538493 -6.317914 1.362111 0
3.511343 -6.328901 1.361384 0
3.512852 -6.367572 1.362856 0
3.422731 -6.317011 1.357292 0
3.372893 -6.305098 1.354808 0
3.345905 -6.315387 1.354083 0
3.307600 -6.314270 1.352480 0
3.269369 -6.312952 1.350877 0
3.259290 -6.339833 1.351472 0
3.361962 -6.479774 1.360857 0
3.452606 -6.609019 1.369360 0
3.433070 -6.628017 1.369294 0
3.418023 -6.653649 1.369664 0
3.354195 -6.626312 1.366086 0
3.154154 -6.452801 1.351539 0
3.369703 -6.721704 1.370346 0
3.371557 -6.802012 1.373511 0
2.903571 -6.337210 1.337250 0
2.861636 -6.326935 1.335220 0
2.824274 -6.323191 1.333627 0
2.791426 -6.326015 1.332470 0
2.763142 -6.329982 1.331539 0
2.734885 -6.333819 1.330608 0
2.765659 -6.407979 1.334713 0
3.469000 -7.246820 1.394698 0
3.329104 -7.130419 1.384773 0
3.373115 -7.224463 1.390187 0
3.362936 -7.254357 1.391002 0
3.350430 -7.286120 1.391812 0
3.333698 -7.310851 1.392186 0
3.325677 -7.343777 1.393221 0
3.306139 -7.365391 1.393377 0
3.281412 -7.380801 1.393096 0
3.243939 -7.380706 1.391720 0
3.221711 -7.398971 1.391659 0
3.187937 -7.400756 1.390506 0
3.144456 -7.394862 1.388692 0
3.157142 -7.456416 1.391694 1
3.103445 -7.432854 1.388794 0
2.226767 -6.369456 1.313289 0
2.193283 -6.365322 1.311928 0
2.169696 -6.373624 1.311442 0
2.141215 -6.375507 1.310519 0
2.100612 -6.361416 1.308504 0
2.087725 -6.381336 1.308896 0
2.061759 -6.386018 1.308193 0
2.037272 -6.394482 1.307706 0
2.005103 -6.388631 1.306351 0
1.998229 -6.418626 1.307397 0
1.962804 -6.410024 1.305823 0
1.933612 -6.411605 1.304901 0
1.918059 -6.427853 1.305077 0
1.922484 -6.473921 1.307215 0
1.847731 -6.409564 1.301931 0
1.828899 -6.422961 1.301887 0
1.805426 -6.429760 1.301407 0
1.795670 -6.456108 1.302237 0
1.850449 -6.573699 1.309178 0
2.435589 -7.465602 1.367384 0
2.407437 -7.470381 1.366682 0
2.322130 -7.393170 1.360525 0
2.299864 -7.408217 1.360476 0
2.265337 -7.407325 1.359335 0
2.139317 -7.265699 1.349039 0
2.095548 -7.246739 1.346813 0
2.012665 -7.167348 1.340663 0
1.967302 -7.144443 1.338221 0
1.913509 -7.107857 1.334908 0
1.887944 -7.114745 1.334428 0
1.855970 -7.111405 1.333296 0
1.854880 -7.154594 1.335216 0
1.863034 -7.215461 1.338223 0
1.869718 -7.277134 1.341228 0
1.874027 -7.330778 1.343801 0
1.856136 -7.351083 1.344194 0
1.845303 -7.385686 1.345456 0
1.835384 -7.419624 1.346720 0
1.824356 -7.449471 1.347769 0
1.783627 -7.431822 1.345768 0
45.754822 -91.765762 6.521410 63
1.615461 -10.737980 1.502817 0
1.581525 -10.750540 1.502784 0
1.662723 -11.073848 1.520746 0
1.554610 -11.104115 1.520216 217
1.527285 -11.139089 1.521485 162
1.393262 -11.210084 1.522666 0
1.373912 -11.271187 1.525454 0
1.339352 -11.286698 1.525642 0
1.319391 -11.347724 1.528431 0
1.277284 -11.340213 1.527321 2
1.190986 -11.317058 1.524668 221
1.158538 -11.339590 1.525292 221
1.127777 -11.361475 1.525918 221
1.092811 -11.376156 1.526110 221
1.059358 -11.402746 1.526951 221
1.026451 -11.424867 1.527577 221
0.993428 -11.446883 1.528204 221
0.962466 -11.476482 1.529264 218
0.931011 -11.497787 1.529893 41
-1.577335 -2.787499 1.038497 1
-1.562452 -2.878383 1.043474 1
-1.596896 -2.759278 1.036760 5
-1.609186 -2.733416 1.035243 12
-1.615168 -2.734769 1.035240 27
-1.625459 -2.716601 1.034156 34
-1.628840 -2.729607 1.034803 53
-1.633676 -2.734735 1.035018 75
-1.642125 -2.724276 1.034366 85
-1.649689 -2.717691 1.033932 90
-1.655912 -2.718963 1.033930 100
-1.661547 -2.720095 1.033928 100
-1.667482 -2.721266 1.033927 100
-1.673421 -2.722416 1.033925 100
-1.682319 -2.707844 1.033058 100
-1.688212 -2.708943 1.033057 100
-1.694108 -2.710021 1.033056 100
-1.700007 -2.711078 1.033054 100
-1.706595 -2.708180 1.032837 100
-1.712488 -2.709193 1.032836 100
-1.719041 -2.706247 1.032619 88
-1.725570 -2.703275 1.032401 100
-1.730189 -2.712111 1.032833 100
-1.736095 -2.713042 1.032833 100
-1.743208 -2.706056 1.032400 100
-1.748800 -2.706898 1.032399 82
-1.754983 -2.707807 1.032399 88
-1.761434 -2.704697 1.032182 90
-1.767021 -2.705479 1.032182 85
-1.773438 -2.702323 1.031965 87
-1.779829 -2.699144 1.031749 88
-1.785185 -2.703864 1.031965 52
-1.791063 -2.704603 1.031965 31
-1.808857 -2.654448 1.029153 1
-1.806011 -2.730510 1.033264 2
-1.817216 -2.683534 1.030668 1
-1.821756 -2.696077 1.031318 3
-1.827198 -2.700662 1.031535 3
-1.834352 -2.685328 1.030670 1
-1.841690 -2.669992 1.029805 1
-1.848552 -2.658603 1.029157 1
-1.856748 -2.631272 1.027643 19
-1.863391 -2.619823 1.026995 34
-1.871257 -2.592424 1.025481 32
-1.877681 -2.580918 1.024833 35
-1.883726 -2.573370 1.024401 35
-1.890000 -2.561814 1.023753 36
-1.895652 -2.558203 1.023538 43
-1.902303 -2.538628 1.022457 49
-1.908331 -2.527000 1.021809 47
-1.914276 -2.515347 1.021162 31
-1.919665 -2.507647 1.020730 9
-1.934636 -2.516375 1.021168 15
-1.938576 -2.548522 1.022902 21
-1.943764 -2.552718 1.023120 17
-1.950041 -2.524961 1.021607 15
-1.955649 -2.513149 1.020959 3
-1.961432 -2.501323 1.020312 3
-1.967070 -2.469498 1.018583 1
-1.971975 -2.477591 1.019018 1
-1.982491 -2.449794 1.017507 16
-1.987306 -2.469816 1.018592 61
-1.992450 -2.453875 1.017728 26
-1.997461 -2.449898 1.017514 11
-2.002739 -2.469868 1.018600 37
-2.012501 -2.457834 1.017956 9
-2.017316 -2.461778 1.018175 16
-2.027248 -2.441650 1.017098 2
-2.031691 -2.429573 1.016451 2
-2.036403 -2.421468 1.016021 2
-2.041882 -2.441294 1.017107 2
-2.061579 -2.888239 1.041370 1
-2.067370 -2.868055 1.040291 1
-2.073501 -2.851832 1.039429 1
-2.078707 -2.831626 1.038350 1
-2.185847 -4.993809 1.155773 0
-2.200315 -5.005103 1.156433 0
-2.210576 -4.936577 1.152760 0
-2.227668 -4.995632 1.156020 0
-2.238149 -4.938997 1.152997 0
-2.251569 -4.934156 1.152791 0
-2.266577 -4.953178 1.153885 0
-2.276326 -4.896448 1.150862 0
-2.291342 -4.915374 1.151957 0
-2.309300 -4.970080 1.155003 0
-2.316244 -4.885378 1.150463 0
-3.181089 -14.833197 1.692377 1
-2.345336 -4.906947 1.151787 0
-2.354491 -4.857991 1.149197 0
-2.372160 -4.908481 1.152027 0
-2.215220 -3.041582 1.050370 0
-2.220964 -3.028908 1.049726 0
-2.220765 -2.964626 1.046263 1
-2.214691 -2.856771 1.040413 1
-2.224442 -2.883769 1.041938 1
-2.235699 -2.918607 1.043897 1
-2.240477 -2.905928 1.043253 1
-2.254323 -2.960521 1.046297 1
-2.279341 -3.041785 1.050867 5
-2.290879 -3.072434 1.052611 4
-2.299762 -3.083264 1.053270 8
-2.310489 -3.105908 1.054580 13
-2.317165 -3.100863 1.054371 13
-2.326272 -3.111582 1.055030 11
-2.334828 -3.118319 1.055473 9
-2.340862 -3.109253 1.055047 7
-2.349100 -3.115990 1.055490 4
-2.356412 -3.114759 1.055498 2
-2.362672 -3.109630 1.055290 0
-2.372052 -3.120150 1.055950 0
-2.729920 -4.975272 1.158691 0
-2.743029 -4.972829 1.158707 0
-2.754565 -4.958443 1.158073 0
-2.766009 -4.944024 1.157439 0
-2.681548 -4.211205 1.117546 0
-2.603173 -3.799090 1.094741 0
-2.853869 -4.028533 1.110463 0
-2.868779 -4.040888 1.111351 0
-2.875821 -3.951416 1.106830 0
-2.586456 -2.958210 1.050433 0
-2.626835 -3.041916 1.055467 9
-2.633887 -3.039716 1.055480 14
-2.637654 -3.025959 1.054839 14
-2.643427 -3.019919 1.054634 14
-2.651639 -3.021459 1.054865 11
-2.653620 -3.003998 1.054006 7
-2.663066 -3.009282 1.054455 4
-2.991041 -3.927146 1.107686 4
-3.004292 -3.931045 1.108142 2
-2.742490 -3.125596 1.061936 1
-2.741786 -3.100419 1.060642 7
-2.746332 -3.090302 1.060219 9
-2.746715 -3.068921 1.059143 10
-2.750743 -3.058938 1.058720 13
-2.757854 -3.056304 1.058734 15
-2.763904 -3.049775 1.058531 17
-2.768143 -3.039629 1.058109 15
-2.776619 -3.040664 1.058342 17
-2.777883 -3.023048 1.057483 18
-2.787786 -3.027756 1.057934 18
-2.793316 -3.021281 1.057730 17
-2.798462 -3.014931 1.057526 17
-2.808414 -3.019537 1.057978 17
-2.810857 -3.005610 1.057337 15
-2.820827 -3.010152 1.057790 15
-2.827767 -3.007274 1.057805 13
-2.836246 -3.008054 1.058039 9
-2.843179 -3.005123 1.058054 7
-2.853250 -3.009509 1.058507 6
-2.868123 -3.024844 1.059616 5
-2.878314 -3.029120 1.060069 1
-2.821767 -2.831322 1.048973 1
-2.844390 -2.864904 1.051176 0
-2.941265 -3.057742 1.063010 0
-2.965245 -3.090644 1.065216 0
-2.890860 -2.913785 1.054725 0
-2.873485 -2.860150 1.051675 0
-2.916133 -2.932734 1.056290 0
-2.928351 -2.940151 1.056964 0
-2.936797 -2.940488 1.057200 0
-2.957262 -2.966042 1.058968 0
-2.997781 -3.030665 1.063149 0
-2.857257 -2.716892 1.044335 1
-2.873754 -2.735393 1.045664 1
-2.870610 -2.714569 1.044584 3
-2.865492 -2.690243 1.043283 79
-2.878716 -2.701370 1.044176 100
-2.873404 -2.677093 1.042875 94
-2.884805 -2.684614 1.043548 92
-2.888722 -2.677995 1.043344 95
-2.894503 -2.674883 1.043360 97
-2.906297 -2.682113 1.044035 95
-2.913726 -2.682598 1.044269 90
-2.923394 -2.686385 1.044724 92
-2.927255 -2.679665 1.044521 94
-2.936672 -2.683542 1.044975 95
-2.946415 -2.687208 1.045431 90
-2.952227 -2.683894 1.045447 77
-2.962311 -2.687311 1.045904 91
-2.968123 -2.683942 1.045920 92
-2.975654 -2.684168 1.046156 84
-2.983488 -2.684190 1.046393 79
-2.991624 -2.684005 1.046630 76
-3.001829 -2.687206 1.047088 81
-3.007350 -2.683874 1.047104 82
-3.013150 -2.680348 1.047121 81
-3.023123 -2.683605 1.047578 82
-3.030736 -2.683598 1.047815 80
-3.040766 -2.686765 1.048273 77
-3.046867 -2.682939 1.048291 75
-3.849627 -3.914241 1.129350 1
-3.881340 -3.941345 1.131583 3
-3.878983 -3.914330 1.130295 1
-3.897311 -3.921454 1.131207 3
-3.887648 -3.884797 1.129256 1
-3.895424 -3.874863 1.129067 0
-3.896492 -3.854951 1.128217 0
-3.129171 -2.657368 1.049832 1
-3.622149 -3.355610 1.097055 0
-3.764943 -3.543311 1.110097 0
-3.785241 -3.553458 1.111230 0
-3.749443 -3.466215 1.106212 0
-3.907846 -3.667151 1.120372 0
-3.197733 -2.657642 1.052193 0
-3.218368 -2.662282 1.053115 0
-3.602379 -3.102939 1.085501 0
-3.768644 -3.302541 1.099903 0
-3.804032 -3.330671 1.102366 0
-3.789468 -3.296417 1.100403 0
-3.760213 -3.243188 1.097113 0
-4.187794 -3.724556 1.132847 0
-4.073609 -3.565183 1.122031 0
-3.829135 -3.249178 1.099916 0
-3.400093 -2.702219 1.061422 0
-3.570154 -2.893213 1.075628 0
-3.632341 -2.940018 1.079891 0
-3.638697 -2.934595 1.079916 0
-3.632330 -2.913737 1.078834 0
-3.628783 -2.895679 1.077974 0
-3.582736 -2.829854 1.073563 0
-3.652066 -2.896539 1.078913 0
-3.481085 -2.690536 1.064069 0
-3.511141 -2.711904 1.066092 0
-3.546415 -2.739282 1.068559 0
-3.627164 -2.817039 1.074801 0
-3.579606 -2.752325 1.070385 0
-3.618056 -2.782101 1.073076 0
-3.597080 -2.747119 1.070880 0
-3.562272 -2.697692 1.067572 0
-3.595435 -2.721361 1.069819 0
-3.741208 -2.863872 1.081184 0
-3.590757 -2.692816 1.068536 0
-3.582774 -2.672830 1.067450 0
-3.585759 -2.664420 1.067252 0
-3.730604 -2.802133 1.078403 0
-3.594405 -2.650454 1.067080 0
-3.616898 -2.661952 1.068441 0
-3.639491 -2.673313 1.069803 0
-3.766598 -2.789099 1.079405 0
-3.761127 -2.771965 1.078540 0
-3.661819 -2.662246 1.070324 0
-3.702132 -2.678181 1.072607 3
-3.719679 -2.683036 1.073527 24
-3.731233 -2.682556 1.074000 39
-3.739914 -2.679259 1.074250 44
-3.751204 -2.678973 1.074722 45
-3.765419 -2.681367 1.075418 45
-3.771206 -2.675195 1.075446 42
-3.782826 -2.674435 1.075920 40
-3.797399 -2.676321 1.076618 42
-3.812006 -2.678125 1.077316 40
-3.826648 -2.679847 1.078014 39
-3.835394 -2.676136 1.078266 39
-3.847111 -2.675049 1.078742 39
-3.861826 -2.676555 1.079441 39
-3.873581 -2.675335 1.079917 38
-3.894357 -2.681953 1.081064 38
-3.906167 -2.680577 1.081541 40
-3.921011 -2.681752 1.082242 37
-3.941946 -2.688047 1.083390 35
-3.953832 -2.686441 1.083868 33
-3.968778 -2.687354 1.084570 31
-3.986810 -2.690753 1.085496 30
-4.001825 -2.691486 1.086199 27
-4.023018 -2.697233 1.087350 23
-4.035025 -2.695238 1.087829 18
-4.053226 -2.698234 1.088757 9
-18.007244 -13.826526 2.090693 2
-18.136267 -13.837639 2.096995 2
-20.106371 -15.202658 2.231849 7
-20.180969 -15.158980 2.233924 2
-20.193617 -14.966105 2.228426 2
-20.254881 -14.912186 2.229604 2
-20.153479 -14.735228 2.219331 15
-20.258732 -14.714909 2.223654 7
-18.525415 -13.324949 2.099024 30
-18.565041 -13.264814 2.099054 8
-19.773228 -14.062221 2.180671 9
-18.872820 -13.311119 2.115075 44
-18.873533 -13.221723 2.112411 8
-18.870584 -13.130143 2.109522 6
-18.605810 -12.765307 2.085964 13
-18.646690 -12.707269 2.086218 16
-18.680817 -12.644522 2.086023 7
-18.748362 -12.518741 2.085633 41
-18.616768 -12.343263 2.074175 18
-18.752110 -12.350073 2.080963 18
-18.615801 -12.173558 2.069275 41
-18.687853 -12.137631 2.071782 33
-18.603283 -11.997813 2.063694 31
-18.724960 -11.994563 2.069585 13
-18.917095 -12.036362 2.080216 100
-18.958784 -11.979409 2.080699 20
-19.043983 -11.950326 2.084116 18
-18.913555 -11.783556 2.073089 20
-19.156986 -11.854524 2.087118 7
-19.265751 -11.839099 2.092120 28
-19.235565 -11.736588 2.087865 5
-19.483641 -11.722333 2.099912 2
-19.639992 -11.649479 2.105868 6
-19.724960 -11.616527 2.109301 2
-19.876760 -11.626976 2.117245 6
-27.720200 -16.039040 2.627594 12
-29.143644 -16.617182 2.714623 4
-29.236063 -16.544088 2.717523 4
-28.212364 -15.839624 2.647722 4
-28.439474 -15.604823 2.653667 4
-30.704432 -16.723818 2.797338 5
-28.951294 -15.642708 2.680992 4
-29.969275 -16.068903 2.743768 5
-29.301468 -15.221707 2.689377 4
-32.437115 -16.450043 2.881205 6
-31.202621 -15.696321 2.799630 66
-31.501253 -15.589346 2.813007 5
-31.569857 -15.367340 2.811841 11
-28.499403 -13.763476 2.615044 4
-27.952478 -13.389116 2.578121 4
-32.043388 -15.210399 2.833649 5
-31.036572 -14.611094 2.767621 5
-30.512123 -14.003413 2.727227 4
-32.125999 -14.485206 2.823348 5
-30.918076 -13.830433 2.745576 5
-29.481548 -13.079496 2.653652 4
-29.449705 -12.832018 2.647187 4
-31.286707 -13.266674 2.754776 5
-31.292355 -13.149090 2.752926 5
-31.146044 -12.969504 2.741710 5
-30.824928 -12.720495 2.719750 4
-31.369513 -12.822317 2.751255 15
-30.727749 -12.448117 2.709630 4
-31.923035 -12.682332 2.779083 5
-30.581234 -12.044614 2.694662 4
-30.582209 -11.930535 2.692795 4
-31.833473 -12.051669 2.763661 5
-31.646751 -11.865145 2.750359 5
-31.034761 -11.526511 2.711165 4
-31.702890 -11.651175 2.750084 5
-50.181999 -8.568160 3.775159 14
-50.117226 -8.386025 3.770507 13
-62.673195 -6.887363 4.498213 31
-62.881115 -6.682321 4.510076 31
3.128366 -6.548580 1.530567 0
3.022373 -6.510683 1.522639 6
2.979054 -6.501613 1.519768 9
2.957226 -6.515997 1.519397 12
2.919396 -6.512473 1.517152 12
2.879957 -6.504920 1.514600 15
2.853827 -6.512107 1.513608 15
2.817894 -6.511873 1.511675 15
2.782029 -6.511449 1.509743 13
2.748147 -6.509179 1.507817 13
2.718572 -6.513618 1.506513 13
2.689024 -6.517918 1.505209 13
2.659503 -6.522078 1.503906 12
2.624878 -6.519995 1.501980 13
2.597991 -6.526921 1.500990 12
2.568568 -6.530656 1.499688 12
2.536640 -6.531175 1.498076 14
2.502241 -6.528450 1.496152 12
2.473903 -6.530964 1.494855 14
2.438089 -6.524038 1.492623 14
2.405436 -6.524699 1.491010 16
2.373797 -6.524431 1.489401 15
2.349625 -6.533402 1.488726 11
2.320524 -6.535993 1.487429 4
2.291459 -6.538447 1.486133 2
2.264867 -6.543923 1.485148 1
2.231010 -6.539785 1.483230 0
2.204480 -6.544999 1.482247 0
2.186142 -6.558910 1.482200 0
1.695934 -10.865468 1.756782 0
1.696270 -10.971769 1.764491 0
1.611663 -10.854225 1.753616 0
1.580144 -11.081896 1.769318 221
1.546335 -11.098092 1.769596 221
1.515078 -11.121707 1.770494 221
1.480636 -11.142064 1.771081 221
1.447861 -11.161702 1.771670 221
1.414992 -11.181234 1.772260 221
1.382028 -11.200661 1.772850 221
1.350215 -11.223769 1.773750 211
1.326897 -11.273333 1.776818 88
1.228325 -11.329878 1.778596 0
1.194686 -11.348701 1.779189 1
1.162120 -11.371231 1.780092 1
1.129435 -11.393659 1.780995 1
1.096633 -11.415983 1.781899 2
0.993851 -11.462648 1.783067 221
0.961736 -11.488383 1.784283 194
0.928405 -11.510180 1.785189 43
-1.635438 -3.000679 1.096216 0
-1.690940 -2.767551 1.077653 15
-1.699386 -2.756883 1.076724 30
-1.706115 -2.753989 1.076414 49
-1.711865 -2.754954 1.076413 69
-1.721119 -2.736267 1.074865 78
-1.726810 -2.737182 1.074865 85
-1.733716 -2.734231 1.074555 91
-1.739699 -2.735150 1.074554 96
-1.745101 -2.739993 1.074863 100
-1.752519 -2.728988 1.073934 100
-1.759042 -2.725892 1.073625 100
-1.763364 -2.738575 1.074553 100
-1.770423 -2.731485 1.073934 79
-1.776397 -2.732275 1.073934 100
-1.782876 -2.729089 1.073624 79
-1.789139 -2.729873 1.073625 76
-1.795582 -2.726639 1.073316 76
-1.800779 -2.731268 1.073625 79
-1.807199 -2.727990 1.073316 76
-1.812294 -2.736581 1.073935 83
-1.819963 -2.721362 1.072699 83
-1.825496 -2.725948 1.073009 86
-1.831058 -2.730515 1.073319 83
-1.837406 -2.727124 1.073010 99
-1.844821 -2.711795 1.071774 29
-1.849728 -2.720245 1.072393 40
-1.857685 -2.696917 1.070538 30
-1.868388 -2.637780 1.065899 9
-1.878058 -2.586541 1.061879 12
-1.885594 -2.559118 1.059715 20
-1.891529 -2.551552 1.059097 26
-1.898214 -2.532026 1.057552 34
-1.904253 -2.520432 1.056625 38
-1.910209 -2.508814 1.055699 46
-1.916084 -2.497174 1.054772 55
-1.921663 -2.489492 1.054155 70
-1.926792 -2.489757 1.054157 78
-1.931664 -2.489991 1.054158 78
-1.937308 -2.478268 1.053232 87
-1.942555 -2.474492 1.052924 96
-1.948205 -2.458742 1.051689 100
-1.953355 -2.454928 1.051381 100
-1.958362 -2.455082 1.051383 54
-1.963472 -2.451231 1.051076 100
-1.968555 -2.447363 1.050769 100
-1.973388 -2.455439 1.051390 54
-1.978517 -2.447547 1.050773 54
-1.983453 -2.451601 1.051085 100
-1.988480 -2.447662 1.050778 100
-1.993213 -2.447692 1.050780 100
-1.998190 -2.451695 1.051092 100
-2.003177 -2.447705 1.050785 100
-2.008182 -2.451673 1.051098 100
-2.012964 -2.455625 1.051410 96
-2.017824 -2.443608 1.050484 100
-2.022919 -2.451512 1.051106 96
-2.078539 -3.966091 1.168730 0
-2.089858 -4.017634 1.172760 0
-2.100051 -4.009331 1.172148 0
-2.543176 -15.645896 2.076012 1
-2.597125 -15.715633 2.081619 1
-2.654594 -15.912779 2.097131 1
-2.096755 -3.051579 1.097880 0
-2.116672 -3.302145 1.117389 0
-2.138196 -3.404812 1.125450 19
-2.146345 -3.408320 1.125766 27
-2.154320 -3.395829 1.124843 18
-2.163154 -3.403233 1.125469 6
-2.299444 -4.996738 1.249654 0
-2.313385 -4.987662 1.249046 0
-2.329523 -5.014365 1.251226 0
-2.342434 -5.001270 1.250309 0
-2.172117 -2.942499 1.089896 1
-2.195554 -3.052465 1.098579 7
-2.203041 -3.055738 1.098896 12
-2.208505 -3.039149 1.097663 10
-2.216326 -3.042337 1.097980 6
-2.224257 -3.049497 1.098606 2
-2.230984 -3.048742 1.098613 3
-2.240744 -3.067685 1.100169 7
-2.247409 -3.062872 1.099867 10
-2.253687 -3.058083 1.099564 8
-2.261304 -3.061141 1.099881 8
-2.269302 -3.064123 1.100198 3
-2.550119 -4.981932 1.250821 0
-2.559881 -4.956396 1.248976 0
-2.574764 -4.962309 1.249611 0
-2.602264 -4.958200 1.249641 0
-2.632886 -4.973587 1.251223 0
-2.644102 -4.955611 1.249999 0
-2.656515 -4.945471 1.249395 0
-2.670209 -4.943155 1.249412 0
-2.681154 -4.925077 1.248188 0
-2.704151 -4.900730 1.246671 0
-2.725671 -4.941382 1.250099 0
-2.746004 -4.974094 1.252908 0
-2.748502 -4.912723 1.248273 0
-2.764381 -4.921826 1.249221 0
-2.825847 -3.886364 1.172371 0
-2.884482 -4.052057 1.186056 0
-2.624831 -3.055815 1.105951 12
-2.631931 -3.053621 1.105963 9
-2.634237 -3.036186 1.104733 7
-2.637639 -3.022560 1.103813 14
-2.645846 -3.024117 1.104136 11
-2.662727 -3.052181 1.106636 5
-2.673563 -3.061217 1.107582 8
-2.681944 -3.062635 1.107906 13
-2.680136 -3.033795 1.105743 14
-2.688448 -3.035182 1.106067 14
-2.694173 -3.028997 1.105769 14
-2.703810 -3.034091 1.106405 14
-2.710834 -3.031621 1.106418 13
-2.718840 -3.033008 1.106743 14
-2.728568 -3.037988 1.107378 11
-2.736973 -3.039179 1.107704 11
-2.742634 -3.032852 1.107406 9
-2.752440 -3.037720 1.108043 8
-2.762289 -3.042545 1.108680 9
-2.772181 -3.047325 1.109317 10
-2.782115 -3.052060 1.109954 10
-2.790647 -3.053034 1.110280 9
-2.800653 -3.057685 1.110917 8
-2.807758 -3.054877 1.110932 8
-2.817822 -3.059448 1.111570 7
-2.824934 -3.056580 1.111585 7
-2.831681 -3.053833 1.111600 6
-2.847906 -3.073033 1.113484 3
-2.849829 -3.037661 1.111023 0
-2.855304 -3.031013 1.110727 0
-2.825263 -2.887561 1.099571 0
-2.843188 -2.892662 1.100536 0
-2.857967 -2.907860 1.102110 0
-2.857719 -2.872872 1.099647 0
-2.933381 -3.018000 1.112448 0
-2.861808 -2.848953 1.098118 0
-2.916131 -2.946774 1.106866 0
-2.967698 -3.037046 1.114993 0
-2.957355 -2.997761 1.111891 0
-2.953751 -2.972908 1.110036 0
-2.965847 -2.980298 1.110989 0
-2.965581 -2.962630 1.109758 0
-2.861534 -2.738230 1.090426 1
-2.860325 -2.720978 1.089192 1
-2.886190 -2.757039 1.092641 1
-2.879473 -2.729113 1.090472 6
-2.883298 -2.722647 1.090174 93
-2.888937 -2.719709 1.090189 95
-2.887421 -2.702486 1.088955 78
-2.897326 -2.706263 1.089596 81
-2.901319 -2.699606 1.089300 81
-2.912574 -2.707131 1.090252 85
-2.916839 -2.700274 1.089956 82
-2.928757 -2.707382 1.090910 78
-2.934346 -2.704293 1.090925 81
-2.942164 -2.704501 1.091254 84
-2.949995 -2.704676 1.091583 81
-2.955868 -2.701349 1.091599 82
-2.971643 -2.715301 1.093179 25
-2.983241 -2.722429 1.094133 82
-2.981149 -2.705201 1.092899 74
-2.993079 -2.712084 1.093854 73
-2.997241 -2.705000 1.093559 73
-3.003114 -2.701509 1.093576 72
-3.012791 -2.705009 1.094218 73
-3.023092 -2.708106 1.094862 72
-3.031055 -2.707927 1.095192 77
-3.034848 -2.700922 1.094897 73
-3.047014 -2.707464 1.095854 72
-3.054716 -2.707364 1.096184 67
-3.838990 -3.895771 1.208013 0
-3.871121 -3.922528 1.211177 2
-3.857342 -3.879193 1.207764 1
-3.866809 -3.873018 1.207793 1
-3.876753 -3.866484 1.207825 1
-3.884962 -3.856264 1.207545 1
-3.897560 -3.852649 1.207891 1
-3.906939 -3.846341 1.207922 1
-3.923515 -3.849560 1.208894 1
-3.931123 -3.839538 1.208612 1
-3.938195 -3.829836 1.208330 1
-3.950752 -3.825987 1.208677 1
-3.962819 -3.822426 1.209023 1
-3.977184 -3.822073 1.209683 1
-3.991081 -3.822002 1.210342 0
-4.012942 -3.830896 1.211945 0
-4.044230 -3.832903 1.213580 7
-4.058253 -3.832544 1.214240 8
-4.075153 -3.834971 1.215215 8
-4.071185 -3.808139 1.213368 1
-3.305664 -2.727317 1.109253 0
-3.330533 -2.723208 1.110259 0
-3.923330 -3.464412 1.185054 0
-3.928946 -3.454894 1.184769 0
-3.900540 -3.401059 1.180089 0
-3.636857 -3.055367 1.145863 0
-3.638576 -3.043729 1.145260 0
-3.632678 -3.022830 1.143713 0
-3.647247 -3.026364 1.144683 0
-3.646614 -3.011383 1.143767 0
-3.931696 -3.339624 1.178074 0
-4.176842 -3.597205 1.206134 0
-3.410707 -2.678388 1.111783 0
-4.210427 -3.358647 1.194416 0
-3.481798 -2.576833 1.109950 0
-3.631088 -2.709905 1.125767 0
-3.625858 -2.692763 1.124531 0
-3.667944 -2.724123 1.128658 0
-3.662683 -2.706931 1.127422 0
-3.688222 -2.720927 1.129658 0
-3.734019 -2.731463 1.132894 0
-3.637460 -2.624918 1.121555 0
-3.637335 -2.613629 1.120949 0
-3.680442 -2.643636 1.125082 0
-3.775293 -2.723342 1.134901 0
-3.769383 -2.706440 1.133664 0
-3.813069 -2.724086 1.137196 56
-3.798598 -2.698702 1.135012 44
-3.816142 -2.703255 1.136305 46
-3.830806 -2.705006 1.137282 42
-3.842561 -2.703985 1.137943 40
-3.854330 -2.702902 1.138605 41
-3.880630 -2.715433 1.140846 41
-3.889209 -2.711847 1.141191 41
-3.909999 -2.718491 1.142802 36
-3.925177 -2.719395 1.143783 63
-3.946384 -2.725466 1.145397 36
-3.961348 -2.726514 1.146377 35
-3.976341 -2.727477 1.147357 32
-3.991068 -2.728704 1.148336 30
-4.008858 -2.732439 1.149633 23
-4.020908 -2.730568 1.150297 19
-4.042126 -2.736331 1.151913 7
-18.664669 -13.417220 2.594284 2
-18.696096 -13.260494 2.589396 4
-18.764490 -13.220908 2.592195 2
-18.794024 -13.152971 2.591181 2
-18.309816 -12.630751 2.536068 2
-18.421064 -12.542363 2.539736 8
-19.012720 -12.781157 2.589859 2
-18.734734 -12.502869 2.559261 2
-18.581358 -12.060362 2.530364 2
-18.497938 -11.839372 2.515585 35
-18.545609 -11.788240 2.516792 9
-18.784828 -11.777891 2.532906 2
-18.849171 -11.736352 2.535710 2
-18.896494 -11.601527 2.533673 10
-18.879118 -11.508809 2.528828 16
-19.719978 -11.945784 2.604649 42
-19.679756 -11.836002 2.597583 10
-20.041187 -11.970767 2.628150 4
-20.106604 -11.924178 2.630975 2
-20.110304 -11.840455 2.628058 2
-30.543657 -17.537819 3.580523 6
-31.424107 -17.910513 3.656947 6
-29.060883 -16.428616 3.434162 5
-28.104185 -15.763456 3.341622 4
-29.861168 -16.493908 3.493878 5
-29.907991 -16.392708 3.493658 5
-29.832825 -16.231237 3.482550 5
-30.593813 -16.517773 3.547541 5
-27.606489 -14.553716 3.263225 4
-30.530710 -15.845386 3.519939 5
-28.800539 -14.833674 3.359714 4
-30.219036 -15.440371 3.483649 5
-32.705547 -16.576101 3.703332 6
-33.105236 -16.642403 3.734845 6
-32.162769 -16.030884 3.645677 6
-32.021854 -15.830247 3.628834 6
-31.988390 -15.690308 3.621892 6
-28.950926 -13.856419 3.339306 4
-31.386084 -14.890632 3.552210 5
-29.227617 -13.755792 3.356779 4
-29.767462 -13.890377 3.401109 5
-33.015152 -15.264402 3.685001 6
-31.235605 -14.323739 3.523813 5
-29.319046 -13.336689 3.351023 4
-30.056953 -13.434443 3.409275 5
-32.028198 -14.181531 3.579151 6
-29.298035 -12.871475 3.335956 4
-29.291588 -12.755635 3.332186 9
-30.963499 -13.235717 3.472059 5
-31.182524 -13.208294 3.487906 5
-30.152687 -12.662940 3.394847 4
-30.418194 -12.656757 3.414864 5
-31.090445 -12.813641 3.470240 5
-28.977903 -11.847705 3.283593 4
-30.295767 -12.147929 3.392107 4
-29.955421 -11.901570 3.359721 4
-31.042387 -12.208099 3.450840 5
-30.490705 -11.887220 3.400416 5
-30.448238 -11.751760 3.393778 4
-31.994558 -12.215657 3.524211 5
-31.666883 -11.975529 3.493108 5
-31.569307 -11.362568 3.471108 5
-31.510994 -11.226706 3.463487 5
-50.293392 -8.581660 4.925404 17
-50.201210 -8.394944 4.916341 17
-62.894390 -7.086262 5.943352 32
-62.748451 -6.857640 5.930524 32
35.830833 -8.748905 5.629435 10
35.694836 -8.858268 5.615417 10
-1.815905 -2.698085 1.140347 1
-1.821535 -2.758599 1.147419 16
-1.827210 -2.763164 1.147891 34
-1.835261 -2.740003 1.145064 57
-1.840533 -2.748478 1.146007 73
-1.847969 -2.733197 1.144123 75
-1.853272 -2.741633 1.145066 81
-1.859927 -2.734216 1.144125 93
-1.865909 -2.734694 1.144126 94
-1.872779 -2.723268 1.142713 100
-1.878159 -2.731626 1.143657 100
-1.884400 -2.728077 1.143187 100
-1.890360 -2.728470 1.143189 76
-1.896562 -2.724877 1.142719 90
-1.903191 -2.713330 1.141306 73
-1.907949 -2.729507 1.143194 100
-1.913914 -2.729818 1.143196 100
-1.920066 -2.726140 1.142726 100
-1.925847 -2.730376 1.143200 100
-1.931676 -2.726644 1.142730 100
-1.937776 -2.722902 1.142261 100
-1.943586 -2.727078 1.142735 100
-1.949724 -2.731244 1.143209 100
-1.955900 -2.723467 1.142268 88
-1.962110 -2.711697 1.140856 69
-1.967642 -2.715784 1.141330 34
-1.986024 -2.676311 1.136624 1
-1.991412 -2.696209 1.138984 1
-1.997565 -2.688284 1.138044 1
-2.003361 -2.676366 1.136632 1
-2.009359 -2.716064 1.141351 1
-2.015086 -2.727939 1.142769 1
-2.020699 -2.723908 1.142300 1
-2.046534 -3.962962 1.289434 0
-2.065567 -3.918894 1.284259 0
-2.074955 -3.890852 1.280964 0
-2.084526 -3.858794 1.277198 0
-2.097599 -3.953759 1.288523 0
-2.107980 -3.957369 1.289001 0
-2.116950 -3.925223 1.285235 0
-2.128308 -3.964502 1.289958 0
-2.137881 -3.960092 1.289494 2
-2.146538 -3.927855 1.285728 5
-2.156469 -3.923359 1.285263 5
-2.166876 -3.918800 1.284800 6
-2.176020 -3.902340 1.282921 2
-2.171789 -3.687691 1.257456 4
-2.195050 -3.885189 1.281049 0
-2.204194 -3.872604 1.279642 0
-2.225770 -3.898866 1.282961 5
-2.236315 -3.898019 1.282969 5
-2.245000 -3.881345 1.281091 2
-2.255687 -3.888385 1.282043 1
-2.267753 -3.915207 1.285354 2
-2.278991 -3.926116 1.286779 14
-2.287162 -3.905361 1.284429 17
-2.297227 -3.904340 1.284438 16
-2.307289 -3.903285 1.284448 14
-2.317347 -3.902194 1.284458 11
-2.327849 -3.905014 1.284939 7
-2.337913 -3.903852 1.284949 3
-2.347972 -3.902654 1.284959 1
-2.359497 -3.913246 1.286385 0
-2.375631 -3.959254 1.292059 0
-2.379689 -3.914670 1.286878 0
-2.417893 -4.121960 1.311902 0
-2.564182 -5.100203 1.429435 0
-2.570605 -5.043150 1.422842 0
-2.570923 -4.946795 1.411530 0
-2.591057 -4.987994 1.416737 0
-2.601903 -4.966272 1.414392 0
-2.614442 -4.956297 1.413464 0
-2.625040 -4.934516 1.411120 0
-2.632294 -4.893108 1.406415 0
-2.655608 -4.949645 1.413512 0
-2.674629 -4.982689 1.417777 0
-2.685049 -4.960743 1.415433 0
-2.702957 -4.981792 1.418283 0
-2.710407 -4.944137 1.414051 0
-2.720488 -4.922103 1.411707 0
-2.728954 -4.892239 1.408419 0
-2.743956 -4.897472 1.409381 0
-2.757480 -4.894850 1.409398 0
-2.771869 -4.900108 1.410360 0
-2.815280 -5.041286 1.427853 0
-2.825291 -5.018965 1.425510 0
-2.811481 -4.883893 1.409471 0
-4.837067 -13.869807 2.504929 1
-2.875198 -3.875811 1.295580 0
-2.677577 -3.151080 1.206252 0
-2.682574 -3.141140 1.205320 0
-2.682591 -3.116083 1.202495 3
-2.672497 -3.060874 1.195887 7
-2.675844 -3.047209 1.194481 9
-2.687990 -3.059892 1.196386 10
-2.692538 -3.049959 1.195454 10
-2.698321 -3.043774 1.194994 6
-2.704068 -3.037574 1.194535 6
-2.709430 -3.031482 1.194074 8
-2.713776 -3.021510 1.193142 10
-2.720754 -3.019006 1.193155 13
-2.729084 -3.020209 1.193642 13
-2.737432 -3.021379 1.194129 14
-2.745796 -3.022514 1.194617 13
-2.751379 -3.016181 1.194158 11
-2.756926 -3.009833 1.193699 10
-2.769564 -3.022008 1.195606 10
-2.776544 -3.019309 1.195621 10
-2.787868 -3.027678 1.197056 8
-2.793403 -3.021223 1.196597 5
-2.807764 -3.036877 1.198979 9
-2.831181 -3.074546 1.204202 16
-2.829329 -3.049571 1.201377 16
-2.834537 -3.043138 1.200918 16
-2.841590 -3.040212 1.200933 14
-2.848633 -3.037261 1.200949 10
-2.886173 -3.086040 1.208085 0
-2.902937 -3.065745 1.206713 0
-2.868041 -2.968252 1.194411 0
-2.866687 -2.947098 1.192058 0
-2.850420 -2.893427 1.185440 0
-2.869855 -2.919486 1.189246 0
-2.942772 -3.060817 1.208216 0
-2.907931 -2.967518 1.196385 0
-2.923516 -2.982145 1.198772 0
-2.949099 -3.018374 1.204002 0
-2.935127 -2.972230 1.198330 0
-2.942272 -2.968789 1.198348 0
-2.947663 -2.961753 1.197891 0
-2.955847 -2.962163 1.198381 0
-2.964383 -2.962371 1.198873 0
-2.960482 -2.937685 1.196045 0
-2.890151 -2.781884 1.175672 1
-2.876455 -2.739839 1.170471 1
-2.922083 -2.814643 1.180919 0
-2.891790 -2.740885 1.171450 2
-2.898516 -2.723919 1.170059 85
-2.902591 -2.717265 1.169600 82
-2.910087 -2.717763 1.170090 77
-2.920079 -2.721403 1.171055 75
-2.924108 -2.714694 1.170597 69
-2.935755 -2.721898 1.172036 75
-2.939761 -2.715147 1.171578 68
-2.951186 -2.722423 1.173017 73
-2.958772 -2.722720 1.173508 72
-2.960785 -2.712454 1.172575 71
-2.994704 -2.743374 1.177831 68
-2.990723 -2.722726 1.175474 72
-2.994352 -2.716005 1.175016 71
-3.002284 -2.715942 1.175508 75
-3.010522 -2.715669 1.176000 72
-3.018773 -2.715358 1.176494 69
-3.028500 -2.718764 1.177460 67
-3.038558 -2.721944 1.178427 58
-3.040328 -2.711542 1.177495 69
-3.052204 -2.718211 1.178937 56
-3.071043 -2.734554 1.181806 21
-3.768086 -3.806925 1.334835 2
-3.770896 -3.791006 1.333438 2
-3.787488 -3.794513 1.334895 2
-3.799319 -3.791587 1.335401 2
-3.806803 -3.781965 1.334956 2
-3.820317 -3.782590 1.335935 2
-3.827747 -3.772910 1.335491 2
-3.833401 -3.759590 1.334572 2
-3.838506 -3.746587 1.333652 2
-3.848007 -3.740152 1.333683 2
-3.852998 -3.727129 1.332763 2
-3.857922 -3.714105 1.331843 2
-3.864574 -3.704667 1.331396 2
-3.862080 -3.682195 1.329048 1
-3.869531 -3.672106 1.328605 1
-3.864974 -3.646134 1.325782 1
-3.871356 -3.636704 1.325336 1
-3.873962 -3.620161 1.323941 1
-3.881140 -3.610061 1.323498 1
-3.887369 -3.600602 1.323051 1
-3.891201 -3.587933 1.322129 1
-3.890682 -3.568557 1.320257 1
-3.901939 -3.565122 1.320764 1
-3.906029 -3.552121 1.319844 1
-3.917250 -3.548616 1.320351 1
-3.921239 -3.535595 1.319430 1
-3.927581 -3.525725 1.318986 1
-3.934313 -3.515503 1.318543 1
-3.940563 -3.505605 1.318098 1
-3.949222 -3.498816 1.318130 1
-3.954961 -3.489223 1.317684 1
-3.961516 -3.478936 1.317241 1
-3.970082 -3.472074 1.317273 1
-4.001108 -3.492968 1.321593 1
-4.019759 -3.498281 1.323532 1
-4.066188 -3.537262 1.330712 2
-4.044160 -3.493659 1.325025 2
-4.050237 -3.483455 1.324582 2
-4.058817 -3.476283 1.324615 2
-4.067374 -3.469081 1.324649 2
-4.075904 -3.461848 1.324682 3
-4.076661 -3.445536 1.323286 3
-4.092890 -3.447295 1.324749 6
-4.077909 -3.412986 1.320492 5
-4.083631 -3.402728 1.320049 5
-4.089305 -3.392459 1.319605 5
-4.087028 -3.373266 1.317731 5
-4.089933 -3.360041 1.316811 4
-4.084804 -3.337967 1.314460 3
-4.079547 -3.315958 1.312108 1
-4.079117 -3.300244 1.310708 1
-3.596171 -2.746227 1.222495 23
-3.599477 -2.737738 1.222044 35
-3.611192 -2.737656 1.223025 36
-3.628082 -2.743569 1.224960 38
-3.633785 -2.738161 1.224985 30
-3.650755 -2.743920 1.226920 28
-3.662271 -2.743865 1.227902 34
-3.682108 -2.752297 1.230315 14
-3.688579 -2.734851 1.229414 1
-3.691755 -2.726126 1.228963 0
-3.652798 -2.675246 1.221347 0
-3.903214 -2.913437 1.262933 0
-3.686329 -2.686579 1.225219 0
-3.876368 -2.861494 1.256303 0
-3.894478 -2.865689 1.258245 0
-3.787038 -2.748298 1.239161 0
-3.801649 -2.750302 1.240623 0
-3.796178 -2.733038 1.238740 0
-3.804728 -2.729803 1.239245 0
-3.816167 -2.729252 1.240228 0
-3.871711 -2.757053 1.247458 45
-3.871918 -2.745126 1.246531 36
-3.880854 -2.741261 1.247038 36
-3.907419 -2.753381 1.250416 42
-3.916402 -2.749372 1.250924 42
-3.934253 -2.753273 1.252868 31
-3.952154 -2.757070 1.254812 28
-3.964154 -2.755503 1.255799 19
-3.985121 -2.761732 1.258223 10
-27.448763 -15.527627 4.491238 6
-29.910612 -16.667549 4.819925 7
-31.165787 -17.237719 4.986962 8
-30.023321 -16.481031 4.821708 7
-28.551289 -15.548242 4.611165 7
-28.535475 -15.419481 4.602411 7
-28.519087 -15.291009 4.593657 7
-29.193567 -15.410105 4.673479 14
-30.537544 -15.994049 4.851231 16
-30.867870 -16.039122 4.889734 8
-31.572929 -16.275032 4.979341 8
-31.675436 -16.197018 4.986532 8
-30.750694 -15.597712 4.853909 8
-30.996481 -15.595342 4.880858 8
-27.780968 -13.866521 4.438119 6
-28.815336 -14.265319 4.572580 7
-31.479153 -15.326000 4.920703 8
-31.639784 -15.276361 4.936099 8
-31.463495 -15.065161 4.906143 8
-31.688211 -15.045333 4.930227 8
-31.460026 -14.811974 4.893508 8
-28.732321 -13.082910 4.506111 6
-29.002590 -13.091613 4.536929 6
-29.994104 -13.184808 4.653094 7
-29.441845 -12.831134 4.574765 7
-29.336746 -12.672984 4.555846 6
-32.135410 -13.741880 4.920581 8
-32.238194 -13.661109 4.928759 8
-30.794147 -12.945421 4.733446 7
-30.927391 -12.882496 4.745955 7
-31.332790 -12.929318 4.794240 7
-31.370445 -12.825369 4.794190 7
-30.578522 -12.160921 4.676034 7
-62.780342 -6.903039 8.446159 47
-1.998674 -2.390415 1.184182 3
-2.004249 -2.705448 1.240318 2
-2.016520 -2.792011 1.255762 11
-2.022651 -2.788004 1.255064 31
-2.028882 -2.791851 1.255769 35
-2.035292 -2.787795 1.255071 60
-2.041366 -2.783724 1.254373 72
-2.047210 -2.783576 1.254377 82
-2.053600 -2.791273 1.255784 91
-2.059247 -2.775331 1.252981 80
-2.065970 -2.782972 1.254389 80
-2.071811 -2.782743 1.254393 84
-2.077960 -2.782481 1.254397 88
-2.084414 -2.782183 1.254402 88
-2.090560 -2.781877 1.254406 84
-2.096705 -2.781550 1.254411 100
-2.102542 -2.781219 1.254415 100
-2.108378 -2.780869 1.254420 100
-2.115339 -2.788318 1.255828 100
-2.121236 -2.783976 1.255131 100
-2.126515 -2.775708 1.253732 100
-2.132935 -2.779182 1.254439 66
-2.138755 -2.770831 1.253041 63
-2.145204 -2.778210 1.254450 63
-2.151643 -2.777665 1.254455 63
-2.157420 -2.773202 1.253759 88
-2.162864 -2.768749 1.253062 74
-2.167145 -2.752520 1.250259 38
-2.175539 -2.775436 1.254477 28
-2.180444 -2.763061 1.252377 10
-2.196062 -2.793070 1.258004 1
-2.203138 -2.800199 1.259414 1
-2.209196 -2.795531 1.258719 1
-2.215553 -2.798737 1.259426 1
-2.222243 -2.801880 1.260135 1
-2.228958 -2.804999 1.260843 1
-2.247346 -2.893940 1.276998 1
-2.271864 -3.025740 1.300876 3
-2.300725 -3.184745 1.329670 34
-2.309385 -3.191479 1.331082 11
-2.327378 -3.264477 1.344431 13
-2.318117 -3.146425 1.323375 11
-2.338649 -3.230935 1.338831 9
-2.360994 -3.323108 1.355693 11
-2.369648 -3.325722 1.356404 7
-2.377052 -3.320530 1.355711 6
-2.395747 -3.333367 1.358540 1
-2.409234 -3.363003 1.364168 1
-2.429423 -3.431417 1.376818 1
-2.435720 -3.418279 1.374722 2
-2.446952 -3.432230 1.377542 2
-2.459749 -3.453871 1.381766 2
-2.473447 -3.479319 1.386694 2
-2.488843 -3.512429 1.393026 2
-2.504477 -3.545460 1.399359 2
-2.517207 -3.562977 1.402883 2
-2.530863 -3.584292 1.407109 2
-2.543863 -3.601689 1.410634 2
-2.555341 -3.611325 1.412753 2
-2.568952 -3.632554 1.416980 2
-2.581466 -3.645930 1.419803 2
-2.593621 -3.659354 1.422625 2
-2.605918 -3.668676 1.424747 2
-2.616045 -3.670379 1.425463 2
-2.628000 -3.679709 1.427584 2
-2.639563 -3.689100 1.429705 2
-2.653060 -3.702041 1.432530 2
-2.662889 -3.703682 1.433246 2
-2.674160 -3.708991 1.434665 2
-2.685947 -3.714133 1.436086 2
-2.698295 -3.723159 1.438209 3
-2.706721 -3.716895 1.437521 3
-2.720170 -3.729633 1.440347 3
-2.730169 -3.731032 1.441064 3
-2.741695 -3.736063 1.442484 3
-2.753740 -3.740915 1.443906 3
-2.764879 -3.745982 1.445327 3
-2.773306 -3.739507 1.444640 3
-2.781079 -3.729087 1.443251 3
-2.794466 -3.741601 1.446077 3
-2.803954 -3.738810 1.446093 3
-2.816821 -3.747303 1.448219 3
-2.824043 -3.736898 1.446829 3
-2.832359 -3.730240 1.446143 3
-2.843672 -3.734984 1.447565 3
-2.851245 -3.724361 1.446176 3
-2.864259 -3.732628 1.448302 3
-2.872507 -3.725846 1.447616 3
-2.879496 -3.715296 1.446227 3
-2.891361 -3.719687 1.447651 3
-2.900772 -3.716558 1.447668 3
-2.910172 -3.713397 1.447686 3
-2.920835 -3.713928 1.448407 3
-2.927653 -3.703254 1.447018 3
-2.936539 -3.700162 1.447036 3
-2.945035 -3.692998 1.446351 3
-2.957862 -3.700973 1.448478 3
-2.969883 -3.705019 1.449903 3
-2.973374 -3.686991 1.447108 3
-2.981772 -3.679710 1.446424 3
-2.992419 -3.679955 1.447146 3
-3.000302 -3.672790 1.446461 3
-3.009548 -3.669281 1.446480 3
-3.020198 -3.669415 1.447203 3
-3.029432 -3.665837 1.447222 3
-3.042514 -3.673402 1.449351 3
-3.050771 -3.665903 1.448668 3
-3.058527 -3.658563 1.447984 3
-3.064308 -3.647738 1.446595 3
-3.070485 -3.636718 1.445208 3
-3.078102 -3.629325 1.444524 3
-3.093261 -3.640081 1.447359 3
-3.099335 -3.628990 1.445971 3
-3.106433 -3.621706 1.445287 3
-3.112845 -3.610397 1.443901 3
-3.125007 -3.613720 1.445329 3
-3.134047 -3.609776 1.445349 3
-3.141481 -3.602200 1.444666 3
-3.150481 -3.598199 1.444687 3
-3.156232 -3.586986 1.443300 3
-3.166808 -3.586518 1.444025 3
-3.172023 -3.575476 1.442637 3
-3.181373 -3.571162 1.442659 3
-3.188154 -3.563662 1.441975 3
-3.198697 -3.563060 1.442701 3
-3.209251 -3.562415 1.443426 3
-3.216408 -3.554628 1.442744 3
-3.228673 -3.557453 1.444174 3
-3.232330 -3.542534 1.442083 2
-2.932601 -2.895705 1.314659 1
-2.875587 -2.765731 1.289321 1
-2.904779 -2.808338 1.298493 1
-2.904311 -2.777628 1.293594 14
-2.926447 -2.806077 1.299948 65
-2.921720 -2.781898 1.295738 56
-2.929696 -2.782151 1.296459 56
-2.934294 -2.775256 1.295771 59
-2.941966 -2.775617 1.296491 56
-2.951831 -2.779244 1.297917 59
-2.963926 -2.786111 1.300048 60
-2.970080 -2.782735 1.300065 56
-2.975915 -2.779508 1.300081 56
-2.984274 -2.779355 1.300803 48
-2.992339 -2.779337 1.301525 49
-3.006254 -2.789553 1.304361 60
-3.017985 -2.796454 1.306492 61
-3.018266 -2.782661 1.304395 60
-3.026389 -2.782498 1.305118 56
-3.036516 -2.785695 1.306545 59
-3.042975 -2.781883 1.306564 58
-3.050824 -2.781796 1.307286 58
-3.061020 -2.784866 1.308714 54
-3.059312 -2.767496 1.305912 23
-3.428229 -3.340325 1.427930 1
-3.459555 -3.371874 1.435713 1
-3.463165 -3.360343 1.434326 1
-3.460419 -3.338820 1.430823 1
-3.466388 -3.330383 1.430143 1
-3.476558 -3.328566 1.430873 1
-3.476468 -3.309901 1.428078 1
-3.486590 -3.308034 1.428808 1
-3.489851 -3.296502 1.427421 1
-3.491278 -3.281426 1.425330 1
-3.421085 -3.157901 1.399960 1
-3.354391 -3.041464 1.375998 1
-3.356676 -3.030433 1.374608 1
-3.348183 -3.002892 1.369692 1
-3.308363 -2.929961 1.354897 1
-3.319156 -2.932093 1.356329 1
-3.310415 -2.904616 1.351412 1
-3.296649 -2.871006 1.345083 1
-3.314123 -2.882782 1.348632 1
-3.329735 -2.891020 1.351477 1
-3.327407 -2.873329 1.348677 1
-3.356900 -2.900613 1.355758 1
-3.339980 -2.864250 1.348720 1
-3.351054 -2.865915 1.350154 1
-3.324774 -2.816821 1.340293 1
-3.364217 -2.856198 1.350200 1
-3.370612 -2.851424 1.350222 1
-3.343811 -2.802613 1.340360 1
-3.350019 -2.797911 1.340382 1
-3.375347 -2.818205 1.346053 1
-3.395710 -2.832350 1.350312 1
-3.331742 -2.737481 1.329853 1
-3.347718 -2.744998 1.332701 1
-3.409413 -2.811691 1.348967 1
-3.435213 -2.831447 1.354641 1
-3.449205 -2.835405 1.356785 1
-3.449443 -2.809943 1.353300 16
-3.465317 -2.817332 1.356149 14
-3.474074 -2.815248 1.356879 19
-3.485344 -2.816159 1.358316 35
-3.489079 -2.807938 1.357634 30
-3.502896 -2.811778 1.359778 47
-3.514216 -2.812535 1.361216 46
-3.525560 -2.813235 1.362654 43
-3.539803 -2.816599 1.364800 42
-3.553776 -2.820154 1.366946 41
-3.559731 -2.814991 1.366970 38
-3.563389 -2.806572 1.366288 35
-3.575127 -2.806735 1.367728 29
-3.604872 -2.827723 1.374117 41
-3.621346 -2.834132 1.376970 43
-3.620075 -2.819399 1.374876 33
-3.641891 -2.831519 1.379144 38
-3.650853 -2.828684 1.379877 35
-3.654486 -2.820011 1.379196 29
-3.660753 -2.814224 1.379223 15
-3.677737 -2.819935 1.382079 5
-3.700170 -2.831290 1.386350 2
-3.733200 -2.854257 1.393450 1
-3.734476 -2.842188 1.392064 1
-3.738095 -2.833279 1.391384 1
-12.430067 -11.601586 3.610758 1
-12.512908 -11.541478 3.613913 63
-12.552325 -11.507487 3.614788 52
-12.577623 -11.459523 3.612123 14
-28.802584 -15.669263 6.462883 6
-30.199612 -16.305262 6.740161 6
-29.075855 -15.452565 6.489007 31
-29.365461 -14.408433 6.453889 6
-29.581947 -14.395255 6.488494 6
-29.461655 -14.218748 6.455419 6
-29.688709 -14.209125 6.492167 6
35.689327 -9.030017 11.208864 10
35.710396 -9.172125 11.221742 10
-2.557979 -2.774319 1.426045 1
-2.564092 -2.772360 1.426056 1
-2.570199 -2.770379 1.426068 1
-2.576298 -2.768378 1.426079 1
-12.529964 -11.568014 4.894193 56
-12.575794 -11.543940 4.898455 60
-12.613332 -11.511522 4.899640 22
-6.545569 1.207726 -0.009083 1
-6.532740 1.223309 -0.008644 53
-6.519749 1.238757 -0.008198 1
-6.515383 1.243877 -0.008048 1
-6.511218 1.248726 -0.007905 1
-6.541413 1.321881 -0.028162 53
-6.528486 1.319069 -0.024602 1
-6.532317 1.331999 -0.027850 1
-6.435394 1.334452 -0.005820 53
-6.430930 1.339035 -0.005667 1
-6.425978 1.344083 -0.005497 1
-6.421245 1.348874 -0.005334 1
-6.465017 1.402789 -0.025537 1
-6.446893 1.393777 -0.019720 1
-6.407185 1.362911 -0.004850 1
-6.402386 1.367636 -0.004685 1
-6.432122 1.408322 -0.019212 1
-6.440405 1.427020 -0.024690 1
-6.435383 1.431863 -0.024517 1
-6.383027 1.386369 -0.004019 1
-6.378147 1.391010 -0.003851 1
-6.420468 1.446048 -0.024004 1
-6.415380 1.450821 -0.023829 1
-6.410274 1.455577 -0.023653 1
-6.387035 1.435255 -0.014543 1
-6.402584 1.467885 -0.024427 1
-6.348776 1.418267 -0.002839 1
-6.369286 1.451473 -0.013932 1
-6.338527 1.427516 -0.002486 1
-6.366387 1.469531 -0.016948 1
-6.366086 1.500480 -0.023169 53
-6.358319 1.502141 -0.021863 1
-6.353034 1.506697 -0.021681 1
-6.335652 1.496312 -0.015889 1
-6.322748 1.492167 -0.012328 1
-6.337087 1.520254 -0.021131 1
-6.331740 1.524736 -0.020947 1
-6.314238 1.514327 -0.015150 1
-6.277746 1.479737 -0.000391 1
-6.272801 1.483796 -0.000221 1
-6.310466 1.542255 -0.020213 1
-6.261823 1.492711 0.000158 1
-6.293876 1.555581 -0.019641 1
-6.246027 1.505306 0.000703 1
-6.253325 1.548320 -0.009933 1
-6.247880 1.552508 -0.009745 1
-6.235518 1.547452 -0.006203 1
-6.243819 1.570076 -0.012721 1
-6.244107 1.593863 -0.017923 53
-6.231730 1.588698 -0.014380 1
-6.214909 1.577235 -0.008607 1
-6.229490 1.609397 -0.018456 1
-6.221607 1.610372 -0.017145 1
-6.176087 1.557947 0.003118 1
-6.224593 1.638962 -0.023998 1
-6.170653 1.597080 -0.004482 1
-6.175838 1.616866 -0.009853 1
-6.163600 1.648455 -0.014622 53
-6.172829 1.674641 -0.022209 1
-6.133690 1.640638 -0.007358 1
-6.136746 1.652416 -0.010578 1
-6.124204 1.651402 -0.008068 1
-6.128639 1.671400 -0.013413 1
-6.112584 1.658855 -0.007666 1
-6.112110 1.670533 -0.010246 1
-6.102505 1.667497 -0.007837 1
-6.120384 1.710708 -0.020915 1
-6.090185 1.675161 -0.007411 1
-6.078362 1.668893 -0.003887 1
-6.053109 1.639273 0.007370 1
-6.096265 1.725480 -0.020080 1
-6.076588 1.705910 -0.012131 1
-6.072528 1.712803 -0.013029 1
-6.064889 1.712854 -0.011726 1
-6.071942 1.739914 -0.019238 1
-6.046844 1.710038 -0.007987 1
-6.048385 1.726904 -0.012193 1
-6.031367 1.710065 -0.005375 1
-6.034680 1.730292 -0.010681 1
-6.030454 1.737086 -0.011573 1
-6.020671 1.733743 -0.009157 1
-6.005437 1.720205 -0.003439 1
-6.001211 1.726916 -0.004331 1
-6.016807 1.770969 -0.017329 1
-6.016826 1.801531 -0.024597 1
-5.998113 1.780991 -0.016682 1
-5.979864 1.760180 -0.008782 1
-5.985905 1.787400 -0.016259 1
-5.970957 1.773489 -0.010550 1
-5.961284 1.769812 -0.008138 1
-5.949937 1.762644 -0.004631 1
-5.953937 1.786480 -0.010998 1
-5.942605 1.779250 -0.007491 1
-5.929659 1.768498 -0.002890 1
-5.941731 1.809719 -0.014728 1
-5.935377 1.812819 -0.014507 1
-5.912633 1.781085 -0.003338 1
-5.912881 1.798030 -0.007499 1
-5.904148 1.795789 -0.005639 2
-5.900244 1.804005 -0.007061 2
-5.892320 1.803455 -0.005748 1
-5.875263 1.781668 0.002111 1
-5.867754 1.780877 0.003409 8
-5.867399 1.797941 -0.000731 8
-5.860000 1.799158 0.000045 8
-5.854446 1.803738 -0.000282 8
-5.840850 1.788706 0.005381 9
-5.842241 1.800701 0.002218 9
-5.835308 1.810005 0.000901 10
-5.827473 1.809178 0.002211 10
-5.824789 1.820774 -0.000291 9
-5.813305 1.810991 0.003741 9
-5.806226 1.811857 0.004506 11
-5.800976 1.818186 0.003650 11
-5.796009 1.824372 0.002784 8
-5.792412 1.834130 0.000833 8
-5.783190 1.829529 0.003229 11
-5.774330 1.824759 0.005613 11
-5.771664 1.836144 0.003110 10
-5.765218 1.838648 0.003334 10
-5.758092 1.839326 0.004100 12
-5.748310 1.832749 0.007035 12
-5.741877 1.835172 0.007259 13
-5.740001 1.850251 0.003691 13
-5.732214 1.849018 0.004999 11
-5.727643 1.856832 0.003601 11
-5.717325 1.848273 0.007073 13
-5.713346 1.857869 0.005135 13
-5.705909 1.856410 0.006432 15
-5.703695 1.871459 0.002875 15
-5.697735 1.875553 0.002564 11
-5.691419 1.867538 0.005378 11
-5.679471 1.865481 0.007350 12
-5.675867 1.876831 0.004880 12
-5.668444 1.875222 0.006176 12
-5.664413 1.886661 0.003721 12
-5.654375 1.877751 0.007184 8
-5.650037 1.887214 0.005259 8
-5.645973 1.896565 0.003324 9
-5.636014 1.887555 0.006784 9
-5.631566 1.896977 0.004863 15
-5.621889 1.889843 0.007794 15
-5.613664 1.886268 0.009637 19
-5.610191 1.899343 0.006644 19
-5.604044 1.903139 0.006339 14
-5.601969 1.921775 0.001740 14
-5.588661 1.899516 0.008950 15
-5.582493 1.903242 0.008645 15
