# .PCD v.7 - Point Cloud Data file format
VERSION .7
FIELDS x y z intensity
SIZE 4 4 4 1
TYPE F F F U
COUNT 1 1 1 1
WIDTH 1445
HEIGHT 1
VIEWPOINT 0 0 0 1 0 0 0
POINTS 1445
DATA ascii
-66.847549 63.750080 8.927941 53
-66.265358 63.623150 8.884853 54
-66.148521 63.947701 8.899090 54
-65.684349 63.930607 8.870393 54
-65.127861 63.818314 8.830061 54
-64.727493 63.835762 8.807583 55
-64.260605 63.805550 8.778123 55
-63.719212 63.696201 8.739136 55
-63.056763 63.458504 8.684627 56
-62.435596 63.256969 8.635022 57
-61.996384 63.238281 8.608294 57
-61.486385 63.142471 8.572386 57
-61.043697 63.113155 8.544916 58
-60.697693 63.182896 8.529768 58
-60.161129 63.047543 8.489923 58
-58.292160 62.740353 8.363068 60
-57.409988 62.201359 8.276526 61
-57.139824 62.332359 8.270436 61
-56.564110 62.141911 8.225209 61
-56.217949 62.183105 8.208851 61
-54.366528 61.763763 8.077843 63
-54.003567 61.770817 8.058580 63
-53.543129 61.660725 8.025869 63
-53.063538 61.523811 7.990312 63
-52.962177 61.812031 8.005245 63
-52.879387 62.145874 8.024482 63
-52.822803 62.513657 8.047608 63
-52.781971 62.903347 8.073213 63
-52.686172 63.228642 8.091387 63
-50.741524 61.271362 7.848707 61
-50.453251 61.345013 7.838869 61
-49.956352 61.155758 7.799281 61
-48.659306 61.237541 7.738155 60
-47.604214 60.712013 7.645980 59
-47.262825 60.696430 7.627534 59
-40.485592 52.134434 6.657233 48
-46.429348 60.456097 7.567913 58
-39.708698 52.211178 6.624041 48
-38.732018 51.252575 6.504650 46
-40.356617 53.859718 6.778307 49
-44.888630 60.514427 7.495882 57
-38.170742 51.589581 6.502172 46
-44.138191 60.365398 7.448177 57
-38.447552 52.717228 6.599963 47
-38.895031 53.741825 6.698419 48
-38.335289 53.350060 6.642120 48
-42.732136 60.118755 7.362092 56
-36.015022 50.729786 6.333982 44
-35.684288 50.617702 6.309875 44
-36.381771 52.026661 6.449544 46
-34.924484 50.236141 6.245280 42
-35.735519 51.831024 6.404513 45
-41.632477 61.162434 7.389815 56
-34.727215 51.068779 6.299713 44
-34.760361 51.503654 6.334566 44
-40.403328 61.086246 7.327802 55
-41.271141 63.423195 7.547220 58
-41.207310 63.782974 7.572225 58
-41.157787 64.193871 7.601898 58
-41.080814 64.564461 7.627302 58
-41.020416 64.965889 7.655907 59
-32.812183 51.921009 6.279954 43
-32.295433 51.464958 6.221879 41
-32.169922 51.656113 6.231431 41
-31.840603 51.504089 6.205371 41
-31.750656 51.755859 6.221322 41
-40.608997 67.381416 7.827539 60
-39.649609 66.256638 7.698344 59
-39.543724 66.574867 7.719051 59
-39.286812 66.657188 7.714857 59
-29.802757 50.352928 6.028751 35
-29.811041 50.773193 6.062477 36
-29.444664 50.543968 6.029230 35
-28.992949 50.133457 5.978117 33
-29.315281 51.133389 6.071010 36
-39.978172 71.261650 8.109861 63
-29.255682 51.845020 6.125595 38
-28.095123 50.093613 5.938939 32
-28.101942 50.522812 5.973713 33
-29.668859 53.938976 6.310243 44
-27.606600 50.417698 5.945883 32
-27.677994 50.981667 5.994209 33
-28.283337 52.578468 6.146698 38
-28.104755 52.673615 6.147585 38
-27.632935 52.184082 6.089942 36
-27.296097 51.955894 6.058692 35
-27.519409 52.858849 6.140578 38
-26.397350 51.021816 5.949035 32
-27.328257 53.391064 6.176932 39
-27.672426 54.578453 6.286686 43
-43.567497 88.449043 9.640435 47
-43.173386 88.446014 9.625934 47
-43.000793 88.874550 9.654950 47
-26.767199 54.599667 6.255811 42
-25.526043 52.364079 6.027656 34
-25.986027 53.853317 6.166716 39
-25.915712 54.191170 6.192185 40
-25.464619 53.655491 6.132235 38
-55.070629 121.174500 12.745087 63
-54.575371 121.187668 12.729292 63
-39.538170 87.658653 9.434072 49
-39.214741 87.741737 9.430128 49
-38.833500 87.687981 9.412948 49
-38.530411 87.816193 9.413629 49
-38.258942 87.977463 9.418200 49
-38.295639 88.928452 9.498952 48
-37.754398 88.483238 9.444190 49
-21.860983 50.123550 5.718060 24
-21.711464 50.248203 5.723782 24
-22.471125 52.664532 5.950879 31
-21.792240 51.467682 5.828921 27
-35.696682 87.746902 9.317491 50
-21.500622 51.764820 5.844997 28
-21.901644 53.351765 5.991297 33
-20.881283 51.199165 5.778412 26
-20.783718 51.473969 5.798774 26
-20.874041 52.235046 5.865990 29
-32.567688 84.817680 8.975561 54
-20.171808 51.414124 5.775729 26
-31.866020 84.706726 8.945804 54
-20.314093 52.941216 5.909830 30
-31.331652 85.060211 8.960743 54
-20.026138 53.286526 5.931188 31
-20.458857 55.151402 6.102589 36
-19.444939 52.773510 5.871265 29
-19.377459 53.174355 5.903763 30
-19.601292 54.434895 6.017876 33
-18.964752 53.117516 5.887821 29
-19.346035 54.924595 6.053152 35
-18.906040 54.195396 5.978935 32
-18.537460 54.323853 5.980515 32
-18.437588 54.629902 6.004385 33
-18.267591 54.710949 6.007120 33
-17.836077 53.988022 5.933941 31
-17.673443 54.119545 5.941331 31
-17.893654 55.528923 6.068703 35
-16.746979 52.302429 5.761582 25
-16.580721 52.399734 5.766082 25
-16.530668 52.877537 5.806393 26
-15.940876 51.453808 5.669014 22
-15.978858 53.000404 5.804449 26
-15.960831 53.665077 5.861954 28
-15.916901 54.286446 5.915167 30
-15.475898 53.310272 5.820371 27
-15.301213 53.350964 5.820166 27
-15.210390 53.764309 5.854366 28
-15.765450 56.799721 6.131532 37
-14.667830 53.143364 5.788723 26
-14.214126 52.056232 5.684213 22
-14.533094 54.204014 5.878952 29
-14.334496 54.193272 5.874064 29
-14.002477 53.640213 5.818999 27
-22.004728 89.984085 9.167120 52
-21.190935 89.168770 9.080024 53
-31.647255 139.434845 13.699463 63
-35.349941 159.399261 15.526025 63
-34.763046 159.493332 15.523801 63
-34.146465 159.298508 15.495737 63
-33.629528 159.447403 15.499907 63
-33.056641 159.459305 15.491168 63
-32.760582 160.904846 15.613976 63
-32.178852 160.890091 15.603054 63
-10.231205 51.494389 5.565381 18
-10.078680 51.672451 5.579023 19
-10.194304 53.509590 5.743950 24
-10.159213 54.506771 5.832153 27
-9.784149 53.278214 5.717792 23
-9.917566 55.469421 5.914612 30
-9.704171 55.335178 5.899906 29
-9.557052 55.669689 5.927857 30
-8.779677 52.723587 5.655709 21
-8.440470 51.441959 5.537376 17
-8.417881 52.621449 5.642386 21
-8.242774 52.687199 5.646292 21
-8.065885 52.740486 5.649117 21
-8.015990 53.905384 5.752672 25
-14.283672 112.104980 11.019872 63
-7.808639 55.459564 5.889498 29
-7.357041 52.963421 5.661797 22
-7.274074 53.965034 5.750628 24
-8.167831 65.129951 6.758202 49
-7.917109 64.865654 6.732294 48
-7.921127 67.417641 6.960883 51
-6.559452 54.227833 5.767859 25
-7.282275 65.209541 6.757773 49
-6.976917 64.207092 6.665531 48
-6.678327 63.199341 6.572928 47
-2.626760 11.777769 1.932307 110
-2.583972 11.692537 1.924395 114
-2.538299 11.543492 1.910749 104
-2.497962 11.477813 1.904628 67
-2.457047 11.352203 1.893132 104
-2.419078 11.314079 1.889518 29
-3.950763 59.591537 6.233408 40
-3.748112 59.665848 6.239303 41
-2.175361 11.764367 1.929042 7
-2.137330 11.741157 1.926852 17
-2.097793 11.733771 1.926092 14
-2.060412 11.750126 1.927482 9
-2.024824 11.770323 1.929232 6
-1.989190 11.822273 1.933846 1
-1.748594 50.250912 5.388266 14
-1.576676 50.229973 5.386257 14
-1.225635 50.122437 5.376483 14
-1.044393 50.641399 5.423155 14
-0.669885 60.276970 6.289376 42
-0.711644 50.418991 5.403349 14
-0.365970 50.421051 5.403920 29
-0.187904 50.566502 5.417264 29
-0.023331 50.341084 5.397313 28
0.153640 50.441509 5.406708 29
0.332991 50.577118 5.419318 14
0.511138 50.668308 5.427985 14
0.853399 50.566353 5.419896 14
1.034225 50.683506 5.431051 14
1.217064 50.955612 5.456168 15
1.365444 50.554684 5.420802 29
2.275924 60.986675 6.360598 44
2.492246 61.062927 6.368445 44
2.708535 61.130455 6.375570 45
2.167190 51.853615 5.541137 18
3.140000 61.231419 6.386937 45
3.352848 61.241051 6.389034 45
3.795387 63.753326 6.616751 47
2.950721 52.560520 5.609120 20
3.155107 52.788898 5.630922 21
3.239945 51.831440 5.545828 18
3.445175 52.074482 5.569052 19
3.608182 51.996891 5.563334 19
3.725195 51.434788 5.513991 17
4.098712 53.112362 5.666923 22
4.165605 52.129677 5.579691 19
4.339816 52.072414 5.576079 19
5.782868 62.017906 6.476734 46
4.909848 53.662758 5.723173 24
5.135065 53.946480 5.750612 25
5.406316 54.548965 5.806972 27
5.581230 54.504536 5.804767 27
7.143683 62.406063 6.524798 46
7.376100 62.492104 6.534984 46
7.590528 62.527756 6.540547 46
7.824172 62.612110 6.550718 47
8.052774 62.660191 6.557668 47
8.289659 62.754589 6.568893 47
8.506541 62.790989 6.574785 47
8.745442 62.887581 6.586352 47
8.973369 62.916557 6.591844 47
9.211518 62.999588 6.602324 47
9.441740 63.034691 6.608514 47
9.684816 63.135509 6.620761 47
9.986289 63.536716 6.660462 48
9.160468 58.129185 6.170568 39
10.456177 63.676765 6.679588 48
9.796330 58.193085 6.185613 40
11.204900 63.931072 6.713307 48
10.796912 60.934864 6.442846 45
11.696490 64.132111 6.738765 49
11.935800 64.169685 6.745942 49
12.190318 64.272453 6.759167 49
12.446607 64.378105 6.772739 49
10.846174 56.439384 6.048218 35
10.530137 54.222256 5.848154 29
11.133494 55.930115 6.008539 34
11.364691 56.046738 6.022883 35
11.161444 54.390396 5.874149 30
11.383575 54.487320 5.886715 30
11.628448 54.709309 5.910694 31
11.875911 54.123524 5.864252 29
11.981052 53.770615 5.835516 28
11.711368 51.322845 5.616905 21
11.918068 50.708160 5.567671 20
11.986455 50.287567 5.532567 18
12.149792 50.207966 5.529110 37
12.418319 50.491302 5.559422 19
12.554411 50.347809 5.549942 19
14.465764 56.135185 6.092725 37
14.162472 54.400200 5.935982 32
14.219811 53.299637 5.842262 29
14.394107 53.216248 5.839087 29
14.772676 53.777931 5.896283 31
15.273946 54.069141 5.933210 65
15.500958 54.166920 5.947079 33
15.745650 54.283379 5.963032 33
15.261541 52.197784 5.772389 27
15.559423 51.932480 5.757156 26
15.776537 51.983929 5.767076 27
15.921513 51.827766 5.757482 26
16.017548 51.536076 5.735118 26
16.303215 51.776722 5.763106 27
16.558109 51.926117 5.782572 27
22.043852 66.303925 7.150775 53
22.324587 66.361694 7.163274 54
23.762056 69.533623 7.471347 57
24.057854 69.592461 7.484487 57
18.791162 54.573597 6.068120 37
18.631231 53.614082 5.982658 34
18.923023 53.280384 5.962965 34
19.197979 53.436283 5.984087 34
19.436691 53.498653 5.996349 35
19.653271 53.530605 6.005460 35
19.943682 53.712425 6.029379 36
20.357401 54.183105 6.081230 38
20.858606 54.849640 6.152155 40
20.391567 53.238461 6.003463 35
21.062136 54.290382 6.111843 39
20.778355 53.132324 6.006677 35
20.926886 52.488106 5.957923 34
21.112335 52.444672 5.960269 34
21.301033 52.407833 5.963317 34
21.713856 52.837391 6.012228 36
22.043247 53.076519 6.042753 37
22.178009 52.891281 6.031956 36
22.708607 53.527416 6.101945 39
22.590017 52.803692 6.038545 37
22.973146 53.164204 6.081067 38
23.221018 53.213261 6.093534 38
23.553642 53.410831 6.121112 39
23.750662 53.350090 6.122977 40
23.880358 53.152939 6.111437 39
24.368479 53.697899 6.172919 41
24.755793 53.574352 6.176640 41
24.937510 53.477257 6.175296 41
25.095089 53.333515 6.169368 41
25.443550 53.556770 6.200066 42
25.651125 53.506668 6.203632 42
26.017336 53.754974 6.237117 44
27.003748 55.157375 6.386392 46
27.105810 54.894642 6.369140 45
27.040808 53.864349 6.284283 45
27.221485 53.755848 6.282521 45
27.423105 53.685009 6.284623 45
27.692928 53.734974 6.299024 45
27.838352 53.584373 6.292728 45
28.116766 53.646137 6.308517 45
28.348253 53.623726 6.315862 45
29.050711 54.432796 6.407565 46
29.447779 54.662708 6.441513 46
29.560186 54.425793 6.427389 46
29.804537 54.434032 6.437899 46
35.370487 63.302242 7.358854 56
30.722986 55.114929 6.528612 47
30.802076 54.820141 6.508847 47
31.032660 54.754066 6.513231 47
31.207706 54.618271 6.509950 47
32.698257 56.614914 6.727275 50
32.091412 55.218067 6.593531 48
32.265736 55.075333 6.589869 48
32.411625 54.888371 6.581647 48
32.700958 54.925640 6.596896 48
32.936069 54.897396 6.604840 48
33.116158 54.742470 6.600745 48
33.327812 54.656353 6.603360 48
33.494728 54.522457 6.600430 48
33.982338 54.849159 6.646779 49
34.465992 55.163181 6.692051 49
34.704197 55.108307 6.698470 49
35.796112 56.303036 6.837775 51
36.004929 56.193916 6.838903 51
35.761833 55.432228 6.770462 50
35.954082 55.303516 6.769496 50
36.453053 55.610889 6.815347 51
36.542000 55.353161 6.800105 51
36.967758 55.549324 6.834392 51
37.309536 55.603657 6.854274 51
37.726837 55.779305 6.886775 52
39.660252 58.049030 7.145832 54
39.273823 57.127121 7.059327 54
39.408073 56.899593 7.048834 53
39.486465 56.598328 7.030319 53
40.659000 57.756676 7.171506 55
40.741692 57.455036 7.153308 55
41.163494 57.580261 7.182786 55
42.239246 58.573696 7.307441 56
42.228111 58.144825 7.275621 56
58.261803 78.351723 9.528555 46
58.450577 78.037598 9.515007 46
59.035507 78.226585 9.557503 45
59.545593 78.315750 9.589181 45
60.218987 78.604439 9.643453 44
60.837593 78.818031 9.689690 63
61.388077 78.941658 9.726158 63
61.954304 79.107468 9.766534 63
62.568947 79.299095 9.811293 63
62.839600 79.070351 9.808760 63
63.472336 79.274834 9.855556 63
64.066223 79.427078 9.896763 63
64.672279 79.588280 9.939330 63
49.232849 60.950424 7.828729 62
65.939522 79.958252 10.030972 63
66.619339 80.187729 10.082471 63
52.260201 63.165226 8.141654 61
52.419250 62.909748 8.132204 61
50.861176 60.713673 7.897377 63
52.842648 62.519749 8.127511 61
53.001415 62.265816 8.118399 61
52.969482 61.822983 8.086164 61
72.205681 82.552139 10.542236 63
72.336800 82.125290 10.520022 63
72.633331 81.880142 10.519277 63
73.137863 81.858772 10.545174 63
74.454269 82.702217 10.674163 63
75.157944 82.850937 10.722692 63
75.492859 82.633331 10.726357 63
76.457001 83.102341 10.811044 63
78.721222 83.720421 10.978035 63
79.635254 84.075226 11.052734 63
80.765709 84.639999 11.153626 63
81.479294 84.774330 11.202677 63
82.285118 84.994736 11.262736 63
83.235077 85.350731 11.340005 63
62.925613 64.792961 8.836202 52
62.814556 64.240379 8.793724 53
63.120991 64.097153 8.801939 53
67.333565 67.249283 9.249015 48
65.431931 64.981911 8.992542 51
65.667168 64.779999 8.993202 51
67.995399 66.516014 9.240238 48
68.302719 66.344749 9.247245 48
68.700447 66.255966 9.264908 47
92.373375 87.513138 12.008582 63
93.176003 87.639572 12.063969 63
94.893425 88.617744 12.227422 63
95.791397 88.842232 12.294888 63
97.811111 89.998299 12.487746 63
97.981865 89.494690 12.466482 63
98.874100 89.658524 12.530202 63
100.083885 90.092430 12.629924 63
100.830696 90.145294 12.678266 63
101.717857 90.313835 12.742356 63
102.796028 90.575661 12.823903 63
104.016739 90.980804 12.923051 63
105.110527 91.268044 13.007390 63
73.752441 64.377022 9.451623 45
107.978470 92.412712 13.252822 63
108.891006 92.486160 13.313498 63
114.240807 94.204079 13.748395 63
114.674934 93.884865 13.756638 63
117.829086 95.037331 14.022613 63
118.960922 95.279266 14.108162 63
123.638443 97.558685 14.537095 63
123.899109 97.061714 14.524889 63
126.703255 97.717323 14.741651 63
130.590103 98.483086 15.035129 63
15.011411 13.200924 2.746845 2
137.690216 100.730087 15.621943 63
139.770874 101.470665 15.798952 63
15.112425 13.004212 2.742504 2
15.160843 12.949120 2.742644 2
15.260193 12.756475 2.738664 244
15.284718 12.685119 2.736421 244
15.322179 12.622636 2.735537 186
15.342844 12.548965 2.732955 230
15.379814 12.486304 2.732070 239
15.399911 12.412572 2.729488 239
15.453075 12.360631 2.730299 214
15.449228 12.271611 2.725342 243
15.475142 12.202159 2.723439 243
15.497424 12.130520 2.721197 243
15.564620 12.091773 2.723726 104
178.149582 111.594444 18.906887 63
45.372093 28.057291 5.576627 28
29.551716 15.806594 3.886342 13
28.465384 8.362747 3.539216 5
46.948639 -7.173476 4.880486 14
-98.218079 0.941371 8.936309 47
-79.064117 18.951086 7.666335 63
-112.463364 28.773584 10.627436 63
-21.653721 11.486746 2.892795 20
-21.718700 11.610146 2.903326 15
-21.734009 11.707541 2.909025 10
-21.913229 11.894997 2.930961 15
-21.290497 11.638091 2.873414 30
-21.227158 11.686666 2.871131 27
-161.639771 94.069473 17.014227 63
-160.677826 94.252853 16.954344 63
-139.871460 83.949989 14.953756 63
-137.791687 83.346260 14.775392 63
-134.803146 82.170074 14.503669 63
-134.579666 82.670944 14.513364 63
-134.347534 83.167046 14.522357 63
-132.823029 82.855194 14.398814 63
-128.511215 80.774048 13.987864 63
-127.353706 80.657608 13.900547 63
-20.248766 11.575902 3.665577 7
-20.145035 11.690423 3.662490 28
-143.865082 86.537766 22.194361 63
-134.041107 81.815315 20.810810 63
-133.622543 82.192635 20.793894 63
-133.381531 82.679024 20.803928 63
-133.153107 83.141815 20.813782 63
-127.587173 80.268707 20.016584 63
-127.118317 80.585449 19.990824 63
-126.170540 80.624016 19.894432 63
-117.371185 76.096664 18.636583 63
-116.805901 76.301147 18.593208 63
-116.617943 76.780701 18.610073 63
-116.378601 77.198128 18.617105 63
-116.190460 77.650177 18.632284 63
-116.000206 78.130646 18.649643 63
-115.776085 78.530785 18.657526 63
-115.602913 78.966209 18.673561 63
-115.348457 79.404831 18.681725 63
-100.588089 69.707680 16.414793 63
-100.336525 70.018471 16.413622 63
-99.229561 69.750046 16.279907 63
-96.996765 68.645760 15.965875 63
-96.708015 68.940147 15.960136 63
-93.743950 68.282051 15.608895 63
-92.668777 67.982216 15.476912 63
-92.427605 68.293755 15.478197 63
-92.310036 68.722504 15.501558 63
-89.444901 67.053207 15.079744 63
-89.319710 67.415039 15.097184 63
-88.734161 67.449455 15.042151 63
-87.941162 67.295967 14.951200 63
-87.179306 67.184456 14.866967 63
-86.363998 67.048958 14.775648 63
-85.861458 67.129555 14.733284 63
-85.414459 67.227425 14.697953 63
-84.519226 66.988274 14.590574 63
-83.778107 66.865593 14.508225 63
-83.073586 66.790192 14.433622 63
-82.382202 66.696480 14.358885 63
-81.630417 66.524345 14.271730 63
-80.942558 66.422470 14.196930 63
-80.532860 66.523987 14.166550 63
-77.124130 65.460182 13.749526 46
-76.727150 65.574394 13.722191 46
-76.165680 65.543419 13.666652 47
-73.517403 65.017967 13.372458 49
-72.733185 64.762856 13.276784 50
-72.635582 65.101181 13.298452 49
-72.563316 65.486664 13.326876 49
-72.486298 65.869743 13.354787 49
-70.457703 64.446793 13.038877 51
-69.838051 64.314819 12.970250 52
-69.330032 64.282516 12.921103 52
-68.673225 64.105667 12.845238 53
-68.136238 64.037209 12.790396 53
-67.583374 63.949291 12.732450 53
-67.057617 63.883091 12.679102 54
-66.507538 63.789101 12.621110 54
-65.788902 63.525471 12.532270 55
-65.216919 63.399681 12.469603 55
-65.065598 63.665054 12.481345 55
-64.837700 63.876575 12.481339 55
-63.268795 63.192089 12.278322 56
-63.026005 63.380245 12.275182 56
-62.724457 63.485744 12.259104 57
-62.152935 63.332237 12.194747 57
-61.676579 63.272858 12.147853 57
-61.201374 63.210915 12.100940 58
-60.735512 63.155067 12.055551 58
-60.327785 63.157459 12.020947 58
-59.780102 63.006893 11.959569 59
-59.228828 62.825806 11.895011 59
-58.759918 62.750919 11.848000 59
-58.289558 62.670589 11.800453 60
-57.522011 62.258629 11.695225 60
-57.081879 62.201691 11.652783 61
-56.711575 62.219307 11.623713 61
-56.262806 62.146103 11.579178 61
-55.849327 62.109196 11.541320 62
-55.423710 62.055229 11.500871 62
-55.087612 62.100822 11.477921 62
-54.795918 62.195858 11.463719 62
-54.073093 61.786655 11.363443 63
-53.703777 61.762856 11.331110 63
-53.196526 61.594788 11.273049 63
-52.786842 61.969360 11.278547 63
-52.720070 62.323685 11.309647 63
-52.658997 62.687477 11.342294 63
-52.595997 63.051590 11.374940 63
-50.693394 61.147545 11.027938 60
-50.480339 61.314236 11.028558 60
-50.086651 61.233109 10.989387 59
-49.665619 61.157379 10.948764 59
-50.340740 62.448708 11.136168 61
-50.087540 62.546345 11.126909 61
-49.838039 62.670135 11.120794 61
-49.248245 62.373905 11.044519 60
-47.529755 60.572609 10.723448 56
-47.408440 60.824505 10.740966 56
-46.972153 60.681953 10.692951 56
-46.468483 60.445007 10.629943 55
-46.145981 60.882027 10.652634 55
-45.788731 60.834332 10.621094 55
-45.362377 60.688629 10.574040 54
-45.877682 61.843304 10.736240 56
-44.262470 61.365715 10.567526 54
-35.236389 48.820389 8.554309 31
-42.464943 60.087105 10.299882 50
-42.135445 60.047794 10.272345 100
-41.806717 60.006905 10.244795 100
-41.690735 60.280766 10.266888 50
-41.628239 60.637108 10.301908 100
-41.557178 60.983799 10.335378 100
-41.490696 61.340675 10.370399 100
-41.426529 61.704468 10.406454 100
-41.371048 62.085209 10.445097 100
-41.307014 62.432713 10.479557 100
-41.249458 62.817444 10.518717 100
-41.200562 63.195671 10.557835 100
-41.136539 63.577732 10.596478 100
-41.034218 63.926495 10.628950 54
-41.071980 64.481293 10.693997 55
-40.902828 65.207321 10.765070 56
-40.779400 65.485664 10.788652 56
-40.720505 65.900055 10.831955 57
-40.681419 66.352356 10.880954 58
-40.641659 66.808594 10.930472 58
-40.545238 67.172829 10.966004 59
-40.506317 67.640198 11.017078 59
-40.325924 68.383667 11.091206 60
-40.255928 68.810776 11.136061 61
-40.181473 69.234764 11.180397 61
-40.110298 69.669456 11.226289 62
-40.040379 70.111427 11.273215 62
-39.960228 70.539825 11.318069 63
-39.883213 70.978966 11.364476 63
-39.834679 71.446739 11.416029 63
-101.876717 188.507416 28.735872 63
-101.218925 188.851654 28.737406 63
-100.455032 188.993317 28.709360 63
-99.691315 189.051529 28.671854 63
-98.132713 189.256149 28.606304 63
-97.327881 189.220337 28.556278 63
-27.721016 52.301331 8.469358 31
-95.731293 189.404602 28.488077 63
-27.796930 53.362099 8.599051 31
-27.652079 53.530384 8.610979 31
-26.869781 52.384869 8.431953 31
-27.088449 53.300961 8.552835 31
-26.587187 52.696522 8.453665 31
-26.794027 53.603558 8.572994 31
-90.284294 189.821014 28.240116 63
-87.228653 190.132278 28.117064 63
-86.440987 190.146408 28.078192 63
-85.972008 190.875504 28.142099 63
-86.186722 193.172897 28.430304 63
-79.657616 190.675232 27.806120 63
-52.404457 127.918625 18.851179 63
-51.861862 127.843033 18.816748 63
-51.346310 127.831726 18.791649 63
-50.819370 127.721016 18.754023 63
-71.487556 191.163773 27.493511 63
-45.309021 120.791153 17.655493 63
-44.371422 120.810585 17.617945 63
-43.873829 120.733360 17.587454 63
-43.424164 120.721848 17.567310 63
-42.009388 120.679543 17.504299 63
-41.985664 122.012329 17.669739 63
-64.312309 191.865875 27.283808 63
-61.524338 192.234482 27.222488 63
-60.139038 192.370071 27.187784 63
-17.145157 52.225601 7.967346 31
-16.906998 52.076580 7.939996 31
-16.667866 51.918903 7.911598 31
-16.951815 53.590977 8.132846 31
-16.745834 53.599785 8.126817 31
-16.127861 52.051102 7.909585 31
-16.096571 52.602749 7.978421 31
-15.768221 52.104294 7.904220 31
-15.865175 53.186951 8.044843 31
-15.556749 52.755707 7.979991 31
-37.175125 137.091827 19.399704 63
-14.956249 51.952465 7.858595 31
-15.030751 52.964565 7.989837 31
-14.819483 52.890564 7.973860 31
-35.112679 136.824951 19.301397 63
-34.613716 136.839661 19.288233 63
-14.271961 53.010883 7.972715 31
-33.581608 136.712967 19.241570 63
-33.044209 136.548126 19.204950 63
-32.529301 136.474045 19.180801 63
-32.017868 136.409637 19.158197 63
-20.944061 89.436386 12.827994 54
-10.398735 54.628826 8.084604 31
-10.196184 54.559986 8.071605 31
-10.170322 55.663071 8.214195 31
-9.798018 54.455349 8.050273 31
-9.606090 54.447079 8.045583 31
-9.368299 54.108170 7.997175 31
-9.312253 55.016670 8.114245 31
-8.465333 50.076389 7.456979 30
-8.709764 53.324234 7.883666 31
-8.554984 53.571808 7.913295 31
-8.324184 53.208725 7.862260 31
-8.101597 52.891937 7.817465 31
-8.165788 55.052578 8.099977 31
-7.778192 53.288353 7.864196 31
-7.668890 53.990547 7.954159 31
-7.432285 53.517097 7.889050 31
-7.255457 53.602993 7.897826 31
-6.993207 52.720291 7.779116 31
-8.371631 69.365501 9.970182 46
-8.021091 68.151169 9.807207 44
-6.556197 53.987206 7.939123 31
-7.357556 65.860023 9.499980 40
-6.194531 54.128757 7.953492 31
-6.738701 63.725143 9.214076 36
-6.441282 62.665554 9.072423 34
-6.163091 61.774799 8.953139 33
-5.886505 60.811630 8.824490 31
-2.504982 11.513627 2.342266 111
-2.462085 11.388705 2.325588 115
-2.422198 11.311159 2.315154 113
-2.217700 11.822152 2.381007 4
-2.178802 11.771443 2.374207 18
-2.140261 11.720596 2.367405 13
-2.102975 11.737029 2.369444 33
-2.065382 11.733502 2.368882 16
-2.027915 11.745708 2.370399 13
-1.990455 11.789513 2.376075 10
-1.713231 60.186821 8.721642 31
-1.505530 60.296677 8.735938 31
-1.298033 60.318558 8.738790 31
-1.100402 60.363655 8.744768 31
-0.897287 60.118435 8.712771 31
-0.482112 60.188938 8.722592 31
-0.272555 60.278599 8.734772 31
-0.372737 50.655594 7.473293 31
0.127281 50.152901 7.409084 90
0.301425 50.196850 7.415569 30
1.059945 62.048656 8.971423 33
0.959294 49.808743 7.368195 58
1.131618 49.825989 7.371538 29
1.311236 49.949478 7.388906 29
1.506779 50.285946 7.434328 30
1.981810 51.949081 7.655550 31
2.010557 50.088890 7.412596 30
3.121908 61.211704 8.876240 32
3.343076 61.316109 8.891938 32
2.609447 51.064510 7.545640 31
4.218109 63.724270 9.215307 73
3.171432 51.293251 7.581442 31
4.664130 63.858326 9.237800 37
4.891499 63.905827 9.246686 74
5.062115 63.444077 9.188578 36
5.227304 62.962212 9.127874 35
3.961909 50.611465 7.502247 31
4.280875 51.775425 7.658142 31
4.258798 50.175488 7.449559 31
4.585538 51.345230 7.606466 31
4.611833 50.201691 7.458117 31
4.956684 51.439823 7.624338 31
4.987635 50.382465 7.487416 31
5.142634 50.236248 7.470914 31
5.288117 50.090816 7.454432 31
5.390461 49.550232 7.386010 29
5.848879 50.249908 7.484788 31
6.265309 51.729691 7.684104 31
6.212847 50.367840 7.506761 31
6.547366 51.297157 7.633412 31
7.024826 53.014225 7.864824 31
6.929725 51.412369 7.655827 31
9.177620 62.896561 9.185396 36
9.642820 62.992805 9.207554 73
9.877988 63.049362 9.219918 74
10.178019 63.435970 9.276347 37
10.413100 63.478851 9.287137 37
10.658854 63.628033 9.311948 38
10.879251 63.591412 9.312353 38
11.140066 63.748142 9.338670 38
11.381535 63.806824 9.352018 38
11.626922 63.880089 9.367432 38
11.878091 63.975651 9.385946 39
12.120582 64.027641 9.398751 39
12.361848 64.070976 9.410512 39
12.624097 64.202278 9.434180 39
12.853947 64.189636 9.438671 39
13.117877 64.318932 9.462321 40
13.366214 64.426689 9.482889 40
13.603856 64.438324 9.490982 40
13.874912 64.534843 9.510942 40
14.098407 64.532005 9.516983 40
14.390302 64.748390 9.553014 41
14.627979 64.748543 9.560037 41
12.176756 54.558071 8.191478 31
15.174689 65.010582 9.609780 42
15.407649 64.984871 9.613672 42
15.667316 65.099060 9.636230 42
15.938088 65.205292 9.658219 42
16.207029 65.257622 9.673432 42
16.467216 65.361031 9.694925 43
16.736240 65.448730 9.714816 43
16.989328 65.478249 9.726936 43
17.254164 65.544807 9.744221 43
17.527710 65.636887 9.765117 44
14.325666 54.339439 8.233371 31
18.084459 65.840393 9.809980 44
18.314507 65.781425 9.810678 44
18.770058 65.687332 9.815199 44
15.380587 54.465282 8.286738 31
19.330540 65.872757 9.858935 45
19.594635 65.911018 9.873551 45
19.873150 65.989586 9.893843 45
20.143656 66.078362 9.915203 46
20.444214 66.177010 9.939044 46
15.905348 52.385883 8.047230 31
21.013695 66.344650 9.982136 47
21.287626 66.428864 10.003454 47
21.490685 66.276428 9.992693 47
21.646927 65.996613 9.964370 46
21.953230 66.129822 9.993363 47
22.237293 66.198463 10.013566 47
22.696243 66.730156 10.098291 97
23.970407 69.399544 10.480840 53
24.240522 69.390144 10.491158 100
24.353390 68.972794 10.444697 53
24.460522 68.582260 10.401388 52
24.558071 68.173325 10.355502 51
24.672209 67.778267 10.312147 51
24.785395 67.386917 10.269312 100
25.072571 67.429138 10.287345 51
25.432318 67.612137 10.325943 51
25.734941 67.684677 10.348594 51
25.999138 67.694939 10.362004 52
26.348032 67.870949 10.399584 52
26.671225 67.949150 10.424206 52
26.985229 68.034576 10.449385 53
27.297010 68.111343 10.473521 53
21.367901 54.027519 8.487405 31
21.296051 53.391552 8.407201 62
21.587688 53.552628 8.440828 62
21.906885 53.770138 8.482685 31
28.899897 68.604530 10.611132 55
22.310045 53.677956 8.491673 31
29.771368 69.247223 10.731850 56
30.063620 69.251007 10.747124 57
23.304071 54.356777 8.623263 31
23.265348 53.302876 8.495717 31
23.361240 53.036186 8.469037 62
23.647842 53.161175 8.498961 31
24.377457 54.177048 8.658014 31
24.580477 53.681309 8.610312 62
24.757267 53.574234 8.607268 31
25.072941 53.738392 8.643817 31
33.829826 70.258011 11.066192 61
34.245136 70.435959 11.110044 61
34.607605 70.537422 11.142120 62
35.020363 70.759308 11.191211 62
36.831264 71.155708 11.340936 63
37.260948 71.380188 11.391976 62
37.742210 71.087502 11.386550 62
38.201351 71.324028 11.441066 62
38.615131 71.475685 11.483242 62
38.934517 71.488342 11.503918 61
40.574375 72.009949 11.663653 60
40.937126 72.051285 11.690849 60
41.360485 72.189224 11.732901 60
42.117794 72.306969 11.793878 59
42.524075 72.405266 11.830750 59
42.956890 72.541916 11.873754 59
43.380600 72.659645 11.914177 59
43.788864 72.776581 11.953636 58
44.230263 72.913582 11.997608 58
44.761227 73.156792 12.059403 58
45.193066 73.269089 12.100260 57
45.556969 73.301353 12.127867 57
46.002613 73.454399 12.174402 57
46.420666 73.534126 12.211107 57
46.890751 73.687546 12.259566 56
47.338032 73.802429 12.302374 56
47.811298 73.951126 12.350790 56
48.289989 74.075562 12.397050 55
49.116653 74.724838 12.524702 54
49.530704 74.770630 12.558209 54
50.012638 74.937080 12.609685 54
50.195118 74.648422 12.591007 54
50.945259 75.157135 12.698587 53
51.016632 74.711113 12.655354 53
51.508934 74.850365 12.705132 53
52.428288 75.570457 12.847877 52
57.353264 81.729935 13.860551 63
57.453506 81.306404 13.822342 63
57.575035 80.885452 13.786077 63
57.708641 80.483658 13.752882 63
57.811455 80.043945 13.713562 46
57.933556 79.632881 13.678841 46
58.065594 79.237679 13.646675 47
58.200451 78.848793 13.615534 47
58.274841 78.384781 13.572149 47
58.415264 78.008629 13.543055 47
58.706219 77.825493 13.545585 47
59.288017 78.007675 13.608280 47
61.626610 78.722252 13.859906 63
62.336876 79.032677 13.946409 63
62.839806 79.085670 13.990591 63
63.038601 78.770782 13.973628 63
63.808243 79.135399 14.070740 63
64.393951 79.274651 14.130641 63
66.275925 79.805504 14.332569 63
66.897781 79.964630 14.397951 63
67.542519 80.144226 14.467374 63
68.725502 80.926598 14.640532 63
69.289452 80.999443 14.693089 63
69.952774 81.178604 14.764436 63
70.421440 81.136223 14.798127 63
72.260132 82.597298 15.092563 63
72.351997 82.127129 15.053494 63
72.559845 81.785645 15.036789 63
73.271133 81.987328 15.115087 63
73.960342 82.158943 15.188776 63
74.801292 82.485580 15.290364 63
75.328712 82.473412 15.333007 63
75.846016 82.447067 15.373596 63
76.567101 82.657715 15.454392 63
77.368217 82.916206 15.546695 63
78.185951 83.184296 15.641494 63
78.914787 83.354240 15.719509 63
79.723892 83.599098 15.811691 63
80.409714 83.712784 15.881010 63
80.883408 83.638214 15.914432 63
82.428436 84.622742 16.140480 63
83.300529 84.869484 16.238937 63
84.981804 85.307060 16.425720 63
87.701637 86.199547 16.746590 63
88.530434 86.357811 16.834137 63
88.886230 86.095749 16.841303 63
91.951706 87.168060 17.211973 63
92.997810 87.488693 17.334713 63
93.373199 87.223328 17.344265 63
95.371452 88.414711 17.631905 63
97.810760 90.009407 17.995928 63
97.985374 89.509048 17.966747 63
98.186966 89.065384 17.945311 63
99.330597 89.476883 18.086226 63
99.945534 89.357285 18.131781 63
100.680412 89.399628 18.202890 63
102.034782 89.966881 18.377487 63
103.110306 90.253403 18.501860 63
104.425667 90.733055 18.665548 63
105.426765 90.905594 18.773478 63
106.281021 90.947723 18.856628 63
108.333267 92.003960 19.139681 63
114.476868 93.704109 19.863714 63
119.289810 94.799026 20.414759 63
121.120529 95.564323 20.654259 63
123.859863 97.006996 21.037630 63
124.173569 96.516548 21.027374 63
125.496391 96.819809 21.180344 63
128.066879 97.338295 21.472490 63
129.521774 97.706909 21.644360 63
131.320541 98.314606 21.869444 63
136.712036 99.311394 22.479914 63
140.091263 101.000816 22.948376 63
144.669235 101.943062 23.477982 63
147.475433 103.107727 23.849239 63
149.720062 103.866425 24.133030 63
152.725906 104.335190 24.471523 63
15.888462 12.735041 3.659209 3
15.874905 12.552856 3.644081 10
167.409576 109.124382 26.324387 63
167.615753 108.424324 26.293530 63
179.357544 111.474915 27.726717 63
45.456173 27.888042 7.818939 31
29.598410 15.695073 5.318370 8
-97.828728 3.537105 12.875883 49
-97.783203 3.870699 12.874176 49
-79.109657 18.907480 10.930161 63
-51.074432 14.385262 7.383466 31
-21.684889 11.567266 3.820822 19
-21.298132 11.622254 3.782288 11
-21.226738 11.758954 3.783810 18
-117.282959 75.520676 26.773853 45
-117.041183 75.964409 26.784372 45
-116.856911 76.417534 26.805084 45
-116.644646 76.852936 26.819876 45
-116.453369 77.331749 26.842943 45
-116.241310 77.739586 26.855358 45
-116.044083 78.157867 26.871462 45
-115.860992 78.615494 26.894365 45
-100.516548 68.663528 23.456886 45
-98.391335 68.175682 23.080776 45
-97.750198 68.227402 22.990011 45
-96.994347 68.193764 22.872578 45
-96.029678 68.030685 22.709341 45
-95.104752 67.863533 22.551859 45
-94.181084 67.665428 22.391256 45
-93.273552 67.496399 22.236650 45
-92.816231 67.674881 22.189484 45
-92.734024 68.103874 22.227343 45
-90.685875 67.070343 21.803799 45
-90.181519 67.199341 21.744688 45
-89.484238 67.131378 21.634218 45
-87.562424 66.624008 21.292637 45
-86.954826 66.607323 21.202070 45
-86.256142 66.539337 21.092316 45
-85.285690 66.229744 20.914238 45
-85.340843 66.744209 20.984535 45
-83.644753 66.337753 20.690693 45
-82.971786 66.264969 20.585238 45
-82.104996 66.029762 20.432291 45
-81.450851 65.960945 20.330477 45
-80.834587 65.918343 20.237535 45
-80.117485 65.810616 20.122410 45
-79.445999 65.689102 20.012251 45
-78.755867 65.569672 19.899933 45
-78.138802 65.483727 19.802328 45
-77.009407 64.979156 19.580124 45
-76.316887 64.838799 19.465479 45
-75.668625 64.753532 19.364256 45
-75.085777 64.674995 19.273211 45
-74.593605 64.694092 19.207474 45
-74.066856 64.679306 19.132807 45
-73.121140 64.288063 18.951937 45
-72.964233 64.616722 18.973097 45
-72.901207 64.986168 19.012642 45
-72.833969 65.376190 19.054504 45
-70.795822 63.965115 18.592001 45
-70.401108 64.022690 18.546072 45
-69.773308 63.861897 18.439949 45
-67.612534 63.587772 18.113619 45
-67.067108 63.503578 18.029749 45
-66.240532 63.143147 17.871521 45
-65.673531 63.027225 17.780907 45
-65.461731 63.254814 17.783951 45
-65.218353 63.451309 17.778807 45
-64.740036 63.392036 17.708139 45
-64.174141 63.263309 17.616705 45
-63.690182 63.212311 17.546814 45
-63.154942 63.105499 17.462772 45
-62.604717 62.978859 17.374243 45
-62.116379 62.911156 17.302059 45
-61.626534 62.837975 17.229111 45
-61.108032 62.730915 17.147955 45
-60.710205 62.746284 17.099524 45
-60.234726 62.676781 17.029491 45
-59.749702 62.593250 16.956465 45
-59.196331 62.432320 16.864063 45
-58.666145 62.291363 16.777594 45
-58.289280 62.291023 16.730494 45
-57.528809 61.889290 16.578463 45
-57.194065 61.948978 16.545540 45
-56.733410 61.866840 16.476858 45
-56.318352 61.853271 16.423862 45
-56.243778 63.045925 16.587816 45
-54.467205 61.440048 16.138386 45
-53.162998 61.202354 15.946856 45
-53.117336 61.555012 15.993462 45
-53.051662 61.907921 16.037891 45
-53.004265 62.285263 16.088284 45
-52.954853 62.663017 16.138678 45
-51.058094 60.793495 15.637428 45
-49.699516 60.825218 15.484636 45
-48.725906 60.452862 15.316802 45
-48.399143 60.464024 15.281337 45
-48.015091 60.399090 15.227958 45
-47.711964 60.414532 15.196144 45
-47.284294 60.286686 15.128563 45
-46.905598 60.219196 15.075887 45
-46.386051 59.961456 14.978427 45
-46.021847 59.905376 14.929450 45
-45.719486 59.929512 14.899861 45
-45.700661 60.314739 14.957528 45
-45.025936 60.262695 14.875916 45
-44.657467 60.189610 14.824642 45
-44.275124 60.115677 14.771909 45
-43.926987 60.064453 14.726578 45
-43.599110 60.017101 14.684174 45
-43.221123 59.917496 14.628365 45
-42.518753 59.806965 14.536913 90
-42.176598 59.727184 14.488485 90
-41.999657 59.909515 14.499092 45
-41.953148 60.263527 14.550729 90
-41.877316 60.622025 14.600215 90
-41.820747 60.990173 14.653391 90
-41.753441 61.345528 14.703579 90
-41.692741 61.714298 14.756755 90
-41.636368 62.093266 14.812172 90
-41.590706 62.468960 14.868293 90
-41.530048 62.848625 14.923711 90
-41.450024 63.225555 14.976931 45
-41.361958 63.569248 15.024127 45
-41.401684 64.096153 15.113880 45
-41.259460 64.360405 15.143140 45
-41.216782 64.788414 15.209021 45
-41.123417 65.112801 15.253182 45
-41.081116 65.575272 15.325088 45
-40.984573 65.927048 15.373775 45
-40.959858 66.376762 15.445597 45
-40.893559 66.813568 15.511521 45
-40.869621 67.274467 15.585588 45
-40.692066 68.041382 15.696417 45
-40.623417 68.466034 15.760804 45
-40.562199 68.880867 15.824403 45
-40.488640 69.306183 15.888789 45
-40.418327 69.742104 15.955420 45
-40.337151 70.191933 16.023584 45
-40.268070 70.611496 16.087931 45
-40.194710 71.086113 16.161331 45
-40.085079 71.440659 16.211460 45
-91.434517 189.116745 40.652267 45
-90.617630 189.176987 40.597954 45
-89.900902 189.360855 40.573471 45
-89.150986 189.470703 40.533997 45
-88.393394 189.473221 40.475689 45
-87.602173 189.484161 40.416695 45
-86.959450 189.731445 40.410763 45
-80.827614 190.066818 40.017139 45
-80.097038 190.174072 39.984119 45
-77.852562 190.344131 39.857212 45
-76.364304 190.456375 39.775234 45
-74.914871 190.652451 39.712650 45
-73.406792 190.679428 39.617756 45
-72.001709 190.863068 39.559425 45
-71.335617 190.998474 39.541069 45
-70.580238 191.092712 39.510067 45
-69.890053 191.260925 39.496971 45
-69.126274 191.219177 39.441883 45
-68.461662 191.348267 39.424191 45
-67.698273 191.405197 39.387852 45
-66.968666 191.447723 39.351433 45
-66.244583 191.502396 39.317993 45
-65.556717 191.550674 39.285976 45
-64.027824 191.392624 39.168015 45
-61.938957 191.751465 39.114594 45
-61.258823 191.918549 39.107239 45
-57.756985 192.143677 38.959873 45
-57.019005 192.222458 38.935940 45
-8.812259 69.567963 14.116603 45
-8.470684 68.535568 13.913991 45
-8.124788 67.376450 13.687375 45
-7.822299 66.480843 13.511764 45
-7.473134 65.103439 13.243890 45
-7.168226 64.143410 13.056268 45
-6.842268 62.829517 12.801141 45
-2.700341 11.812847 3.030705 148
-2.657411 11.736958 3.015680 148
-2.617428 11.700118 3.008154 113
-2.574533 11.608216 2.990127 137
-2.532929 11.527916 2.974350 148
-2.495924 11.490527 2.966823 176
-2.455294 11.409925 2.951045 153
-2.415925 11.344869 2.938266 137
-2.377175 11.283591 2.926236 183
-3.719062 59.573757 12.145675 44
-2.207501 11.737142 3.011544 9
-2.169544 11.718307 3.007756 13
-2.132288 11.734695 3.010715 24
-2.092700 11.723477 3.008422 12
-2.057122 11.731725 3.009881 12
-2.021671 11.771286 3.017337 4
-1.885484 59.576923 12.139155 44
-1.680458 59.619576 12.147147 44
-1.474809 59.700798 12.162630 44
-1.264154 60.158466 12.250074 90
-1.049812 59.970924 12.214552 3
-0.851720 60.085480 12.236774 45
-0.643381 60.159863 12.251480 45
-0.434913 60.217796 12.263181 45
-0.226484 60.259293 12.271876 45
-0.016074 60.351101 12.290310 45
0.191868 60.355782 12.292247 45
0.403455 60.450035 12.311417 45
0.613010 60.480728 12.318587 45
0.824828 60.553852 12.333996 45
1.036201 60.606606 12.345650 45
1.247345 60.646835 12.355049 45
1.451283 60.737911 12.374203 45
1.674635 60.791733 12.386569 45
1.880771 60.897030 12.408706 45
2.307909 60.986431 12.430442 45
2.524652 61.065254 12.448044 45
2.738628 61.100208 12.457397 45
3.166809 61.160000 12.474584 90
3.585311 63.612385 12.946933 90
3.821285 63.658207 12.959218 3
4.049330 63.731567 12.976761 3
4.275240 63.776730 12.989053 90
4.494168 63.857384 13.008102 90
4.710768 63.700516 12.982156 45
4.857717 63.119568 12.874608 45
5.012525 62.544937 12.768538 45
5.167046 62.001213 12.668461 45
5.821440 62.040314 12.689507 45
6.045035 62.090752 12.703998 45
6.267505 62.128689 12.716234 45
6.713293 62.277565 12.754939 45
6.941044 62.340294 12.772395 45
7.180074 62.400585 12.789818 45
7.414842 62.500431 12.814745 45
7.615453 62.445759 12.809747 45
7.880964 62.730198 12.870590 45
8.087902 62.641228 12.859563 45
8.535620 62.734203 12.889914 45
8.758138 62.735958 12.896831 45
8.976683 62.713696 12.899251 45
9.231210 62.951679 12.951835 45
9.717837 63.097958 12.994773 45
10.043621 63.624165 13.104164 45
10.280925 63.734478 13.132761 45
10.507103 63.726105 13.138874 45
10.760717 63.795582 13.160659 45
11.477948 65.032112 13.417463 45
12.233385 65.324097 13.500013 45
12.471977 65.335564 13.511296 45
12.693356 65.269524 13.507614 45
12.769907 64.578743 13.382031 45
12.958827 64.385468 13.353667 45
13.184029 64.348343 13.355958 45
13.451789 64.486084 13.392635 45
13.713174 64.592201 13.423322 45
13.951652 64.601959 13.435308 45
14.199556 64.693634 13.463022 45
14.471150 64.827171 13.499660 45
14.738912 64.940575 13.532551 45
17.093775 65.616966 13.769128 45
17.372458 65.727089 13.803413 45
17.665752 65.840157 13.839140 45
17.924767 65.917549 13.866723 45
18.337088 65.646034 13.838880 45
18.621902 65.799400 13.882122 45
18.911421 65.884453 13.913319 45
19.184397 65.953255 13.940815 45
19.482372 66.132927 13.989997 45
20.291229 66.276947 14.061940 45
20.615410 66.477570 14.117002 45
20.941263 66.676735 14.172050 45
21.203451 66.689102 14.189769 45
21.443571 66.637520 14.194793 45
21.718761 66.718582 14.225974 45
22.021793 66.801262 14.259287 45
22.517897 66.765518 14.283500 45
23.808855 69.500946 14.854685 90
23.992382 69.263702 14.823814 45
24.104107 68.842598 14.755649 45
24.220316 68.439857 14.691216 45
24.322306 68.041725 14.626837 45
24.433594 67.639069 14.562410 45
24.615303 67.385056 14.529252 90
24.912100 67.452255 14.561011 45
25.220337 67.577507 14.603994 90
25.527884 67.663948 14.640203 45
25.863556 67.814362 14.689816 45
26.199091 67.959610 14.738670 45
26.505262 68.030991 14.772605 45
26.813824 68.104660 14.807272 45
27.143543 68.223869 14.851614 45
27.449265 68.283981 14.884022 45
27.779558 68.396713 14.927593 45
28.109400 68.504372 14.970406 45
28.415646 68.587166 15.007303 45
29.251934 69.200905 15.176341 45
29.575924 69.277138 15.213881 45
29.900829 69.351944 15.251407 45
30.250319 69.444580 15.294072 45
30.566835 69.525627 15.332378 45
30.925098 69.659859 15.383266 45
31.259047 69.739342 15.422973 45
31.616322 69.832672 15.467070 45
31.947153 69.929085 15.509789 45
32.248959 69.902985 15.529296 45
32.634251 70.102013 15.594316 45
32.943321 70.144867 15.626577 45
33.300819 70.250328 15.673643 45
33.695385 70.424065 15.735574 45
34.118706 70.648239 15.808645 45
34.469421 70.727470 15.851199 45
34.843113 70.846832 15.902664 45
35.625877 71.139160 16.018188 45
36.376041 71.324074 16.113499 45
36.750469 71.424110 16.162653 45
37.188007 71.663300 16.240852 45
37.566292 71.155487 16.188869 45
38.107685 71.567551 16.305670 45
38.500660 71.683167 16.359951 45
38.882553 71.804016 16.414289 45
39.242531 71.854767 16.455162 45
39.617748 71.900002 16.496691 45
40.059010 72.110352 16.571779 45
40.846668 72.300674 16.675697 45
41.213783 72.345932 16.717236 45
41.585827 72.396210 16.760244 45
41.948593 72.400261 16.794991 45
42.367725 72.548370 16.858833 45
42.809189 72.700012 16.925549 45
43.231319 72.816177 16.984821 45
43.646435 72.944862 17.045639 45
44.132549 73.125069 17.121861 45
44.514469 73.193336 17.170027 45
44.957043 73.324242 17.234417 45
45.422371 73.457825 17.301672 45
45.866077 73.608940 17.369816 45
46.343594 73.778961 17.444529 45
46.818512 73.940002 17.517736 45
47.284164 74.082306 17.587215 45
47.786724 74.274284 17.668537 45
48.135899 74.236534 17.697935 45
48.525562 74.255501 17.740665 45
48.987701 74.375961 17.807098 45
49.850060 75.064209 18.004698 45
50.387280 75.278198 18.094049 45
50.874931 75.444077 18.170870 45
51.363586 75.579041 18.243130 45
51.811752 75.625565 18.297495 45
52.296398 75.746071 18.367487 45
57.058090 81.741592 19.807108 45
57.160625 81.320747 19.752588 45
57.303078 80.927666 19.706858 45
57.405876 80.484184 19.649281 45
57.534653 80.078659 19.600594 45
57.666069 79.679474 19.553392 45
57.773331 79.223045 19.494986 45
57.897995 78.820953 19.447050 45
58.021477 78.448059 19.403662 45
58.154205 78.061623 19.359430 45
58.605522 78.083237 19.412870 45
59.143093 78.210526 19.492182 45
59.888096 78.593239 19.633606 45
60.466724 78.760155 19.723955 45
60.985485 78.847549 19.795790 45
61.367908 78.790909 19.830732 45
61.951160 78.949471 19.921007 45
62.488735 79.047318 19.997210 45
62.889538 78.976112 20.032728 45
63.590981 79.261711 20.156189 45
64.165955 79.390099 20.241922 45
64.821510 79.608307 20.350536 45
65.446182 79.784058 20.449512 45
66.093422 79.980225 20.554367 45
66.742851 80.172836 20.659191 45
67.311684 80.267143 20.740349 45
68.367661 80.910332 20.959583 45
69.126518 81.205811 21.093102 45
69.888298 81.496964 21.226578 45
71.810646 83.100708 21.689411 45
71.941788 82.670799 21.643391 45
72.076118 82.246796 21.598852 45
72.359886 81.987961 21.596382 45
73.312416 82.452881 21.779123 45
74.834763 82.943993 22.036005 45
75.038094 82.559158 22.006771 45
77.357010 83.299446 22.399612 45
78.022278 83.411530 22.498734 45
78.719513 83.550896 22.605932 45
79.479370 83.748055 22.729315 45
80.853172 84.558067 23.015541 45
81.653206 84.777863 23.147669 45
82.380539 84.918205 23.259861 45
83.207756 85.151222 23.397804 45
84.036888 85.408249 23.539530 45
84.960228 85.690765 23.697134 45
85.832375 85.944687 23.844522 45
86.738533 86.223518 23.999966 45
88.031715 86.863480 24.254759 45
88.242416 86.494362 24.232819 45
92.850746 87.769287 25.011112 45
94.236122 88.421661 25.281681 45
95.089417 88.610817 25.420668 45
97.481743 90.173454 25.945728 45
97.626617 89.646416 25.896744 45
98.078316 89.392891 25.924965 45
98.998756 89.580086 26.073898 45
100.387146 90.167458 26.338190 45
100.778122 89.910027 26.358561 45
104.084671 90.845360 26.931171 45
105.316071 91.246849 27.151798 45
108.646667 92.769547 27.804535 45
109.377670 92.688637 27.896254 45
110.611000 93.046310 28.112930 45
112.082291 93.619629 28.389921 45
112.993370 93.695038 28.527185 45
113.409943 93.334656 28.541658 45
115.307587 94.216766 28.917524 45
116.506569 94.496437 29.121407 45
117.774864 94.786789 29.336771 45
118.861877 94.992996 29.516508 45
121.438873 96.342285 30.046768 45
123.478371 97.220299 30.443953 45
125.649261 97.442017 30.782495 45
126.534424 97.372566 30.902103 45
129.593246 98.238281 31.447180 45
131.169174 98.685959 31.728752 45
134.825882 99.906670 32.404442 45
138.554077 101.115242 33.090710 45
139.889267 101.321434 33.311043 45
143.173996 102.168755 33.893002 45
144.592789 102.436867 34.133831 45
149.063263 104.753021 35.058594 45
151.849335 105.053909 35.508247 45
15.863764 12.778801 4.933825 3
15.876657 12.609042 4.917349 16
167.030441 109.398865 38.273369 45
167.296097 108.736687 38.243217 45
172.419861 110.379074 39.200401 45
46.951557 -7.231435 9.871865 23
-21.385166 11.510459 5.101668 3
-21.292213 11.631091 5.098239 27
-160.414886 93.291183 35.378555 45
-145.423737 85.906914 32.258183 45
-137.593201 82.524918 30.677530 45
-135.000427 81.600456 30.174574 45
-134.777802 82.101349 30.191326 45
-134.549942 82.599609 30.207333 45
-134.266785 83.064117 30.211514 45
-123.328217 77.458221 27.917150 45
-122.435875 77.485359 27.781393 45
-120.120972 76.596130 27.327854 45
-20.216349 11.632260 6.740009 16
-144.844208 85.626015 46.391785 63
-144.058014 85.866409 46.244747 63
-134.059982 81.121208 43.238827 63
-133.805557 81.567024 43.246315 63
-133.571564 82.057274 43.265579 63
-133.339020 82.548912 43.285892 63
-127.040634 79.825172 41.435776 63
-122.087021 77.291084 39.922230 63
-121.145851 77.308685 39.711056 63
-117.363647 75.456932 38.568966 63
-116.985672 75.755249 38.529537 63
-116.781013 76.194504 38.551529 63
-116.558212 76.651123 38.572601 63
-116.379066 77.108528 38.604088 63
-116.185303 77.557007 38.631344 63
-115.957123 78.012016 38.652397 63
-115.731956 78.411469 38.665752 63
-115.591316 78.869156 38.707642 63
-100.712639 69.205917 33.850864 63
-99.846039 69.114014 33.644058 63
-98.010757 68.311356 33.108261 63
-97.147163 68.203545 32.900291 63
-96.445030 68.179131 32.741867 63
-95.519096 68.014412 32.511616 63
-94.955223 68.103668 32.402950 63
-92.798935 67.518387 31.835413 63
-92.555962 67.828323 31.834553 63
-92.534859 68.303040 31.909857 63
-90.449455 67.258858 31.282734 63
-89.573105 67.081924 31.063831 63
-88.934883 67.054886 30.922028 63
-88.182076 66.959717 30.744324 63
-87.298935 66.734528 30.516735 63
-86.486008 66.580452 30.316732 63
-86.025368 66.718864 30.242764 63
-85.603668 66.861671 30.178194 63
-84.785530 66.664261 29.970585 63
-84.108871 66.596825 29.815977 63
-83.496826 66.576248 29.683577 63
-82.374001 66.160744 29.374414 63
-81.780655 66.143585 29.247242 63
-81.098511 66.025978 29.083935 63
-80.715698 66.174049 29.030846 63
-78.326859 65.056480 28.334417 63
