# .PCD v.7 - Point Cloud Data file format
VERSION .7
FIELDS x y z intensity
SIZE 4 4 4 1
TYPE F F F U
COUNT 1 1 1 1
WIDTH 1591
HEIGHT 1
VIEWPOINT 0 0 0 1 0 0 0
POINTS 1591
DATA ascii
-9.333817 2.210292 0.027934 2
-9.329538 2.236019 0.028140 2
-9.324950 2.263016 0.028356 2
-9.316580 2.288023 0.029056 2
-9.315937 2.314392 0.028767 1
-9.326913 2.342924 0.026994 1
-9.326074 2.369357 0.026704 1
-9.309544 2.392824 0.028392 2
-9.308773 2.417941 0.028092 1
-9.303518 2.444860 0.028306 2
-9.306204 2.472050 0.027523 2
-9.309052 2.497994 0.026729 1
-9.315693 2.524784 0.025441 1
-9.298399 2.549254 0.027136 1
-9.285178 2.573178 0.028326 2
-9.295422 2.600862 0.026546 1
-9.285623 2.626866 0.027252 1
-9.291793 2.653780 0.025965 1
-9.274364 2.676682 0.027647 1
-9.268161 2.703474 0.027859 1
-9.273746 2.731728 0.026583 1
-9.275366 2.759109 0.025799 1
-9.269173 2.784628 0.026001 1
-9.259356 2.807893 0.026685 1
-9.252993 2.833356 0.026886 1
-9.242695 2.857811 0.027579 1
-9.255696 2.886941 0.025308 1
-9.248723 2.913664 0.025519 1
-9.234322 2.937037 0.026703 1
-9.227508 2.962412 0.026903 1
-9.220952 2.986497 0.027093 1
-9.221614 3.013957 0.026309 1
-9.222172 3.041446 0.025525 1
-9.214993 3.066778 0.025724 1
-9.211540 3.093191 0.025431 1
-9.204182 3.118486 0.025630 2
-9.196734 3.143755 0.025828 1
-9.193000 3.170144 0.025535 1
-9.192966 3.197691 0.024750 1
-9.181839 3.220489 0.025429 1
-9.170639 3.243236 0.026107 1
-9.166145 3.270842 0.025823 1
-9.169508 3.299611 0.024548 1
-9.161429 3.324758 0.024744 1
-9.157445 3.349859 0.024440 2
-9.152959 3.376213 0.024145 2
-9.151720 3.405083 0.023371 2
-9.147032 3.431444 0.023076 2
-9.135167 3.453970 0.023751 2
-9.119050 3.476391 0.024926 2
-9.122028 3.504058 0.023641 2
-9.112352 3.531534 0.023855 2
-9.110936 3.559165 0.023070 2
-9.094489 3.581395 0.024242 2
-9.104060 3.613120 0.021988 1
-9.094888 3.638037 0.022182 1
-9.082376 3.660284 0.022854 1
-9.084645 3.688102 0.021570 1
-9.078444 3.715611 0.021283 1
-9.065690 3.737765 0.021954 1
-9.066692 3.768122 0.020689 1
-9.053287 3.791449 0.021369 1
-9.050866 3.819129 0.020583 1
-9.037292 3.842375 0.021262 2
-9.027320 3.867057 0.021452 1
-9.024605 3.894724 0.020666 1
-9.021783 3.922407 0.019879 1
-9.023030 3.950408 0.018595 1
-9.009544 3.972262 0.019263 1
-9.002246 3.999635 0.018974 1
-8.995898 4.024539 0.018665 1
-8.987864 4.053113 0.018385 1
-8.977694 4.076397 0.018563 2
-8.970533 4.102481 0.018263 1
-8.952952 4.122461 0.019416 1
-8.957025 4.152169 0.017644 1
-8.967088 4.187678 0.014917 1
-8.945092 4.207130 0.016565 1
-8.933846 4.231488 0.016751 1
-8.933300 4.260865 0.015476 1
-8.918280 4.283483 0.016149 1
-8.906768 4.307747 0.016334 1
-8.895172 4.331971 0.016518 1
-8.887062 4.357890 0.016216 1
-8.878856 4.383793 0.015913 1
-8.866995 4.407919 0.016097 1
-8.862754 4.434345 0.015298 1
-8.850716 4.458415 0.015481 1
-8.831514 4.478847 0.016635 2
-8.833457 4.510046 0.014873 1
-8.825300 4.534637 0.014560 1
-8.817056 4.559212 0.014246 1
-8.810361 4.589203 0.013474 1
-8.791396 4.608179 0.014616 1
-8.785122 4.636930 0.013834 1
-8.768883 4.658844 0.014499 1
-8.766528 4.688271 0.013223 1
-8.750771 4.708910 0.013878 1
-8.741251 4.734506 0.013571 1
-8.732292 4.758899 0.013255 1
-8.718462 4.783690 0.013442 1
-8.712782 4.809987 0.012640 1
-8.713230 4.841398 0.010878 1
-8.683235 4.853875 0.013469 2
-8.680041 4.883286 0.012191 1
-8.680153 4.914725 0.010429 1
-8.659596 4.934125 0.011573 1
-8.649230 4.959508 0.011264 1
-8.631258 4.981955 0.011931 1
-8.628211 5.010201 0.010644 2
-8.610771 5.031387 0.011301 2
-8.596652 5.054573 0.011474 2
-8.592587 5.083966 0.010195 1
-8.578284 5.107089 0.010367 1
-8.560535 5.128052 0.011023 2
-8.556875 5.156273 0.009734 2
-8.545670 5.181403 0.009422 2
-8.531026 5.204360 0.009592 2
-8.519638 5.229423 0.009279 2
-8.511482 5.256623 0.008482 2
-8.488443 5.277383 0.009634 2
-8.483400 5.306714 0.008353 2
-8.485597 5.339329 0.006098 2
-8.475223 5.362017 0.005766 2
-9.524700 5.598105 0.053419 17
-9.474685 5.603658 0.057687 31
-9.445025 5.621481 0.059511 32
-9.425463 5.645471 0.060112 31
-9.412562 5.673614 0.059899 29
-9.389471 5.695337 0.060906 23
-9.366319 5.716956 0.061911 13
-9.363244 5.788014 0.058635 2
-9.350650 5.814709 0.058410 3
-9.330465 5.838286 0.059007 3
-9.321773 5.873145 0.057997 3
-9.305564 5.897526 0.058178 3
-9.285114 5.920910 0.058773 3
-9.273605 5.952188 0.058159 3
-9.230750 5.993807 0.059733 14
-9.214782 6.023952 0.059532 14
-9.188289 6.041139 0.060926 15
-9.171524 6.065077 0.061102 17
-9.131066 6.074103 0.064125 11
-9.116541 6.101412 0.063903 11
-9.097786 6.127603 0.064095 10
-9.080735 6.151240 0.064268 16
-9.073248 6.181859 0.063225 9
-9.061521 6.211367 0.062596 18
-9.035968 6.232617 0.063596 14
-9.012190 6.251290 0.064577 9
-8.987446 6.271089 0.065566 3
-8.991205 6.312395 0.062910 2
-9.001091 6.358617 0.059446 4
-8.965615 6.372261 0.061657 3
-8.943665 6.394242 0.062239 3
-8.900617 6.397799 0.065642 9
-8.887985 6.426903 0.065009 10
-8.897089 6.473258 0.061545 17
-8.847754 6.471447 0.065754 10
-8.828606 6.495451 0.065927 12
-8.809372 6.519390 0.066100 7
-8.782913 6.539430 0.067089 9
-8.776814 6.572105 0.065636 4
-8.754243 6.593330 0.066211 10
-8.746914 6.627178 0.064766 12
-8.705854 6.632957 0.067762 9
-8.683099 6.653901 0.068334 7
-8.663313 6.677330 0.068502 6
-8.652523 6.708445 0.067459 2
-8.657683 6.751364 0.064390 3
-8.641575 6.776144 0.064146 3
-8.612365 6.791580 0.065522 3
-8.565791 6.832598 0.066658 8
-8.533496 6.845029 0.068434 7
-8.518970 6.873249 0.067791 8
-8.489559 6.888101 0.069162 8
-8.474846 6.916209 0.068518 5
-8.453109 6.940042 0.068687 4
-8.445067 6.972331 0.067228 11
-8.413554 6.982966 0.068991 4
-8.407155 7.019044 0.067137 5
-8.383200 7.038779 0.067698 3
-8.364961 7.063897 0.067453 2
-8.323599 7.066974 0.070427 3
-8.310979 7.097421 0.069376 2
-8.295365 7.125085 0.068727 2
-8.282486 7.155493 0.067676 2
-8.246755 7.163579 0.069840 2
-8.233682 7.193876 0.068788 2
-8.203554 7.207309 0.070146 3
-8.193081 7.240333 0.068691 2
-8.174051 7.264875 0.068440 2
-8.150443 7.282606 0.068985 2
-8.122905 7.298478 0.069939 2
-7.618692 6.822921 0.139964 1
-7.570709 6.813973 0.144116 2
-7.531111 6.813388 0.147061 2
-7.491586 6.812598 0.150005 2
-7.454865 6.814498 0.152546 2
-7.412757 6.810404 0.155889 2
-7.376166 6.811915 0.158427 2
-7.339631 6.813241 0.160963 2
-7.298785 6.807587 0.164294 2
-7.251662 6.796767 0.168432 2
-7.212691 6.794542 0.171365 2
-7.176460 6.795077 0.173896 2
-7.148239 6.804338 0.175222 2
-7.135853 6.831345 0.174143 0
-7.128599 6.864313 0.172263 1
-7.123797 6.900297 0.169982 1
-7.121415 6.939326 0.167300 1
-7.126616 6.987455 0.163418 1
-7.664381 7.705879 0.073577 17
-7.622968 7.704449 0.076514 14
-7.596967 7.721120 0.077047 15
-7.574639 7.739772 0.077173 14
-7.547180 7.752213 0.078098 11
-7.521043 7.768593 0.078629 9
-7.494860 7.784873 0.079159 7
-7.468631 7.801054 0.079688 3
-7.472260 7.854372 0.075417 2
-7.443330 7.867343 0.076345 2
-7.419316 7.886437 0.076473 2
-7.397695 7.908577 0.076199 2
-7.373538 7.927511 0.076325 2
-7.351752 7.949508 0.076051 2
-7.326235 7.969218 0.076181 3
-7.303087 7.986971 0.076299 2
-7.277474 8.001475 0.076815 2
-7.252994 8.019990 0.076937 2
-7.228448 8.038419 0.077058 2
-7.215697 8.072742 0.075182 4
-7.190968 8.091041 0.075302 3
-7.156778 8.096402 0.077017 3
-7.143657 8.130599 0.075140 9
-7.107092 8.132501 0.077253 3
-7.070576 8.134233 0.079365 7
-7.043329 8.148780 0.079879 7
-7.009163 8.153463 0.081589 9
-6.977308 8.161257 0.082899 9
-6.952271 8.178722 0.083012 7
-6.938468 8.212485 0.081130 5
-6.921258 8.238805 0.080040 3
-6.893715 8.252782 0.080549 10
-6.846109 8.236955 0.084645 10
-6.818595 8.250654 0.085152 10
-6.788843 8.260934 0.086057 10
-6.772221 8.291034 0.084570 12
-6.751090 8.314445 0.083880 15
-6.714684 8.314428 0.085977 10
-6.689114 8.330976 0.086082 11
-6.665630 8.350788 0.085787 9
-6.637801 8.363804 0.086288 7
-6.616300 8.386820 0.085594 3
-6.588369 8.399649 0.086093 2
-6.564599 8.419138 0.085796 3
-6.556647 8.461482 0.082706 3
-6.534712 8.484272 0.082010 3
-6.512674 8.507000 0.081312 4
-6.484384 8.519430 0.081808 3
-6.460137 8.538591 0.081507 7
-6.421629 8.533695 0.083991 4
-6.389253 8.538920 0.085279 7
-6.366906 8.561211 0.084578 3
-6.324555 8.548968 0.087853 5
-6.323885 8.609053 0.082776 10
-6.278953 8.588875 0.086839 6
-6.259621 8.613551 0.085733 3
-6.219407 8.604194 0.088606 3
-6.195359 8.626711 0.087904 4
-6.168702 8.641445 0.087993 3
-6.141994 8.656085 0.088080 4
-6.111447 8.663630 0.088961 3
-6.086543 8.681579 0.088650 3
-6.064779 8.702243 0.087936 4
-6.030428 8.702440 0.089609 4
-6.001662 8.713071 0.090090 5
-5.985223 8.744090 0.088182 3
-5.952693 8.747473 0.089455 2
-5.919290 8.755650 0.090338 3
-5.901162 8.787180 0.088433 2
-5.861038 8.771737 0.091684 3
-5.833464 8.781062 0.092156 3
-5.818981 8.823768 0.089061 2
-5.803863 8.862223 0.086359 3
-5.788169 8.896417 0.084050 3
-5.739908 8.866666 0.088888 3
-5.732931 8.922941 0.084200 8
-5.693364 8.910855 0.087051 6
-5.660665 8.913016 0.088314 7
-5.629957 8.922910 0.088787 4
-5.618855 8.971850 0.084890 3
-5.584413 8.970074 0.086547 3
-5.526592 8.983024 0.087868 6
-5.490865 8.981475 0.089525 4
-5.462772 8.989490 0.089985 8
-5.431686 8.994361 0.090844 8
-5.389797 9.051357 0.087405 6
-5.358710 9.060202 0.087868 4
-5.321353 9.049971 0.090309 8
-5.291705 9.057971 0.090766 8
-5.262041 9.065864 0.091223 8
-5.248715 9.109968 0.087713 10
-5.214451 9.106617 0.089357 7
-5.186073 9.113662 0.089809 6
-5.151898 9.110051 0.091451 9
-5.126447 9.128558 0.090715 6
-5.098053 9.143820 0.090377 3
-5.062514 9.136122 0.092413 4
-5.050956 9.187329 0.088106 3
-5.018175 9.186877 0.089348 3
-4.995083 9.212435 0.087815 3
-4.965024 9.219235 0.088263 3
-4.940363 9.240902 0.087125 3
-4.912909 9.254999 0.086779 3
-4.881529 9.253484 0.088013 3
-4.850065 9.256113 0.088853 3
-4.819919 9.262385 0.089296 3
-4.794913 9.283613 0.088155 3
-4.763423 9.285913 0.088992 3
-4.736997 9.303194 0.088245 3
-4.704444 9.297235 0.089870 3
-4.676691 9.310545 0.089516 3
-4.650101 9.327549 0.088767 3
-4.621006 9.336884 0.088808 3
-4.592813 9.354171 0.088058 3
-4.563904 9.359051 0.088491 3
-4.536162 9.367637 0.088528 3
-4.505159 9.381271 0.088173 3
-4.479305 9.401539 0.087023 3
-4.457855 9.436996 0.084289 3
-4.425034 9.434197 0.085511 4
-4.398146 9.446147 0.085148 6
-4.376656 9.477151 0.082805 9
-4.342735 9.470202 0.084421 8
-4.309539 9.471203 0.085245 8
-4.276798 9.467830 0.086463 9
-4.247661 9.471620 0.086886 12
-4.216020 9.471856 0.087707 18
-4.188444 9.487375 0.086943 16
-4.155321 9.487774 0.087763 17
-4.123707 9.487667 0.088580 18
-4.092120 9.487443 0.089397 18
-4.062042 9.486734 0.090211 21
-4.034822 9.497522 0.089838 20
-4.008298 9.524418 0.087884 33
-3.973029 9.508269 0.090279 26
-3.944210 9.519117 0.089904 25
-3.911787 9.514348 0.091111 25
-3.882657 9.516887 0.091524 25
-3.852907 9.523542 0.091542 31
-3.821437 9.522316 0.092351 27
-3.791668 9.528758 0.092367 28
-3.761056 9.531200 0.092778 23
-3.731130 9.529327 0.093583 25
-3.701337 9.535454 0.093597 27
-3.669180 9.529768 0.094796 27
-3.639386 9.535678 0.094808 24
-3.609571 9.541484 0.094820 21
-3.580477 9.551097 0.094435 26
-3.547663 9.549148 0.095235 24
-3.517870 9.546530 0.096034 24
-3.488718 9.555830 0.095646 23
-3.459520 9.565031 0.095258 18
-3.428932 9.566286 0.095659 16
-3.399670 9.575284 0.095269 14
-3.369926 9.572151 0.096064 13
-3.342116 9.580706 0.095671 12
-3.312765 9.589406 0.095278 12
-3.283370 9.598006 0.094885 10
-3.253340 9.602570 0.094885 10
-3.224449 9.614904 0.094095 7
-3.195488 9.627143 0.093303 4
-3.167557 9.647167 0.091719 5
-3.138428 9.659215 0.090926 3
-3.110275 9.679055 0.089340 3
-3.079964 9.683014 0.089336 3
-3.054624 9.714322 0.086563 3
-3.023226 9.710184 0.087347 4
-2.993275 9.717792 0.086945 3
-2.962829 9.721341 0.086937 3
-2.932606 9.740778 0.085346 4
-2.905313 9.759782 0.083755 6
-2.877198 9.786778 0.081371 8
-2.844517 9.770121 0.083337 7
-2.814275 9.777112 0.082929 6
-2.782509 9.768147 0.084102 7
-2.751531 9.766997 0.084483 7
-2.723480 9.781466 0.083282 7
-2.692152 9.776141 0.084057 8
-2.661188 9.774672 0.084435 8
-2.629637 9.765156 0.085604 8
-2.599606 9.775375 0.084794 7
-2.567703 9.781628 0.084378 8
-2.536777 9.779720 0.084753 9
-2.508145 9.789526 0.083942 8
-2.476985 9.783435 0.084711 6
-2.446093 9.781208 0.085083 7
-2.416047 9.794773 0.083872 8
-2.385720 9.804258 0.083056 10
-2.354798 9.801711 0.083426 10
-2.324063 9.803032 0.083399 10
-2.293324 9.804245 0.083372 10
-2.264255 9.809277 0.082949 8
-2.233618 9.814260 0.082524 9
-2.202621 9.807199 0.083285 9
-2.171963 9.811968 0.082858 9
-2.141194 9.812651 0.082826 9
-2.110490 9.817205 0.082398 8
-2.078216 9.821673 0.081967 8
-2.048954 9.822014 0.081934 7
-2.018071 9.810326 0.083085 9
-1.987296 9.806491 0.083445 10
-1.956548 9.802548 0.083803 10
-1.925798 9.806459 0.083369 10
-1.895049 9.806282 0.083330 11
-1.864258 9.809978 0.082894 10
-1.835204 9.797668 0.084043 10
-1.806022 9.797203 0.084004 10
-1.775307 9.796608 0.083961 10
-1.744496 9.799886 0.083522 9
-1.714327 9.779181 0.085457 11
-1.683925 9.770310 0.086204 12
-1.653026 9.777246 0.085367 10
-1.622228 9.780094 0.084924 10
-1.591406 9.782835 0.084480 9
-1.561103 9.773539 0.085224 9
-1.530277 9.776064 0.084779 10
-1.499844 9.770533 0.085124 7
-1.470533 9.772929 0.084680 8
-1.440139 9.767190 0.085024 7
-1.409531 9.765318 0.084971 8
-1.378928 9.763339 0.084918 8
-1.348333 9.761254 0.084863 8
-1.317746 9.759062 0.084808 9
-1.283497 9.764464 0.083954 9
-1.254747 9.758202 0.084295 8
-1.225367 9.759778 0.083844 7
-1.193055 9.776982 0.081804 9
-1.161694 9.782176 0.080951 8
-1.132567 9.779477 0.080893 9
-1.101918 9.776532 0.080832 7
-1.072080 9.765559 0.081562 7
-1.040650 9.770320 0.080706 7
-1.010889 9.759139 0.081435 7
-0.980753 9.751814 0.081766 8
-0.950201 9.748339 0.081700 7
-0.920131 9.740805 0.082030 5
-0.891068 9.725266 0.083153 6
-0.859614 9.729376 0.082291 8
-0.828630 9.729424 0.081825 9
-0.799731 9.713582 0.082945 7
-0.767159 9.725250 0.081287 8
-0.739327 9.713360 0.082013 4
-0.708910 9.709042 0.081940 6
-0.679667 9.696742 0.082660 7
-0.648716 9.696153 0.082189 6
-0.618360 9.691519 0.082114 6
-0.589881 9.674984 0.083229 6
-0.562135 9.654427 0.084740 2
-0.974272 6.967209 0.355799 0
-0.966659 6.885231 0.363685 0
-0.927629 6.866387 0.364768 0
-0.923997 6.768719 0.374244 0
-0.890282 6.726126 0.377709 3
-0.872513 6.710624 0.378845 5
-0.836937 6.691566 0.379931 0
-0.823322 6.656388 0.383053 0
-0.805956 6.640685 0.384188 0
-0.784635 6.644413 0.383336 0
-0.762288 6.647853 0.382480 0
-0.741725 6.647526 0.382024 0
-0.728943 6.616236 0.384750 0
-0.705871 6.627443 0.383100 0
-0.686114 6.618924 0.383435 0
-0.664797 6.626304 0.382184 0
-0.646957 6.613994 0.382918 0
-0.630048 6.593651 0.384444 0
-0.607761 6.604686 0.382794 0
-0.590111 6.596303 0.383132 0
-0.569573 6.587136 0.383460 0
-0.546174 6.601790 0.381410 0
-0.529559 6.589356 0.382144 0
-0.508089 6.583819 0.382072 0
-0.491589 6.571274 0.382806 0
-0.472079 6.570217 0.382345 0
-0.453734 6.557040 0.383072 0
-0.432222 6.559422 0.382208 0
-0.415909 6.546654 0.382940 0
-0.390065 6.564214 0.380482 0
-0.369542 6.562525 0.380015 0
-0.294904 6.673508 0.367125 1
-0.294342 6.602793 0.373827 1
-0.267981 6.549139 0.378067 5
-0.248401 6.547299 0.377600 4
-0.224506 6.552384 0.376327 3
-0.196726 6.572857 0.373462 7
-0.176055 6.570457 0.372989 1
-0.157576 6.564508 0.372918 3
-0.134433 6.569529 0.371645 3
-0.114985 6.563120 0.371569 5
-0.090504 6.571740 0.369896 3
-0.069468 6.573047 0.369024 4
-0.039691 6.596534 0.365754 2
-0.012657 6.608258 0.363675 3
0.005609 6.597668 0.363994 4
0.023824 6.587019 0.364313 4
0.044674 6.583805 0.363832 5
0.111784 6.588988 0.360794 125
0.138269 6.600358 0.358713 23
0.261139 6.804930 0.334965 6
0.248443 6.711740 0.344070 4
0.238017 6.626126 0.352377 3
0.240151 6.573982 0.357087 6
0.255196 6.555172 0.358200 10
0.279045 6.558482 0.356912 8
0.302944 6.561692 0.355624 2
0.319881 6.550473 0.355940 3
0.374280 6.627052 0.346648 4
0.412351 6.662929 0.341755 5
0.415656 6.618362 0.345670 4
0.462128 6.615836 0.343879 0
0.476973 6.596394 0.344986 0
0.492337 6.580990 0.345698 0
0.510846 6.572825 0.345608 0
0.542641 6.589163 0.342705 0
0.560515 6.576764 0.343010 0
0.622205 6.658029 0.332891 0
0.650269 6.667058 0.330788 0
0.666700 6.650690 0.331491 0
0.689801 6.648692 0.330590 0
0.708533 6.639872 0.330494 0
0.716967 6.609432 0.332805 0
0.748616 6.625160 0.329896 0
0.774444 6.625934 0.328586 0
0.793101 6.616833 0.328488 0
0.874361 6.732091 0.314340 0
0.835826 6.604596 0.327479 0
0.859940 6.601421 0.326567 0
0.933475 6.698034 0.314417 0
0.955174 6.691440 0.313908 0
0.913871 6.565004 0.327059 0
1.002063 6.689633 0.311694 0
1.017369 6.668162 0.312784 0
1.052035 6.685877 0.309460 0
1.068135 6.668303 0.310153 0
1.087918 6.657696 0.310042 0
1.106677 6.647555 0.309936 0
1.143566 6.668243 0.306205 0
1.149903 6.632974 0.308907 0
1.165696 6.615124 0.309598 0
1.204744 6.638897 0.305461 0
1.212681 6.607022 0.307760 0
1.223377 6.578063 0.309652 0
1.268610 6.611779 0.304304 0
1.278224 6.583252 0.306200 0
1.370935 6.699667 0.291191 0
1.390825 6.688003 0.291071 0
1.416763 6.686540 0.289742 0
1.438648 6.678132 0.289218 0
1.457473 6.666828 0.289102 0
1.466926 6.637850 0.290995 0
1.492829 6.636036 0.289663 0
1.522937 6.640886 0.287524 0
1.541503 6.624700 0.287797 0
1.573804 6.632677 0.285253 0
1.581861 6.604096 0.287150 0
1.688957 6.729388 0.270483 0
1.638103 6.606035 0.283670 0
1.666298 6.606812 0.281929 0
1.746627 6.687520 0.270497 0
1.781744 6.697841 0.267540 0
1.797238 6.678102 0.268216 0
1.825870 6.678201 0.266468 0
1.796920 6.592235 0.275223 0
1.873370 6.665486 0.264592 0
1.903341 6.669192 0.262444 0
1.893874 6.612997 0.267564 0
1.930269 6.621751 0.264592 0
1.953448 6.615351 0.263655 0
1.982176 6.614688 0.261901 0
2.017833 6.623647 0.258932 0
2.035146 6.606482 0.259198 0
2.063978 6.605438 0.257441 0
2.097510 6.610715 0.254873 0
2.124105 6.606170 0.253518 0
2.157774 6.611139 0.250947 0
2.177349 6.596728 0.250805 0
2.194500 6.579056 0.251067 0
2.222529 6.577989 0.249311 0
2.294693 6.633258 0.240251 0
2.314345 6.618370 0.240105 0
2.335901 6.601913 0.239944 0
2.373901 6.612849 0.236560 0
2.392503 6.598444 0.236419 0
2.429187 6.605160 0.233430 0
2.448740 6.589803 0.233280 0
2.478128 6.586849 0.231507 0
2.571922 6.623939 0.222271 1
2.601559 6.620450 0.220493 2
2.663930 6.656905 0.213433 1
2.724085 6.689917 0.206776 1
2.723633 6.649005 0.209868 1
2.728049 6.614279 0.212148 1
2.732280 6.579591 0.214429 1
2.778883 6.555781 0.212891 3
2.818010 6.564204 0.209485 2
2.860819 6.574598 0.205663 2
2.906368 6.587765 0.201431 6
2.920614 6.564754 0.202082 7
3.061074 6.684981 0.183190 2
3.028060 6.607905 0.191166 3
3.077764 6.584768 0.189202 8
3.134661 6.608415 0.183329 7
3.148853 6.584717 0.183974 25
3.168328 6.566847 0.183803 8
3.203963 6.566427 0.181186 3
3.234229 6.560006 0.179383 2
4.049007 7.388826 0.060093 9
4.063077 7.359136 0.061117 10
4.086884 7.342007 0.060519 10
4.111747 7.323730 0.059910 10
4.143185 7.310017 0.058474 9
4.175178 7.301153 0.056649 7
4.205495 7.288226 0.055220 4
4.224622 7.263829 0.055425 3
4.243654 7.239376 0.055630 2
4.256965 7.209237 0.056652 2
4.272964 7.181886 0.057265 2
4.291680 7.157294 0.057468 2
4.321671 7.143785 0.056036 2
4.343086 7.121817 0.055829 2
4.361564 7.097010 0.056032 2
4.382816 7.074903 0.055824 2
4.403991 7.052723 0.055617 2
4.433760 7.038671 0.054180 2
4.451908 7.013589 0.054380 2
4.474731 6.995005 0.053771 2
4.485830 6.965516 0.054801 2
4.512477 6.948366 0.053771 2
4.536147 6.928418 0.053150 2
4.550917 6.900354 0.053759 2
4.574437 6.880252 0.053137 2
4.597896 6.860057 0.052514 2
4.612372 6.831841 0.053122 2
4.641646 6.816759 0.051677 2
4.658926 6.791054 0.051873 2
4.676107 6.765299 0.052069 2
4.696200 6.742096 0.051855 2
4.719231 6.721415 0.051228 2
4.733112 6.692901 0.051834 2
4.759027 6.674640 0.050796 2
4.781849 6.653708 0.050168 2
4.794458 6.626218 0.050784 2
4.814064 6.602603 0.050566 2
4.836660 6.581449 0.049937 2
4.856110 6.557686 0.049718 2
4.873352 6.530158 0.049900 2
4.897859 6.512455 0.048868 3
4.907744 6.481026 0.049883 2
4.930912 6.458288 0.049240 3
4.958357 6.442792 0.047794 3
4.971056 6.413703 0.048396 2
4.983635 6.384591 0.048999 2
5.002397 6.360317 0.048777 3
5.014756 6.331140 0.049379 2
5.049167 6.318798 0.047094 3
5.061347 6.289502 0.047696 3
5.082960 6.267344 0.047059 2
5.091735 6.235600 0.048073 3
5.118666 6.219276 0.046621 3
5.143267 6.199238 0.045570 3
5.155849 6.168483 0.046159 2
5.177081 6.145939 0.045520 2
5.191775 6.118673 0.045707 2
5.209607 6.093675 0.045480 2
5.230601 6.070910 0.044839 2
5.244128 6.044749 0.045036 2
5.261702 6.019568 0.044808 2
5.279187 5.994326 0.044580 2
5.290023 5.964521 0.045179 2
5.313894 5.943659 0.044122 2
5.331114 5.918236 0.043892 2
5.348246 5.892752 0.043662 3
5.358665 5.862799 0.044260 2
5.382241 5.841606 0.043201 2
5.392451 5.811581 0.043799 2
5.399207 5.779373 0.044812 3
5.425710 5.723581 0.045179 12
5.455590 5.706308 0.043287 24
5.461887 5.674021 0.044299 18
5.488281 5.654417 0.042821 21
5.517198 5.638091 0.040938 21
5.546894 5.620313 0.039043 14
5.576558 5.602385 0.037146 5
5.594889 5.541440 0.038337 2
5.600460 5.508915 0.039348 2
5.595629 5.470319 0.041608 4
5.604337 5.439880 0.042205 9
5.609489 5.407430 0.043217 10
5.659266 5.400909 0.038819 17
5.646990 5.358434 0.041913 14
5.662166 5.331851 0.041676 13
5.698030 5.316957 0.038940 9
5.720001 5.294086 0.037869 3
5.735873 5.232677 0.039059 2
5.736646 5.198151 0.040488 2
5.747036 5.170705 0.040679 2
5.760832 5.145122 0.040452 2
5.779491 5.118665 0.039784 2
5.790313 5.089761 0.039962 2
5.786227 5.054792 0.041822 2
5.796813 5.025889 0.042001 1
5.821433 5.004257 0.040508 2
5.825439 4.970273 0.041509 2
5.838570 4.944431 0.041281 2
5.841636 4.911822 0.042295 1
5.848131 4.881014 0.042892 1
5.858745 4.850605 0.043057 1
5.867906 4.822904 0.043247 1
5.866895 4.788606 0.044681 1
5.884323 4.761614 0.044010 1
5.911778 4.741051 0.042094 1
5.913358 4.709826 0.043121 1
5.925624 4.683694 0.042892 1
5.939720 4.653385 0.042626 1
5.945203 4.622463 0.043222 1
5.950567 4.591547 0.043819 1
5.959438 4.562273 0.043996 1
5.971833 4.534605 0.043754 2
5.976244 4.505057 0.044363 2
5.980546 4.475520 0.044973 2
5.993842 4.445002 0.044706 2
6.005230 4.418604 0.044476 1
6.005554 4.387487 0.045505 1
6.014260 4.356719 0.045670 1
6.022267 4.327325 0.045848 2
6.041192 4.302482 0.044764 1
6.037386 4.269891 0.046215 2
6.051878 4.244847 0.045564 2
6.052654 4.211006 0.046570 2
6.060126 4.181543 0.046748 2
6.063789 4.150610 0.047346 2
6.059922 4.116800 0.048787 1
6.074472 4.090215 0.048123 2
6.084684 4.063552 0.047892 2
6.092146 4.032637 0.048058 2
6.102691 4.004508 0.047814 2
6.105677 3.973583 0.048413 2
6.104810 3.941307 0.049435 2
6.118776 3.914488 0.048770 1
6.124660 3.886338 0.048960 2
6.123446 3.854111 0.049982 2
6.140876 3.828505 0.048894 2
6.150709 3.800208 0.048650 2
6.156680 3.770587 0.048828 2
6.155486 3.736990 0.049839 2
6.164526 3.710060 0.049607 1
6.173944 3.681681 0.049363 1
6.167679 3.649742 0.050822 1
6.192026 3.626248 0.048886 1
6.185997 3.592930 0.050334 1
6.195006 3.564477 0.050089 2
6.200120 3.534808 0.050268 2
6.189920 3.500451 0.052141 1
6.221440 3.478930 0.049355 1
6.211005 3.444631 0.051229 1
6.223310 3.417222 0.050560 1
6.231707 3.388640 0.050316 1
6.236182 3.358924 0.050495 1
6.248200 3.331387 0.049826 1
6.244811 3.299485 0.050853 1
6.248963 3.269764 0.051033 1
6.233829 3.234787 0.053335 0
6.245428 3.207206 0.052666 0
6.248867 3.178956 0.052858 0
6.244516 3.148684 0.053901 0
6.240426 3.117033 0.054931 0
6.259700 3.089913 0.053400 0
6.263097 3.060234 0.053581 0
6.262526 3.029600 0.054187 0
6.273433 3.001827 0.053517 0
6.261045 2.968419 0.055401 0
6.271405 2.942061 0.054743 0
6.278143 2.913313 0.054499 0
6.285110 2.883103 0.054243 0
6.299400 2.856061 0.053147 0
6.294190 2.824627 0.054181 0
6.304403 2.796650 0.053510 0
6.306745 2.766952 0.053692 0
6.312567 2.739526 0.053460 0
6.318298 2.712081 0.053228 0
6.312836 2.679338 0.054251 0
6.314757 2.649665 0.054434 0
6.320474 2.620768 0.054190 0
6.337804 2.594115 0.052665 0
6.347234 2.565879 0.051993 0
6.340660 2.536135 0.053042 0
6.330331 2.504290 0.054507 0
6.339455 2.476040 0.053836 0
6.352653 2.446981 0.052725 0
6.345903 2.415934 0.053764 0
6.346639 2.387720 0.053960 0
6.355365 2.359360 0.053288 0
6.367921 2.331588 0.052188 0
6.356813 2.300031 0.053656 0
6.322223 2.263493 0.057683 1
6.361988 2.239888 0.053585 0
6.350323 2.209971 0.055067 0
6.370045 2.184662 0.053122 1
6.370200 2.155024 0.053307 1
6.354487 2.123251 0.055208 0
6.366251 2.095265 0.054107 0
6.370032 2.066191 0.053864 0
6.377658 2.037601 0.053192 0
6.377290 2.008005 0.053378 0
6.376646 1.979881 0.053576 0
6.371445 1.920327 0.054379 8
6.374615 1.891236 0.054137 8
6.373729 1.861721 0.054324 7
6.368782 1.831823 0.054942 7
6.395533 1.803600 0.052107 2
6.388944 1.745627 0.052925 0
6.399428 1.717165 0.051822 0
6.405853 1.688309 0.051149 0
6.400285 1.658466 0.051767 0
6.398576 1.628973 0.051956 0
6.400730 1.599789 0.051714 0
6.402781 1.570598 0.051472 0
6.376954 1.539569 0.054248 0
6.351013 1.508728 0.057025 0
6.340837 1.479009 0.058079 0
6.358350 1.450908 0.056114 0
6.343924 1.422491 0.057612 0
6.333372 1.394368 0.058679 0
6.334707 1.365414 0.058440 0
6.343887 1.336786 0.057337 0
6.333100 1.307339 0.058394 0
6.334131 1.278386 0.058155 0
6.346985 1.249803 0.056620 0
6.331916 1.220360 0.058110 0
6.340594 1.191604 0.057007 0
6.337246 1.162543 0.057201 0
6.341748 1.133645 0.056530 0
6.330263 1.103051 0.057578 0
6.330567 1.075557 0.057353 0
6.330781 1.048061 0.057127 0
6.334891 1.016236 0.056432 0
6.326953 0.987281 0.057061 0
6.338803 0.959754 0.055536 0
6.318751 0.932370 0.057478 0
6.306545 0.903594 0.058542 0
6.310143 0.874681 0.057872 0
6.305688 0.845880 0.058069 0
6.297158 0.817192 0.058701 0
6.280578 0.788756 0.060202 0
6.307623 0.759212 0.056928 0
6.282895 0.731100 0.059298 0
6.297811 0.701771 0.057325 0
6.276918 0.675146 0.059274 0
6.259852 0.647056 0.060778 0
6.274468 0.617644 0.058806 0
6.269121 0.589093 0.059006 0
6.263675 0.560575 0.059207 0
6.262100 0.531869 0.058974 0
6.272333 0.502463 0.057435 0
6.195300 0.421254 0.064574 0
-10.447974 1.024075 0.056438 1
-10.439875 1.053639 0.057527 1
-10.451559 1.083365 0.056500 1
-10.443253 1.112886 0.057589 2
-10.446774 1.142564 0.057409 2
-10.458147 1.172439 0.056382 2
-10.445555 1.201799 0.057893 1
-10.452742 1.231639 0.057290 2
-10.451872 1.261278 0.057532 2
-10.442949 1.290632 0.058619 2
-10.465722 1.321165 0.056326 2
-10.460566 1.350680 0.056991 2
-10.455308 1.380163 0.057654 2
-10.457892 1.410006 0.057474 2
-10.468317 1.440293 0.056450 3
-10.470773 1.468724 0.056258 2
-10.469163 1.496939 0.056487 2
-10.487124 1.529374 0.054633 3
-10.524905 1.561781 0.050661 3
-10.499178 1.588506 0.053420 3
-10.497063 1.618305 0.053661 2
-10.490878 1.647791 0.054324 2
-10.472577 1.677767 0.056261 3
-10.482042 1.708475 0.055240 2
-10.475675 1.736379 0.055889 3
-10.473043 1.766095 0.056130 3
-10.466209 1.796911 0.056802 3
-10.463511 1.825110 0.057030 3
-10.460570 1.854782 0.057270 3
-10.469238 1.887179 0.056261 3
-10.466081 1.916872 0.056501 3
-10.466938 1.945513 0.056309 2
-10.475602 1.975085 0.055277 3
-10.468188 2.004328 0.055936 3
-10.464440 2.035500 0.056187 3
-10.464712 2.065674 0.056007 2
-10.441207 2.092785 0.058342 3
-10.445218 2.123432 0.057742 3
-10.453059 2.154660 0.056722 3
-10.464932 2.185027 0.055272 2
-10.452861 2.213568 0.056348 3
-10.444411 2.244102 0.057017 3
-10.447874 2.274896 0.056417 3
-10.439660 2.302423 0.057061 2
-10.443144 2.331773 0.056449 2
-10.438197 2.362852 0.056698 2
-10.429698 2.390305 0.057342 2
-10.428706 2.420519 0.057160 2
-10.439368 2.452772 0.055724 2
-10.430319 2.481667 0.056378 2
-10.425086 2.511220 0.056614 2
-10.423394 2.542949 0.056444 2
-10.417948 2.572477 0.056680 2
-10.416306 2.602732 0.056497 2
-10.414842 2.631519 0.056303 2
-10.409086 2.661017 0.056538 2
-10.407128 2.691280 0.056356 2
-10.401464 2.719278 0.056578 2
-10.399298 2.749541 0.056396 2
-10.392819 2.780455 0.056641 2
-10.382655 2.809036 0.057292 2
-10.380487 2.837804 0.057097 2
-10.377895 2.868047 0.056913 2
-10.371314 2.897415 0.057146 2
-10.368507 2.927653 0.056962 2
-10.365592 2.957895 0.056778 2
-10.362568 2.988139 0.056594 2
-10.363303 3.019320 0.055994 2
-10.352330 3.047689 0.056642 2
-10.364426 3.081770 0.054794 2
-10.349752 3.107677 0.055846 2
-10.342709 3.135482 0.056065 2
-10.346746 3.167725 0.055050 2
-10.334889 3.197430 0.055707 2
-10.342533 3.230756 0.054276 2
-10.342761 3.260616 0.053665 2
-10.327137 3.287752 0.054725 2
-10.322925 3.318007 0.054540 2
-10.318192 3.349719 0.054366 2
-10.317996 3.379605 0.053754 2
-10.313452 3.409868 0.053568 2
-10.301163 3.437887 0.054211 2
-10.308279 3.470061 0.052770 2
-10.294914 3.500945 0.053436 2
-10.289930 3.531180 0.053249 2
-10.281035 3.560236 0.053477 3
-10.272039 3.589262 0.053704 3
-10.274322 3.621857 0.052689 2
-10.269361 3.650623 0.052490 2
-10.260518 3.678159 0.052705 2
-10.254418 3.709798 0.052529 2
-10.237825 3.734779 0.053570 2
-10.239053 3.768894 0.052567 2
-10.248165 3.804167 0.050725 3
-10.227029 3.829199 0.052190 2
-10.232128 3.863256 0.050762 2
-10.207059 3.886835 0.052638 2
-10.211920 3.920927 0.051210 2
-10.205410 3.951053 0.051021 2
-10.206791 3.982446 0.049995 3
-10.200583 4.011142 0.049794 3
-10.185752 4.039937 0.050441 2
-10.183069 4.069984 0.049827 2
-10.171753 4.100098 0.050060 2
-10.164589 4.130160 0.049870 2
-10.161578 4.160215 0.049256 2
-10.154752 4.188837 0.049054 2
-10.143562 4.217418 0.049275 2
-10.142794 4.251805 0.048271 2
-10.127694 4.278858 0.048903 2
-10.123562 4.310341 0.048299 2
-10.111948 4.338812 0.048518 2
-10.114936 4.373342 0.047092 2
-10.106772 4.403320 0.046899 2
-10.102163 4.434832 0.046295 2
-10.090116 4.463228 0.046514 2
-10.081622 4.493157 0.046320 2
-10.084579 4.526418 0.044883 2
-10.072211 4.554751 0.045100 2
-10.056108 4.581428 0.045728 2
-10.058075 4.616167 0.044302 2
-10.034517 4.639491 0.045750 2
-10.040497 4.674496 0.043902 2
-10.024645 4.699605 0.044517 2
-10.018240 4.732485 0.043922 2
-10.008757 4.762274 0.043726 2
-9.987711 4.788341 0.044771 2
-9.985203 4.821477 0.043755 2
-9.976063 4.849791 0.043548 2
-9.966146 4.879482 0.043351 2
-9.960377 4.909507 0.042733 2
-9.946673 4.937405 0.042945 2
-9.939994 4.968805 0.042338 2
-9.926084 4.996632 0.042549 2
-9.919172 5.028010 0.041941 2
-9.916391 5.059813 0.040914 2
-9.888019 5.080258 0.042760 2
-9.884309 5.113413 0.041742 2
-9.876941 5.144742 0.041134 2
-9.858899 5.170485 0.041751 2
-9.885673 5.221894 0.037065 3
-9.864614 5.244377 0.038080 8
-9.813830 5.287986 0.040946 17
-9.798807 5.315370 0.041153 18
-9.780210 5.340767 0.041767 16
-9.761532 5.366086 0.042380 14
-9.750467 5.393887 0.042166 3
-9.757539 5.469963 0.038086 2
-9.738437 5.495155 0.038698 3
-9.726127 5.524281 0.038494 3
-9.712117 5.556081 0.038309 4
-9.689316 5.579045 0.039326 9
-9.674081 5.604647 0.039518 17
-9.642528 5.618587 0.041735 34
-10.091118 7.103868 0.070910 2
-10.107872 7.161079 0.066939 2
-10.107401 7.207819 0.064719 2
-10.152019 7.287216 0.057617 2
-10.131116 7.314342 0.057814 2
-10.109017 7.342822 0.058021 2
-10.085706 7.372641 0.058237 2
-10.069654 7.405907 0.057747 2
-10.017649 7.452062 0.059177 7
-9.978440 7.469024 0.061127 9
-9.963938 7.505912 0.060297 9
-9.938089 7.531280 0.060845 9
-9.918307 7.561622 0.060698 10
-9.892282 7.586808 0.061245 8
-9.872288 7.617011 0.061096 9
-9.853340 7.645777 0.060937 11
-9.828920 7.674658 0.061144 10
-9.805565 7.702080 0.061341 11
-9.780270 7.725455 0.061873 11
-9.759748 7.755318 0.061722 11
-9.739113 7.785120 0.061569 10
-9.718365 7.814860 0.061416 10
-9.682590 7.831326 0.062994 9
-9.655133 7.850245 0.063860 6
-9.638860 7.886386 0.063021 3
-9.623633 7.921163 0.062172 2
-9.608257 7.955917 0.061323 2
-9.589795 7.987955 0.060820 2
-9.565348 8.014540 0.061008 2
-9.534972 8.035612 0.061887 3
-9.521993 8.072903 0.060690 2
-9.497249 8.099251 0.060876 2
-9.481082 8.133746 0.060024 2
-9.443817 8.195822 0.059000 3
-9.395757 8.199704 0.061948 9
-9.368981 8.221535 0.062466 8
-9.339613 8.245843 0.063001 9
-9.308603 8.265945 0.063872 10
-9.288831 8.297175 0.063360 11
-9.257682 8.317061 0.064229 14
-7.677157 6.808810 0.253666 1
-7.642917 6.814466 0.255529 1
-7.608707 6.819953 0.257392 2
-7.554145 6.844832 0.259388 5
-7.505559 6.830585 0.263301 2
-7.460554 6.823808 0.266537 2
-7.532784 6.941877 0.254953 1
-7.293506 6.891336 0.272835 1
-7.179733 6.806108 0.285010 2
-7.122299 6.782637 0.289952 1
-7.093525 6.786890 0.291439 1
-7.073279 6.804770 0.291561 2
-7.045107 6.813574 0.292714 0
-7.042020 6.853250 0.290433 0
-7.037140 6.889073 0.288491 0
-7.040876 6.933136 0.285510 0
-7.027857 6.959946 0.284599 0
-8.626821 8.958333 0.064257 3
-8.609179 8.993814 0.063040 3
-8.564871 8.994297 0.065592 5
-8.540567 9.024613 0.065067 5
-8.507479 9.041347 0.065908 5
-8.475760 9.056809 0.066740 9
-8.455069 9.088827 0.065862 8
-8.425718 9.107200 0.066348 8
-8.404788 9.139092 0.065469 8
-8.376329 9.161534 0.065618 8
-8.342893 9.177591 0.066453 6
-8.314301 9.199818 0.066600 7
-8.279340 9.216726 0.067440 3
-7.523191 8.284882 0.170780 1
-7.484555 8.284225 0.172958 2
-7.444713 8.284348 0.175141 2
-7.408594 8.286527 0.176974 2
-7.375994 8.295893 0.178126 2
-7.344481 8.309270 0.178941 1
-7.300119 8.302269 0.181804 1
-7.257146 8.294124 0.184659 1
-7.215342 8.289926 0.187176 1
-7.164362 8.272554 0.191061 2
-7.120486 8.264669 0.193917 2
-7.081316 8.263083 0.196087 2
-7.046788 8.267845 0.197571 3
-7.021375 8.285554 0.197685 2
-6.995102 8.356895 0.194148 0
-6.991752 8.407404 0.190841 0
-6.995169 8.462832 0.186838 0
-7.712761 9.660996 0.067418 10
-7.688385 9.686677 0.066855 20
-7.636213 9.673257 0.070399 23
-7.601557 9.686327 0.071207 30
-7.579823 9.719366 0.069965 38
-7.542907 9.728849 0.071113 21
-7.505994 9.738182 0.072260 18
-7.469677 9.751698 0.073070 14
-7.439086 9.770873 0.073190 11
-7.408428 9.789941 0.073308 6
-7.387042 9.817195 0.072391 3
-7.374901 9.866702 0.069436 3
-7.358355 9.909411 0.067163 2
-7.345679 9.958947 0.064208 3
-7.326604 9.998231 0.062276 6
-7.287042 10.003181 0.063756 8
-7.247511 10.007964 0.065234 8
-7.216027 10.026361 0.065346 9
-7.174520 10.027390 0.067163 8
-7.139009 10.038614 0.067955 7
-7.107419 10.056633 0.068064 8
-7.065988 10.057178 0.069877 8
-7.032390 10.071462 0.070325 8
-7.004548 10.096080 0.069750 9
-6.970838 10.110136 0.070195 9
-6.938685 10.123199 0.070635 9
-6.903009 10.133506 0.071420 10
-6.876739 10.161238 0.070500 9
-6.846592 10.181860 0.070260 12
-6.827513 10.223536 0.067976 10
-6.806357 10.261659 0.066032 11
-6.775824 10.282053 0.065791 9
-6.750672 10.312982 0.064526 10
-6.718126 10.329643 0.064623 10
-6.692710 10.360421 0.063358 12
-6.654646 10.366188 0.064474 9
-6.614827 10.368235 0.065929 9
-6.582089 10.384421 0.066022 7
-6.554536 10.411241 0.065093 7
-6.519825 10.419245 0.065860 11
-6.481741 10.424317 0.066970 15
-6.435128 10.411240 0.069780 14
-6.383570 10.387134 0.073609 20
-6.352452 10.406125 0.073355 12
-6.316239 10.414161 0.074120 9
-6.275044 10.411187 0.075905 7
-6.233923 10.408042 0.077688 6
-6.191243 10.401089 0.079809 8
-6.155149 10.408515 0.080569 8
-6.117480 10.407787 0.082005 8
-6.075026 10.400328 0.084122 9
-6.031090 10.389030 0.086578 9
-5.991997 10.388528 0.088014 9
-5.952958 10.387869 0.089448 10
-5.915518 10.390724 0.090541 12
-5.873507 10.382397 0.092652 12
-5.833124 10.377574 0.094422 12
-5.795965 10.375606 0.095848 13
-5.760216 10.381545 0.096596 13
-5.721508 10.379950 0.098023 13
-5.682857 10.378200 0.099449 14
-5.636805 10.362095 0.102235 18
-5.604094 10.374868 0.102299 15
-5.567049 10.376366 0.103382 16
-5.531675 10.377097 0.104460 15
-5.490486 10.367124 0.106558 18
-5.449409 10.356977 0.108656 16
-5.413960 10.361617 0.109394 16
-5.377425 10.358038 0.110807 15
-5.337684 10.355500 0.112225 15
-5.302320 10.359721 0.112960 15
-5.262988 10.352534 0.114712 16
-5.226374 10.352714 0.115784 16
-5.191097 10.356519 0.116516 16
-5.157121 10.363964 0.116907 17
-5.119312 10.359957 0.118315 17
-5.080682 10.347692 0.120398 18
-5.044280 10.347169 0.121465 18
-5.006686 10.342716 0.122869 18
-4.972824 10.349497 0.123255 18
-4.934120 10.340961 0.124997 18
-4.896707 10.336073 0.126398 18
-4.860546 10.334844 0.127460 18
-4.824429 10.333476 0.128520 18
-4.788357 10.331970 0.129579 18
-4.754613 10.337964 0.129958 18
-4.717478 10.332368 0.131354 17
-4.682044 10.326152 0.132747 18
-4.649463 10.335593 0.132785 17
-4.615211 10.332955 0.133837 17
-4.579901 10.338782 0.134213 17
-4.543028 10.332500 0.135604 17
-4.507279 10.329921 0.136654 18
-4.473650 10.334904 0.137026 18
-4.437559 10.323923 0.138750 19
-4.403978 10.328654 0.139120 18
-4.367407 10.321688 0.140505 18
-4.330915 10.314580 0.141890 18
-4.296439 10.315063 0.142595 18
-4.261988 10.315419 0.143299 18
-4.228248 10.311380 0.144340 17
-4.192005 10.303734 0.145721 17
-4.158590 10.307586 0.146083 17
-4.124273 10.307435 0.146784 18
-4.089983 10.307158 0.147483 17
-4.056597 10.310645 0.147843 17
-4.019768 10.298446 0.149556 16
-3.986440 10.301681 0.149914 17
-3.951446 10.297002 0.150948 18
-3.918151 10.299993 0.151304 18
-3.885665 10.306767 0.151320 16
-3.851607 10.297475 0.152689 18
-3.815947 10.296525 0.153381 18
-3.781942 10.295120 0.154072 19
-3.749475 10.301419 0.154084 17
-3.714769 10.295856 0.155111 19
-3.680850 10.294083 0.155799 18
-3.649496 10.287676 0.156823 19
-3.613337 10.282029 0.157848 19
-3.581600 10.291667 0.157517 18
-3.547133 10.285480 0.158539 19
-3.512729 10.279167 0.159561 18
-3.481940 10.284262 0.159565 20
-3.445371 10.274032 0.160923 19
-3.412978 10.279157 0.160926 19
-3.379364 10.276289 0.161605 19
-3.345199 10.269357 0.162622 19
-3.311674 10.266244 0.163299 19
-3.280366 10.266726 0.163636 18
-3.245835 10.267552 0.163973 18
-3.213466 10.271980 0.163969 18
-3.180620 10.260277 0.165320 18
-3.148278 10.264478 0.165315 18
-3.114442 10.256700 0.166326 19
-3.082112 10.260670 0.166319 19
-3.049768 10.264526 0.166311 17
-3.018578 10.264127 0.166641 16
-2.984908 10.255877 0.167648 18
-2.952157 10.255432 0.167976 18
-2.919832 10.258835 0.167964 18
-2.887496 10.262126 0.167952 18
-2.854000 10.253402 0.168955 19
-2.821683 10.256462 0.168940 19
-2.789355 10.259411 0.168925 18
-2.756335 10.254304 0.169586 19
-2.724015 10.257024 0.169569 19
-2.693303 10.259502 0.169552 19
-2.660966 10.262003 0.169533 19
-2.628334 10.260414 0.169852 18
-2.595721 10.258711 0.170170 19
-2.563646 10.264848 0.169809 17
-2.533541 10.250783 0.171144 17
-2.499851 10.256798 0.170781 16
-2.467525 10.258623 0.170756 16
-2.436808 10.260252 0.170732 16
-2.404470 10.261856 0.170705 17
-2.371595 10.251403 0.171695 17
-2.339125 10.248797 0.172006 15
-2.306827 10.250061 0.171977 16
-2.272775 10.247283 0.172284 16
-2.240604 10.252299 0.171914 17
-2.211201 10.241179 0.172902 17
-2.178930 10.241997 0.172870 17
-2.146657 10.242701 0.172836 16
-2.112702 10.239334 0.173139 16
-2.080543 10.247778 0.172425 16
-2.048136 10.236183 0.173406 15
-2.015908 10.240417 0.173029 15
-1.983631 10.236567 0.173330 16
-1.952987 10.240577 0.172954 16
-1.919107 10.240485 0.172911 16
-1.886904 10.232312 0.173549 16
-1.857890 10.232034 0.173511 18
-1.823983 10.235579 0.173127 16
-1.791662 10.239030 0.172744 15
-1.760929 10.242402 0.172362 16
-1.727445 10.225669 0.173671 16
-1.695117 10.228782 0.173285 17
-1.662637 10.235765 0.172559 16
-1.630388 10.234667 0.172511 15
-1.599291 10.245468 0.171446 15
-1.567685 10.228221 0.172753 16
-1.535281 10.230774 0.172363 15
-1.503051 10.229232 0.172311 16
-1.470405 10.235537 0.171579 16
-1.438383 10.229789 0.171865 16
-1.406634 10.219952 0.172489 16
-1.373938 10.225916 0.171754 15
-1.343336 10.223919 0.171700 16
-1.310852 10.225682 0.171303 15
-1.278054 10.231306 0.170566 15
-1.246131 10.224893 0.170846 16
-1.212957 10.214266 0.171462 17
-1.179780 10.223513 0.170382 17
-1.147577 10.220730 0.170320 18
-1.116631 10.221951 0.169920 17
-1.084811 10.214980 0.170196 17
-1.051858 10.219798 0.169451 16
-1.019266 10.220533 0.169046 16
-0.987493 10.213227 0.169319 15
-0.954464 10.217697 0.168572 15
-0.922283 10.214128 0.168503 15
-0.892415 10.218738 0.167761 18
-0.860231 10.214952 0.167690 17
-0.827575 10.215009 0.167279 17
-0.794905 10.214951 0.166867 16
-0.763248 10.206872 0.167134 18
-0.731633 10.198685 0.167400 9
-1.046712 7.490300 0.399871 1
-1.058140 7.250383 0.420224 0
-1.032363 7.125708 0.430324 1
-1.018891 7.071229 0.434694 0
-1.006838 7.016897 0.439066 0
-1.000457 6.923040 0.446840 0
-0.975868 6.943245 0.444745 0
-0.963737 6.888684 0.449116 0
-0.941462 6.888918 0.448719 0
-0.935792 6.794871 0.456491 0
-0.922612 6.752035 0.459842 0
-0.908840 6.725224 0.461836 0
-0.885181 6.741107 0.460078 0
-0.866619 6.729487 0.460704 0
-0.849644 6.709984 0.462010 0
-0.828379 6.717999 0.460935 0
-0.812337 6.694476 0.462581 0
-0.791647 6.694337 0.462183 0
-0.758497 6.654848 0.464793 1
-0.740426 6.642826 0.465415 2
-0.721570 6.634640 0.465697 2
-0.700154 6.638060 0.464955 6
-0.683986 6.618079 0.466259 6
-0.663468 6.617472 0.465857 6
-0.642031 6.620671 0.465114 3
-0.627008 6.596648 0.466757 2
-0.603719 6.607455 0.465330 1
-0.585112 6.602925 0.465270 1
-0.563619 6.605825 0.464524 1
-0.543064 6.604779 0.464119 0
-0.524477 6.595936 0.464395 0
-0.503930 6.594746 0.463989 0
-0.485406 6.585773 0.464264 0
-0.465896 6.580590 0.464198 0
-0.443278 6.586879 0.463106 1
-0.423766 6.581548 0.463039 1
-0.403203 6.579989 0.462629 0
-0.385880 6.566848 0.463244 0
-0.353285 6.607298 0.459074 0
-0.340358 6.578686 0.461054 0
-0.283235 6.628360 0.455444 1
-0.278345 6.576972 0.459477 0
-0.247432 6.542542 0.461388 7
-0.224731 6.543834 0.460627 3
-0.198160 6.560540 0.458501 5
-0.132321 6.631510 0.450823 6
-0.100539 6.595913 0.452723 1
-0.086069 6.574273 0.454015 2
-0.056355 6.597887 0.451198 3
-0.027747 6.617591 0.448723 1
-0.018589 6.580691 0.451383 2
0.027031 6.585776 0.449510 3
0.058657 6.612562 0.446345 11
0.093711 6.587104 0.447209 2
0.131732 6.572991 0.447047 12
0.238688 6.796731 0.425700 5
0.266049 6.807629 0.423897 4
0.238899 6.677157 0.435129 2
0.232619 6.602628 0.441218 6
0.240477 6.565282 0.443876 6
0.258939 6.557952 0.443793 11
0.276858 6.546474 0.444049 3
0.298694 6.541928 0.443613 2
0.325617 6.552439 0.441808 2
0.375555 6.618042 0.434849 2
0.415746 6.661725 0.429953 2
0.418436 6.613021 0.433640 2
0.457602 6.596276 0.433455 0
0.504185 6.649918 0.427518 0
0.494073 6.576038 0.433616 0
0.515157 6.571079 0.433178 0
0.552519 6.602414 0.429300 0
0.568797 6.586344 0.429892 0
0.580032 6.559351 0.431515 0
0.636100 6.630091 0.423848 0
0.650719 6.610150 0.424782 0
0.670306 6.601001 0.424683 0
0.696676 6.606193 0.423206 0
0.712815 6.589690 0.423794 0
0.740975 6.598277 0.421971 0
0.775212 6.621549 0.418774 0
0.789576 6.601230 0.419706 0
0.810896 6.595168 0.419258 0
0.825093 6.574761 0.420189 0
0.857091 6.589923 0.417671 0
0.878408 6.583608 0.417222 0
0.908794 6.594948 0.415047 0
0.933810 6.595521 0.413906 0
0.953343 6.585384 0.413799 0
0.970987 6.571651 0.414036 0
1.038927 6.652948 0.404954 0
1.063304 6.653517 0.403813 0
1.083038 6.642928 0.403702 0
1.093230 6.614757 0.405318 0
1.112828 6.604063 0.405206 0
1.145869 6.617723 0.402675 0
1.173228 6.620775 0.401180 0
1.186998 6.599375 0.402103 0
1.272251 6.706851 0.390239 0
1.241841 6.604959 0.399107 0
1.324958 6.704301 0.387923 0
1.336876 6.679006 0.389188 0
1.310464 6.588320 0.397028 0
1.384566 6.669582 0.387566 0
1.406388 6.661298 0.387099 0
1.428193 6.652930 0.386632 0
1.456235 6.659322 0.384791 0
1.474904 6.643355 0.385009 0
1.494600 6.631328 0.384887 0
1.514254 6.619233 0.384763 0
1.545510 6.627984 0.382566 0
1.627512 6.713012 0.372382 0
1.666604 6.730773 0.369133 0
1.673764 6.697907 0.371086 0
1.702255 6.698603 0.369570 0
1.700508 6.652317 0.372910 0
1.732295 6.660181 0.370705 0
1.760792 6.660583 0.369186 0
1.776150 6.640910 0.369750 0
1.806882 6.644414 0.367882 0
1.844346 6.657698 0.364971 0
1.846230 6.617975 0.367617 0
1.865834 6.604652 0.367484 0
1.889903 6.597831 0.366655 0
1.915260 6.594865 0.365484 0
1.941616 6.591111 0.364306 0
1.968969 6.586555 0.363120 0
2.059793 6.673659 0.352198 0
2.072653 6.649855 0.353102 0
2.101662 6.648691 0.351570 0
2.130711 6.647393 0.350037 0
2.149432 6.633794 0.349902 0
2.178516 6.632266 0.348367 0
2.207640 6.630603 0.346831 0
2.220148 6.606429 0.347732 0
2.250681 6.608478 0.345853 0
2.282254 6.609645 0.343965 0
2.300390 6.590885 0.344161 0
2.324744 6.582303 0.343317 0
2.361262 6.589393 0.340728 0
2.392990 6.590003 0.338835 0
2.426255 6.594363 0.336600 0
2.438371 6.569627 0.337497 0
2.477625 6.579204 0.334554 0
2.494600 6.560565 0.334752 0
2.528996 6.563600 0.332504 0
2.593590 6.603597 0.326061 0
2.615660 6.590752 0.325557 0
2.657949 6.602437 0.322255 0
2.706218 6.583108 0.320550 1
2.728258 6.569834 0.320042 2
2.752835 6.559516 0.319184 1
2.847679 6.593837 0.311171 4
2.960867 6.643442 0.301029 2
2.941153 6.581282 0.306120 1
3.026704 6.601399 0.299488 6
3.048898 6.586926 0.298971 6
3.079056 6.581244 0.297400 3
3.168147 6.640334 0.288110 1
3.206637 6.642985 0.285482 2
3.198356 6.596496 0.288828 2
3.213432 6.571704 0.289350 1
3.241992 6.561440 0.288116 1
3.269577 6.551955 0.286889 2
3.317131 6.567333 0.282867 2
3.403494 6.617174 0.274248 5
3.512090 6.612089 0.267381 0
5.350129 8.448271 0.037791 1
5.339705 8.385839 0.042125 1
5.365449 8.360311 0.041884 1
5.410835 8.354406 0.039178 1
5.430813 8.323016 0.039640 1
5.460739 8.304058 0.038704 2
5.480502 8.272533 0.039165 2
5.514422 8.254846 0.037863 2
5.536841 8.225940 0.037970 2
5.559150 8.196967 0.038077 2
5.580096 8.169243 0.038196 2
5.607979 8.145614 0.037596 2
5.624169 8.110968 0.038408 2
5.654780 8.089882 0.037454 2
5.674875 8.056509 0.037899 2
5.696534 8.027116 0.038003 2
5.735739 8.013774 0.035987 2
5.750107 7.980184 0.036809 2
5.781570 7.957205 0.035839 2
5.790962 7.916862 0.037355 2
5.819823 7.896408 0.036408 2
5.843856 7.869206 0.036156 2
5.858800 7.834048 0.036965 2
5.864573 7.791028 0.038835 3
5.911807 7.736231 0.038328 14
5.944384 7.716456 0.037011 20
5.970831 7.691392 0.036401 23
5.994148 7.663665 0.036145 24
6.014307 7.633306 0.036243 29
6.039336 7.609363 0.035645 22
6.065444 7.583926 0.035032 19
6.094560 7.560906 0.034064 18
6.123612 7.537763 0.033095 17
6.127763 7.494521 0.034966 15
6.144165 7.461275 0.035417 13
6.160433 7.427993 0.035868 14
6.189091 7.404534 0.034897 10
6.217683 7.380953 0.033925 10
6.246210 7.357251 0.032952 11
6.284140 7.340721 0.030911 7
6.331548 7.331264 0.027801 4
6.351105 7.259333 0.029790 1
6.369722 7.227893 0.029881 2
6.394616 7.201153 0.029259 1
6.416219 7.171949 0.028993 2
6.434505 7.140315 0.029083 2
6.459117 7.113316 0.028460 2
6.470723 7.076891 0.029262 1
6.508082 7.059027 0.027211 2
6.525942 7.027118 0.027299 2
6.553445 7.002053 0.026317 2
6.574352 6.972296 0.026047 2
6.595154 6.942467 0.025777 2
6.606018 6.905772 0.026578 2
6.633161 6.880338 0.025593 2
6.643760 6.843580 0.026393 2
6.666399 6.817244 0.025778 2
6.680042 6.782657 0.026221 2
6.701186 6.750947 0.025935 2
6.718889 6.716967 0.026007 2
6.740145 6.691854 0.025403 2
6.754276 6.655582 0.025832 2
6.774954 6.623601 0.025544 2
6.800272 6.598898 0.024567 2
6.818798 6.569814 0.024306 2
6.828084 6.532758 0.025106 2
6.854105 6.506272 0.024113 2
6.869895 6.473367 0.024196 2
6.892346 6.444598 0.023560 2
6.907906 6.411584 0.023642 2
6.919937 6.376461 0.024083 2
6.928418 6.339265 0.024883 2
6.947009 6.308204 0.024605 2
6.972346 6.281138 0.023609 2
6.998520 6.252396 0.022598 2
7.013365 6.219084 0.022678 2
7.030630 6.189296 0.022412 2
7.038330 6.151932 0.023212 2
7.077041 6.132308 0.020773 2
7.094909 6.100729 0.020492 3
7.104829 6.066778 0.020945 2
7.122468 6.035102 0.020664 2
7.133017 5.999520 0.021102 2
7.153916 5.969656 0.020460 2
7.174718 5.939708 0.019817 2
7.181385 5.902132 0.020616 2
7.187901 5.864569 0.021415 2
7.221654 5.800581 0.020849 15
7.238363 5.768499 0.020566 21
7.244335 5.730886 0.021365 22
7.278539 5.707784 0.019275 22
7.312694 5.684501 0.017183 12
7.361040 5.668184 0.013644 3
7.334487 5.614322 0.017696 2
7.361263 5.587133 0.016325 2
7.369273 5.552694 0.016777 2
7.367192 5.511410 0.018299 2
7.368528 5.471921 0.019461 2
7.369702 5.432478 0.020623 2
7.392330 5.403282 0.019612 1
7.404042 5.368919 0.019688 2
7.419243 5.336203 0.019401 2
7.423469 5.298447 0.020201 1
7.434798 5.264014 0.020277 2
7.442369 5.227917 0.020715 2
7.457077 5.195068 0.020428 1
7.468028 5.160556 0.020503 1
7.475204 5.124421 0.020941 1
