# .PCD v.7 - Point Cloud Data file format
VERSION .7
FIELDS x y z intensity
SIZE 4 4 4 1
TYPE F F F U
COUNT 1 1 1 1
WIDTH 1548
HEIGHT 1
VIEWPOINT 0 0 0 1 0 0 0
POINTS 1548
DATA ascii
-6.773269 6.947584 0.836550 25
-6.747443 6.958108 0.836791 26
-6.726585 6.974782 0.836903 24
-6.688304 6.969423 0.837463 21
-6.655059 6.970161 0.837894 25
-6.631701 6.983358 0.838067 23
-6.605861 6.993302 0.838303 21
-6.582444 7.006310 0.838474 22
-6.549291 7.006507 0.838900 20
-6.523437 7.016113 0.839134 22
-6.501029 7.028015 0.839297 26
-6.475143 7.037419 0.839529 25
-6.451629 7.049929 0.839696 18
-6.426771 7.058347 0.839920 14
-6.395067 7.061758 0.840282 16
-6.373850 7.077201 0.840383 16
-6.345570 7.082832 0.840673 17
-6.319629 7.091594 0.840900 17
-6.290118 7.092969 0.841247 16
-6.270027 7.112068 0.841286 15
-6.239471 7.113961 0.841637 15
-6.216864 7.124832 0.841791 14
-6.186353 7.126477 0.842140 19
-6.154811 7.128717 0.842492 19
-6.132190 7.139283 0.842644 21
-6.108470 7.150491 0.842800 21
-6.083645 7.162328 0.842960 21
-6.054315 7.162635 0.843299 20
-6.030549 7.173548 0.843452 24
-6.003461 7.176968 0.843726 21
-5.981843 7.191043 0.843815 23
-5.955848 7.198317 0.844029 24
-5.930919 7.209549 0.844184 20
-5.904908 7.216614 0.844396 21
-5.876767 7.220188 0.844670 20
-5.852882 7.230427 0.844818 21
-5.831079 7.243977 0.844903 21
-5.810323 7.256779 0.844983 17
-5.782183 7.259935 0.845253 21
-5.758208 7.269815 0.845398 23
-5.736269 7.283034 0.845480 23
-5.710191 7.289304 0.845685 24
-5.689285 7.301704 0.845761 21
-5.662086 7.308428 0.845970 21
-5.637096 7.313754 0.846169 22
-5.615004 7.326550 0.846247 22
-5.588894 7.332325 0.846448 20
-5.570686 7.351910 0.846401 23
-5.539760 7.346423 0.846783 17
-5.523406 7.369354 0.846672 14
-4.634737 5.817925 0.874456 20
-4.781581 6.125177 0.869246 19
-4.623938 5.878623 0.873824 32
-4.610663 5.894928 0.873755 42
-4.712548 6.126239 0.869914 27
-4.529440 5.825017 0.875409 30
-4.490176 5.791497 0.876202 39
-4.491925 5.835747 0.875637 20
-4.439037 5.773097 0.876920 60
-4.468029 5.870654 0.875429 44
-4.455538 5.930883 0.874791 31
-4.399652 5.905193 0.875629 154
-4.377186 5.902913 0.875862 179
-4.344246 5.878966 0.876463 108
-4.327169 5.887259 0.876510 57
-4.316975 5.909919 0.876311 69
-4.295502 5.906869 0.876539 65
-4.262997 5.882423 0.877136 46
-4.212941 5.821958 0.878347 19
-4.220401 5.880228 0.877531 24
-4.118384 5.702637 0.880696 12
-4.106882 5.721068 0.880554 45
-4.159236 5.881742 0.878027 33
-4.178819 5.969378 0.876723 21
-4.156582 5.966116 0.876948 17
-4.079069 5.838535 0.879250 31
-4.028767 5.768824 0.880571 45
-4.033409 5.823441 0.879815 51
-4.056485 5.922310 0.878328 21
-4.052356 5.963139 0.877820 19
-4.239563 6.461438 0.869760 15
-4.103007 6.184671 0.874488 13
-4.053105 6.114365 0.875804 24
-3.976730 5.977034 0.878214 30
-4.004798 6.095078 0.876425 24
-3.994917 6.124846 0.876099 28
-3.945735 6.049658 0.877469 27
-3.913583 6.019277 0.878111 32
-3.883579 6.043670 0.877995 39
-3.839684 5.983310 0.879121 57
-3.783158 5.884896 0.880851 36
-3.728725 5.789903 0.882517 51
-3.724290 5.829866 0.882002 51
-3.710948 5.843214 0.881909 50
-3.789437 6.116745 0.877642 33
-3.768871 6.115556 0.877793 20
-3.692985 5.955686 0.880484 10
-3.665207 5.931458 0.880995 21
-3.657858 5.963581 0.880599 29
-3.632402 5.942658 0.881047 13
-3.641700 6.028134 0.879806 16
-3.626612 6.041570 0.879711 16
-3.578349 5.956378 0.881187 15
-3.542249 5.900808 0.882176 45
-3.509691 5.860838 0.882925 54
-3.492333 5.862134 0.883007 55
-3.474133 5.863633 0.883090 45
-3.459140 5.872450 0.883051 51
-3.456018 5.923583 0.882350 20
-3.461735 6.005404 0.881167 11
-3.431749 5.968425 0.881851 14
-3.376269 5.842992 0.883918 31
-3.376178 5.909645 0.882976 40
-3.375393 5.972268 0.882093 13
-3.359947 5.980784 0.882051 12
-3.337186 5.966367 0.882370 12
-3.286104 5.847676 0.884312 16
-3.293059 5.941101 0.882946 17
-3.237982 5.806785 0.885127 31
-3.237358 5.873125 0.884182 24
-3.199175 5.792135 0.885518 30
-3.217897 5.935972 0.883371 14
-3.194794 5.917055 0.883746 44
-3.176730 5.921547 0.883760 31
-3.169824 5.964417 0.883173 21
-3.136618 5.902487 0.884206 43
-3.133186 5.960858 0.883378 18
-3.104968 5.918173 0.884110 30
-3.096677 5.961128 0.883522 24
-3.062662 5.895021 0.884613 25
-3.035157 5.847885 0.885403 30
-3.033497 5.926048 0.884274 28
-3.023821 5.960868 0.883803 27
-3.004819 5.956724 0.883932 21
-2.988346 5.960161 0.883940 17
-2.970993 5.963719 0.883948 14
-2.936402 5.880930 0.885274 24
-2.932308 5.955126 0.884202 17
-2.914329 5.950467 0.884328 32
-2.887366 5.902676 0.885113 27
-2.867174 5.894243 0.885298 30
-2.854481 5.916900 0.885004 30
-2.833076 5.896366 0.885367 40
-2.825564 5.954545 0.884533 30
-2.809579 5.965420 0.884416 28
-2.791549 5.964410 0.884479 21
-2.774405 5.963193 0.884541 24
-2.757912 5.965866 0.884543 30
-2.736204 5.940961 0.884963 44
-2.707412 5.868526 0.886102 40
-2.691565 5.879015 0.885983 36
-2.679122 5.913199 0.885503 34
-2.665321 5.939436 0.885143 36
-2.634832 5.846792 0.886580 42
-2.630219 5.940276 0.885200 30
-2.615552 5.962410 0.884899 27
-2.598703 5.968635 0.884836 25
-2.581696 5.966757 0.884893 30
-2.564805 5.972867 0.884830 26
-2.546474 5.967003 0.884945 28
-2.520471 5.893519 0.886079 41
-2.509959 5.955074 0.885175 43
-2.492627 5.956964 0.885169 45
-2.475288 5.958792 0.885163 45
-2.456748 5.948621 0.885336 33
-2.437515 5.930419 0.885629 43
-2.419898 5.928073 0.885681 63
-2.406588 5.973468 0.885013 48
-2.389535 5.978981 0.884945 44
-2.372992 5.980378 0.884936 47
-2.354624 5.969827 0.885106 48
-2.337544 5.975162 0.885036 46
-2.320431 5.980438 0.884965 49
-2.302737 5.977675 0.885014 52
-2.285328 5.978841 0.885002 48
-2.267914 5.979946 0.884990 44
-2.250497 5.980990 0.884977 51
-2.232639 5.973986 0.885084 51
-2.215447 5.978901 0.885011 48
-2.198415 5.987752 0.884876 42
-2.180795 5.984558 0.884922 35
-2.163199 5.981302 0.884966 32
-2.146075 5.989974 0.884831 33
-2.128219 5.978601 0.884995 37
-2.110807 5.979157 0.884978 42
-2.093942 5.967636 0.885142 44
-2.075700 5.968093 0.885123 46
-2.059274 5.972447 0.885046 47
-2.041950 5.976762 0.884967 47
-2.024493 5.973019 0.885008 44
-2.007063 5.969213 0.885049 42
-1.989685 5.969347 0.885029 42
-1.972237 5.941423 0.885430 46
-1.954924 5.973432 0.884927 49
-1.937513 5.977383 0.884845 48
-1.920139 5.973275 0.884883 45
-1.903206 5.933112 0.885463 34
-1.885236 5.980872 0.884716 40
-1.869054 5.960602 0.884996 36
-1.851184 5.984246 0.884609 39
-1.834563 5.951849 0.885068 37
-1.816211 5.987362 0.884499 37
-1.798158 5.978806 0.884593 45
-1.781618 5.978241 0.884568 47
-1.764210 5.977588 0.884542 47
-1.748000 5.948903 0.884938 43
-1.732296 5.932191 0.885154 58
-1.712199 5.971269 0.884519 40
-1.693539 5.994337 0.884127 43
-1.675849 5.997369 0.884037 38
-1.659096 5.984369 0.884190 49
-1.641412 5.987280 0.884099 51
-1.624578 5.990186 0.884009 51
-1.607128 5.988985 0.883978 48
-1.589108 5.983669 0.884005 41
-1.575403 5.934494 0.884702 70
-1.557177 5.945080 0.884487 56
-1.536506 5.983496 0.883847 60
-1.519081 5.981987 0.883813 55
-1.500706 6.000411 0.883476 49
-1.482464 6.006740 0.883320 38
-1.465351 6.001062 0.883345 30
-1.449085 5.987368 0.883492 44
-1.430419 6.005533 0.883153 31
-1.420734 5.924041 0.884334 47
-1.399929 5.953923 0.883809 32
-1.379320 5.987793 0.883224 27
-1.360930 5.993678 0.883064 33
-1.342388 6.007542 0.882783 31
-1.322999 6.013180 0.882619 27
-1.307022 5.999028 0.882763 25
-1.287421 6.012574 0.882478 27
-1.270228 6.014278 0.882378 25
-1.253255 6.007879 0.882398 26
-1.233727 6.013172 0.882231 25
-1.220889 5.978955 0.882679 34
-1.200157 6.004157 0.882209 24
-1.230479 5.693197 0.886954 42
-1.163922 6.006630 0.881999 24
-1.155612 5.952638 0.882756 28
-1.133505 5.973330 0.882340 26
-1.144181 5.804795 0.884879 18
-1.110334 5.900442 0.883296 30
-1.097375 5.873815 0.883620 45
-1.055673 6.012631 0.881358 32
-1.045228 5.966013 0.881986 36
-1.038183 5.907754 0.882802 49
-1.030783 5.853436 0.883558 47
-1.008465 5.877644 0.883078 45
-0.986046 5.905848 0.882537 33
-0.945957 6.016113 0.880694 30
-0.930031 6.004707 0.880767 46
-0.908444 6.020656 0.880406 36
-0.890016 6.016768 0.880352 44
-0.875017 6.001275 0.880486 43
-0.854971 6.013274 0.880187 45
-0.834827 6.021095 0.879948 39
-0.815502 6.024936 0.879769 36
-0.797037 6.024807 0.879653 36
-0.784041 6.001248 0.879909 49
-0.770212 5.985649 0.880043 53
-0.753655 5.981676 0.879990 47
-0.728694 6.004409 0.879495 42
-0.704430 6.027246 0.879001 32
-0.687735 6.023055 0.878947 32
-0.673278 6.002861 0.879135 30
-0.664861 5.963506 0.879640 37
-0.639192 5.993987 0.879021 39
-0.615689 6.008429 0.878645 39
-0.595037 6.015284 0.878397 34
-0.580693 5.998921 0.878525 28
-0.557843 6.013337 0.878150 39
-0.536843 6.024054 0.877840 34
-0.520384 6.015211 0.877840 30
-0.503970 6.006314 0.877840 33
-0.512153 5.917038 0.879165 28
-0.458716 6.030524 0.877146 30
-0.454123 5.979041 0.877835 24
-0.467116 5.874308 0.879411 32
-0.460384 5.838763 0.879856 54
-0.433910 5.864033 0.879286 41
-0.386699 5.953991 0.877640 21
-0.386488 5.895152 0.878460 30
-0.324919 6.026575 0.876113 18
-0.299862 6.043635 0.875664 19
-0.284377 6.034307 0.875661 26
-0.265508 6.032218 0.875528 30
-0.245346 6.033845 0.875331 30
-0.235556 6.005136 0.875642 33
-0.211060 6.022057 0.875192 28
-0.199265 5.996748 0.875435 26
-0.169281 6.028567 0.874729 27
-0.165232 5.984647 0.875294 36
-0.123230 6.046016 0.874072 17
-0.114371 6.012971 0.874441 19
-0.082927 6.043990 0.873727 14
-0.067585 6.033993 0.873719 18
-0.048575 6.031096 0.873579 21
-0.027580 6.035934 0.873314 18
-0.001882 6.047466 0.872912 12
0.011963 6.033495 0.872966 12
0.018671 5.996478 0.873399 31
0.043547 6.008112 0.872999 42
0.081992 6.053016 0.872017 18
0.102667 6.053265 0.871808 24
0.116401 6.038999 0.871860 24
0.131820 6.023968 0.871904 30
0.138542 5.990820 0.872275 45
0.162224 5.998194 0.871935 42
0.189826 6.016870 0.871403 34
0.202600 5.998320 0.871514 30
0.236049 6.027402 0.870781 23
0.271338 6.059973 0.869982 17
0.251671 5.968089 0.871392 18
0.270668 5.963987 0.871242 31
0.344090 6.080051 0.868941 10
0.358516 6.064702 0.868983 12
0.379562 6.063841 0.868765 12
0.379505 6.019792 0.869334 14
0.395345 6.007974 0.869311 17
0.419096 5.970172 0.869530 23
0.455565 6.001468 0.868718 25
0.487033 6.021779 0.868102 18
0.485201 5.973710 0.868734 22
0.598386 6.158702 0.865088 11
0.640699 6.150977 0.864694 15
0.619752 6.067446 0.865988 12
0.660237 6.100664 0.865095 15
0.789191 6.308673 0.860967 12
0.814203 6.313715 0.860606 16
0.692240 6.034472 0.865536 18
0.973093 6.519356 0.856143 11
0.905594 6.346861 0.859091 11
0.929968 6.347386 0.858786 16
0.906604 6.259973 0.860145 16
0.766399 5.962867 0.865509 20
0.912471 6.188336 0.860946 7
0.798232 5.940700 0.865382 14
0.901676 6.084468 0.862340 24
0.866225 5.980485 0.864043 27
0.919318 6.033107 0.862735 27
0.930916 6.012627 0.862832 45
1.046780 6.172010 0.859438 18
1.060808 6.154578 0.859464 14
0.972023 5.960896 0.862916 44
1.133562 6.195249 0.858034 15
0.965881 5.876146 0.863996 36
1.183381 6.198040 0.857344 25
1.238952 6.248538 0.856016 30
1.213384 6.165739 0.857322 33
1.283988 6.239686 0.855516 28
1.101435 5.905816 0.861840 25
1.304450 6.189242 0.855822 34
1.197672 5.982345 0.859652 8
1.378451 6.227607 0.854371 15
1.327544 6.108241 0.856432 19
1.472355 6.290869 0.852356 11
1.669070 6.554147 0.846644 14
1.475401 6.217249 0.853144 19
1.375709 6.029077 0.856654 17
1.447428 6.096661 0.854887 14
1.573652 6.247985 0.851415 14
1.641313 6.308475 0.849781 12
1.648582 6.279352 0.849999 27
1.648896 6.240356 0.850423 30
1.546519 6.053465 0.853947 19
1.504670 5.955914 0.855617 52
1.524279 5.947062 0.855427 56
1.590094 6.003412 0.853855 23
1.602924 5.984478 0.853870 29
1.949424 6.429940 0.843980 10
1.848259 6.211864 0.847805 15
2.105614 6.524073 0.840653 20
2.196275 6.606292 0.838425 9
2.199118 6.569304 0.838770 15
1.947198 6.193364 0.846509 17
2.227342 6.528105 0.838770 19
1.877441 6.030504 0.849260 14
2.323343 6.575642 0.836809 32
1.932087 6.028912 0.848435 33
1.971751 6.043705 0.847671 28
1.984430 6.023654 0.847677 30
2.006929 6.016133 0.847402 36
2.066754 6.055477 0.846069 14
2.584334 6.665790 0.831832 19
2.096990 6.021016 0.845936 22
2.567395 6.566418 0.833085 17
2.335077 6.203591 0.840349 64
2.445179 6.299371 0.837651 28
2.722691 6.593927 0.830329 28
2.536208 6.332748 0.835859 14
2.559998 6.323123 0.835565 11
2.688583 6.434263 0.832411 8
2.670108 6.376358 0.833262 13
2.462871 6.100893 0.839258 28
2.596296 6.218085 0.835962 25
2.804459 6.418571 0.830652 14
2.945210 6.539751 0.827194 15
2.820960 6.361278 0.830906 12
3.296152 6.853805 0.818454 22
3.359461 6.882921 0.817126 15
3.336951 6.816967 0.818102 7
3.362655 6.804342 0.817780 21
2.854315 6.212329 0.831691 21
2.823532 6.142734 0.832833 29
2.795055 6.076340 0.833905 52
2.799951 6.044320 0.834101 55
3.199146 6.431937 0.823859 22
2.975564 6.125638 0.830366 10
3.138083 6.257820 0.826413 8
3.149514 6.196412 0.826733 113
2.970867 5.979423 0.831685 22
3.194191 6.169118 0.826175 15
3.110318 6.049399 0.828646 19
3.892129 6.788905 0.808725 13
3.312789 6.180298 0.823982 7
3.253652 6.086380 0.825796 15
3.219752 6.018009 0.826952 9
3.369718 6.127573 0.823387 7
3.217161 5.945774 0.827572 14
3.332979 6.021355 0.824887 5
3.408670 6.057754 0.823232 1
3.452583 6.063599 0.822389 7
3.476110 6.050125 0.822063 7
3.534865 6.033686 0.821112 7
4.453930 6.836171 0.798190 13
4.459467 6.800328 0.798355 30
4.015689 6.360836 0.809808 35
4.064233 6.366574 0.808865 12
3.797729 6.094525 0.815800 10
3.770480 6.034757 0.816739 10
4.561884 6.691178 0.797241 11
3.910367 6.087409 0.813743 12
3.968387 6.099802 0.812564 10
4.068220 6.149289 0.810335 10
3.994763 6.050520 0.812406 11
3.990991 6.011650 0.812743 18
3.943241 5.937938 0.814151 5
3.915215 5.877902 0.815089 2
4.447030 6.245102 0.802469 17
4.601774 6.333825 0.798914 10
4.651481 6.336034 0.797940 4
4.610448 6.227427 0.799426 13
4.678861 6.244170 0.797991 10
4.426719 6.008464 0.804368 13
4.491491 6.023039 0.803013 9
4.629163 6.093547 0.799887 5
4.676452 6.058288 0.799168 11
4.765098 6.087075 0.797248 29
4.801129 6.079176 0.796581 16
5.951895 6.904375 0.769003 16
5.379303 6.434533 0.783063 13
5.823329 6.721919 0.772595 17
5.099828 6.153090 0.790216 8
6.004550 6.772186 0.768692 15
5.188500 6.139843 0.788510 14
6.074987 6.735983 0.767471 15
5.462330 6.258802 0.782358 12
5.402210 6.177577 0.783998 16
6.134698 6.651528 0.766705 9
5.664913 6.283419 0.778125 11
5.557295 6.171854 0.780877 10
5.576734 6.108014 0.780795 6
6.141738 6.450475 0.767560 20
6.142999 6.369451 0.767917 218
6.141685 6.327931 0.768137 204
6.152642 6.296658 0.768053 182
6.195514 6.282126 0.767230 39
6.247555 6.275279 0.766180 12
7.485855 7.026149 0.737140 37
7.522698 7.005504 0.736460 15
7.499633 6.944671 0.737199 37
7.432165 6.856530 0.738978 22
7.421985 6.804748 0.739403 19
7.410553 6.754745 0.739844 28
7.489648 6.755773 0.738174 29
7.611332 6.786555 0.735487 28
7.663361 6.769968 0.734449 28
7.514146 6.637685 0.738106 26
7.410840 6.529657 0.740696 33
7.385267 6.470613 0.741453 26
7.393014 6.433558 0.741419 7
7.382190 6.340305 0.741970 30
7.397325 6.305687 0.741760 27
7.628349 6.392748 0.736516 8
7.556377 6.308518 0.738332 8
7.693801 6.341188 0.735268 15
8.598040 6.796734 0.714357 10
8.908604 6.920685 0.707271 14
7.952388 6.351855 0.729643 7
7.980678 6.324628 0.729106 16
8.882835 6.757687 0.708292 8
8.107014 6.300004 0.726423 11
7.969556 6.183280 0.729728 30
8.174859 6.247932 0.725075 16
8.346988 6.289382 0.721204 14
8.376104 6.258821 0.720638 10
9.140401 6.599695 0.703052 20
9.151784 6.559270 0.702893 31
9.153241 6.511552 0.702965 45
9.151868 6.460186 0.703103 68
9.144783 6.411027 0.703360 65
9.174430 6.377457 0.702769 12
9.302279 6.388470 0.699912 18
9.158496 6.271904 0.703319 25
9.302569 6.294645 0.700072 15
9.440597 6.311116 0.696968 6
9.600652 6.336759 0.693354 6
9.810980 6.386727 0.688575 9
9.874368 6.363389 0.687189 23
9.976928 6.359781 0.684894 33
10.079604 6.355522 0.682593 21
10.156787 6.339306 0.680877 20
10.252322 6.330627 0.678735 15
10.479110 6.380742 0.673565 12
10.563991 6.365681 0.671662 18
10.760270 6.394809 0.667195 15
10.911749 6.406212 0.663753 18
11.029292 6.405046 0.661088 22
11.061954 6.368049 0.660372 22
11.181518 6.361136 0.657657 8
11.114914 6.280729 0.659219 8
11.707745 6.467946 0.645607 8
11.890331 6.485095 0.641430 9
12.035977 6.486416 0.638099 9
12.174765 6.427340 0.634932 21
12.246916 6.395407 0.633279 9
12.445333 6.413417 0.628718 9
12.718043 6.460588 0.622444 9
12.770808 6.421771 0.621223 16
13.090222 6.479953 0.613866 16
13.435580 6.548158 0.605908 6
13.636623 6.556213 0.601261 7
13.727597 6.527027 0.599143 10
13.644876 6.436652 0.601015 10
14.064488 6.520442 0.591326 7
14.386467 6.567789 0.583876 7
14.997492 6.582022 0.569660 11
15.115754 6.555014 0.566875 11
15.333002 6.559120 0.561804 12
15.485702 6.541162 0.558214 12
15.577445 6.503018 0.556020 8
16.558992 6.740625 0.533320 8
17.292858 6.898584 0.516318 9
17.335295 6.841671 0.515241 13
17.494518 6.812187 0.511455 9
17.384315 6.705715 0.513880 9
18.091326 6.838597 0.497449 10
18.118282 6.774286 0.496702 15
18.630697 6.844149 0.484738 11
19.486521 7.006639 0.464833 12
19.782068 7.003685 0.457840 12
19.736294 6.913647 0.458740 6
21.102804 7.114065 0.426796 14
21.112419 7.030485 0.426378 14
21.157621 6.951872 0.425119 14
22.425188 7.192605 0.395581 15
22.566921 7.137587 0.392072 15
22.856098 7.118086 0.385138 16
23.098804 7.085299 0.379268 8
23.590475 7.110513 0.367615 8
23.760052 6.966325 0.363154 8
25.636349 7.300858 0.319311 9
25.807533 7.233005 0.315009 9
25.903324 7.152448 0.312463 10
27.849964 7.479372 0.266890 11
30.046602 7.607307 0.214634 31
30.184271 7.513017 0.210993 16
30.225311 7.410299 0.209635 16
30.277798 7.309688 0.208002 16
42.465656 9.056523 -0.078799 36
32.766441 5.803357 0.141237 20
32.544617 5.533462 0.145250 19
32.290520 5.378433 0.150616 19
32.869850 5.322971 0.136240 20
33.019718 5.217680 0.132029 20
33.057354 5.104461 0.130496 20
33.230404 5.000315 0.125708 20
16.057812 1.408793 0.522020 4
15.955203 1.343844 0.524032 3
15.957251 1.215638 0.522977 7
15.917957 1.149610 0.523414 7
15.906397 1.087138 0.523195 7
15.890615 1.027857 0.523100 7
15.886626 0.965552 0.522687 11
15.874438 0.906427 0.522496 11
15.894019 0.844011 0.521495 11
15.885391 0.781783 0.521181 11
15.888541 0.719432 0.520573 11
15.879479 0.657280 0.520260 11
15.890190 0.594745 0.519455 7
15.896685 0.532234 0.518748 7
15.910862 0.466321 0.517818 7
15.928998 0.406411 0.516839 7
15.910968 0.347666 0.516751 7
15.932454 0.281221 0.515622 3
15.945838 0.218080 0.514715 3
15.959146 0.157965 0.513833 3
23.063101 -2.459351 0.313298 7
-14.684907 0.996743 0.679499 2
-15.088713 1.042782 0.670971 2
-15.596302 1.094801 0.660200 2
-16.175686 1.148877 0.647858 2
-16.654924 1.202969 0.637721 2
-33.058754 1.771909 0.280529 13
-32.972061 1.872636 0.283204 12
-32.968811 1.980877 0.284088 12
-32.885250 2.086272 0.286711 12
-32.625397 2.286094 0.293895 100
-32.604481 2.397739 0.295158 11
-32.595406 2.504496 0.296116 100
-32.578251 2.605440 0.297202 100
-32.576138 2.717869 0.298028 24
-32.663483 2.932525 0.297570 12
-32.740326 3.045277 0.296634 12
-32.756920 3.154383 0.296991 12
-32.801044 3.265691 0.296749 12
-33.319241 3.414008 0.286315 13
-34.028103 3.581432 0.271804 14
-36.350075 3.889925 0.222734 19
-36.451309 4.019742 0.221317 19
-39.389027 9.335374 0.181877 110
-39.315311 9.462763 0.183856 108
-35.785877 8.910905 0.257929 8
-28.613728 7.818243 0.408355 198
-26.802057 7.539251 0.446286 24
-25.032686 7.327560 0.483425 49
-40.843422 11.970222 0.157438 59
-40.772213 12.089200 0.159164 89
-22.880331 7.047738 0.528471 23
-40.738022 12.365495 0.160365 89
-40.784088 12.673953 0.159881 30
-20.760151 6.863199 0.572849 116
-26.124376 8.812970 0.462700 16
-25.526863 8.710510 0.475088 7
-24.877119 8.675207 0.488614 14
-24.479017 8.629244 0.496870 14
-24.087759 8.587054 0.504979 13
-23.712229 8.547351 0.512756 19
-23.302177 8.484286 0.521229 18
-17.531799 6.580429 0.639913 52
-22.509604 8.444521 0.537615 63
-22.367073 8.473518 0.540564 90
-14.786803 5.795583 0.696377 2
-14.567991 5.763853 0.700874 2
-14.251709 5.739997 0.707364 7
-14.235061 5.782871 0.707696 11
-14.221984 5.827155 0.707950 19
-14.066731 5.817258 0.711122 19
-13.919976 5.807190 0.714117 19
-13.748346 5.783551 0.717622 13
-13.542879 5.747180 0.721818 11
-13.407999 5.738547 0.724560 12
-13.365540 5.767661 0.725399 10
-13.278818 5.777840 0.727144 12
-13.159063 5.773334 0.729567 12
-13.043152 5.769634 0.731907 12
-12.939238 5.768057 0.734001 12
-12.838285 5.769351 0.736028 14
-12.730146 5.766757 0.738201 12
-12.611209 5.758563 0.740594 16
-12.517972 5.761126 0.742456 16
-12.446680 5.773054 0.743862 16
-12.386333 5.789560 0.745040 13
-12.282474 5.785484 0.747113 13
-12.193256 5.787532 0.748882 13
-12.086075 5.780465 0.751020 13
-11.993505 5.779599 0.752854 14
-11.893860 5.774676 0.754832 17
-11.808760 5.776108 0.756508 14
-11.712998 5.771722 0.758402 15
-11.628978 5.770360 0.760056 15
-11.548653 5.770277 0.761633 14
-11.492612 5.783951 0.762700 13
-11.411627 5.784627 0.764281 14
-11.320072 5.779332 0.766080 17
-11.242887 5.780793 0.767580 17
-11.154327 5.777839 0.769309 16
-11.081749 5.778558 0.770715 15
-10.988058 5.767625 0.772558 15
-10.910517 5.768659 0.774053 15
-10.830402 5.765745 0.775607 18
-10.743388 5.758514 0.777302 22
-10.678414 5.760736 0.778544 19
-10.658213 5.789206 0.778846 19
-10.728786 5.868144 0.777253 30
-10.729152 5.908503 0.777119 25
-10.732822 5.950893 0.776913 27
-10.729356 5.989407 0.776853 30
-10.739596 6.035928 0.776502 27
-10.728857 6.070552 0.776587 28
-10.721435 6.107180 0.776599 30
-10.717311 6.145846 0.776539 30
-10.932264 5.729639 0.832729 7
-10.838009 5.719556 0.834067 7
-10.758028 5.716444 0.835201 7
-10.685211 5.716642 0.836230 7
-10.588752 5.701463 0.837594 8
-10.516197 5.700688 0.838616 7
-10.440256 5.697523 0.839684 7
-10.350482 5.686072 0.840946 8
-10.288758 5.689777 0.841809 6
-10.213206 5.685198 0.842866 6
-10.123909 5.672190 0.844116 7
-10.072893 5.680637 0.844821 11
-10.104853 5.737123 0.844346 12
-10.171001 5.814150 0.843383 15
-10.174765 5.855010 0.843304 14
-10.173184 5.888988 0.843302 13
-10.173177 5.927930 0.843272 13
-10.178969 5.972513 0.843156 13
-10.175183 6.009512 0.843176 14
-10.172121 6.045112 0.843185 15
-10.174822 6.086397 0.843108 13
-10.172151 6.128508 0.843101 9
-10.118747 6.130826 0.843823 14
-10.100756 6.159273 0.844034 23
-10.078390 6.186917 0.844303 17
-10.034225 6.196468 0.844886 15
-9.895266 6.146166 0.846817 11
-9.898207 6.185593 0.846725 11
-9.898232 6.229252 0.846664 11
-9.901725 6.267446 0.846563 10
-9.889905 6.299585 0.846673 10
-10.149848 6.515131 0.842894 17
-10.176826 6.575162 0.842442 19
-10.170485 6.612849 0.842465 19
-10.173857 6.657373 0.842345 18
-10.143182 6.680588 0.842708 15
-10.160309 6.732931 0.842390 12
-10.005231 6.668383 0.844533 4
-9.386619 6.309816 0.853263 11
-16.720875 11.641623 0.747698 31
-16.687347 11.687942 0.748037 34
-16.666061 11.751092 0.748180 36
-16.583342 11.769132 0.749204 21
-16.412098 11.724870 0.751494 36
-16.293150 11.710446 0.753045 32
-16.210926 11.726715 0.754056 34
-16.106459 11.725616 0.755385 24
-15.998996 11.721489 0.756756 38
-15.891736 11.716744 0.758122 40
-8.764878 6.267351 0.861300 31
-8.727507 6.276298 0.861747 53
-8.703654 6.293765 0.862000 70
-8.672563 6.307336 0.862353 81
-8.641458 6.320756 0.862704 78
-8.604106 6.329013 0.863145 80
-8.572995 6.342106 0.863494 101
-8.535675 6.349993 0.863932 102
-8.504562 6.362761 0.864278 104
-8.473441 6.375377 0.864623 102
-8.430017 6.377604 0.865146 102
-8.395852 6.387304 0.865533 102
-8.361697 6.396831 0.865919 78
-8.335540 6.409143 0.866197 80
-8.301395 6.418359 0.866580 68
-8.264235 6.424791 0.867006 65
-8.242208 6.444140 0.867208 80
-8.214102 6.458137 0.867498 63
-8.182972 6.469360 0.867831 39
-8.163811 6.491048 0.867986 36
-8.120707 6.491356 0.868494 34
-8.092547 6.504803 0.868779 30
-8.061404 6.515435 0.869108 33
-8.030261 6.525918 0.869435 37
-7.999120 6.536250 0.869761 37
-7.960139 6.537238 0.870210 39
-7.934888 6.552697 0.870446 35
-7.909601 6.568047 0.870680 40
-7.884281 6.583288 0.870914 41
-7.841534 6.581884 0.871409 50
-7.813314 6.594081 0.871684 51
-7.785082 6.606150 0.871958 39
-7.759706 6.620875 0.872187 34
-7.728579 6.629900 0.872502 39
-7.694609 6.635970 0.872860 39
-7.663507 6.644688 0.873173 36
-7.632415 6.653257 0.873484 37
-7.604153 6.664515 0.873751 35
-7.576874 6.674664 0.874011 39
-7.551397 6.688524 0.874233 35
-7.520309 6.696548 0.874540 33
-7.494796 6.710172 0.874760 36
-7.466485 6.720803 0.875022 33
-7.435405 6.728414 0.875326 32
-7.409842 6.741683 0.875543 36
-7.378771 6.749019 0.875845 35
-7.353178 6.762053 0.876060 36
-7.319397 6.766182 0.876402 36
-7.291074 6.776029 0.876657 36
-7.265448 6.788700 0.876869 33
-7.229039 6.789420 0.877250 31
-7.204422 6.800921 0.877454 29
-7.178770 6.813234 0.877663 27
-7.150437 6.822451 0.877913 30
-7.122104 6.831541 0.878163 27
-7.096409 6.843511 0.878369 26
-7.070693 6.855372 0.878575 27
-7.044956 6.867126 0.878779 26
-7.019200 6.878771 0.878983 30
-6.988234 6.884222 0.879269 31
-6.954705 6.886477 0.879596 32
-6.928946 6.897753 0.879796 36
-6.903169 6.908921 0.879996 31
-6.881998 6.921342 0.880142 29
-6.852600 6.930079 0.880387 30
-6.824242 6.937832 0.880626 31
-6.794407 6.941511 0.880899 27
-6.765033 6.949847 0.881140 27
-6.746702 6.969705 0.881211 29
-6.715848 6.973851 0.881487 29
-6.680068 6.971575 0.881843 27
-6.655275 6.980898 0.882029 27
-6.633289 6.998065 0.882143 26
-6.602512 7.001678 0.882414 23
-6.580120 7.013865 0.882557 20
-6.546952 7.014044 0.882867 24
-6.520022 7.024432 0.883059 26
-6.498643 7.035529 0.883193 27
-6.475400 7.052910 0.883308 18
-6.454212 7.068634 0.883411 14
-6.427992 7.073051 0.883624 16
-6.396246 7.076457 0.883893 19
-6.373696 7.087893 0.884029 18
-6.347719 7.096765 0.884209 17
-6.324056 7.108787 0.884349 15
-6.285429 7.101885 0.884734 13
-6.264071 7.116946 0.884831 18
-6.238085 7.125370 0.885008 21
-6.214369 7.136976 0.885144 20
-6.190624 7.148491 0.885280 25
-6.159986 7.145232 0.885564 24
-6.132916 7.153959 0.885743 23
-6.106916 7.161847 0.885915 24
-6.080912 7.169628 0.886087 26
-6.059319 7.183974 0.886178 27
-6.027777 7.180820 0.886463 24
-5.998509 7.185634 0.886676 25
-5.977945 7.198991 0.886760 27
-5.954088 7.209612 0.886888 24
-5.930207 7.220142 0.887015 25
-5.902025 7.223821 0.887220 25
-5.877081 7.230083 0.887381 26
-5.859507 7.250507 0.887387 28
-5.841839 7.270885 0.887393 19
-5.811530 7.270757 0.887634 24
-5.785427 7.277328 0.887796 24
-5.757258 7.280369 0.887996 30
-5.733225 7.290154 0.888117 27
-5.713257 7.306725 0.888159 27
-5.689156 7.316341 0.888278 28
-5.660996 7.318960 0.888474 25
-5.635072 7.320178 0.888662 26
-5.617836 7.344004 0.888627 24
-5.587703 7.342839 0.888860 24
-5.565508 7.355463 0.888936 27
-4.642065 5.763917 0.906866 14
-5.515146 7.369995 0.889203 8
-4.639996 5.879426 0.906065 26
-4.699325 6.029318 0.904575 29
-4.693108 6.059974 0.904400 25
-4.550745 5.832242 0.907035 20
-4.541502 5.859823 0.906901 12
-4.486953 5.834280 0.907463 37
-4.462827 5.833286 0.907635 44
-4.433000 5.812651 0.907987 17
-4.396671 5.866907 0.907830 117
-4.394753 5.908065 0.907537 178
-4.391670 5.945260 0.907279 115
-4.345473 5.892154 0.907974 102
-4.327468 5.896435 0.908057 49
-4.300846 5.887035 0.908297 46
-4.292302 5.913249 0.908152 50
-4.263206 5.896015 0.908464 47
-4.241008 5.893145 0.908623 45
-4.223881 5.901077 0.908667 49
-4.200935 5.894004 0.908860 49
-4.176352 5.887608 0.909057 43
-4.163374 5.902230 0.909021 41
-4.131598 5.876994 0.909404 32
-4.104859 5.862579 0.909672 37
-4.056705 5.796341 0.910466 46
-4.050178 5.829697 0.910243 102
-4.042712 5.859028 0.910055 49
-4.042867 5.906781 0.909679 49
-4.022599 5.906644 0.909793 45
-4.009356 5.920844 0.909754 40
-3.976911 5.890978 0.910167 41
-3.961303 5.901692 0.910166 48
-3.941155 5.901229 0.910277 49
-3.910651 5.874683 0.910651 101
-3.910626 5.922039 0.910271 43
-3.875298 5.880063 0.910791 43
-3.877013 5.935201 0.910338 101
-3.858309 5.938128 0.910409 101
-3.835906 5.933832 0.910556 101
-3.808250 5.910070 0.910886 48
-3.752600 5.815576 0.911927 43
-3.757296 5.877804 0.911396 44
-3.759367 5.936672 0.910904 102
-3.741601 5.938848 0.910970 102
-3.721634 5.937500 0.911075 102
-3.701698 5.936073 0.911178 102
-3.680479 5.930790 0.911318 50
-3.654108 5.910292 0.911607 104
-3.639068 5.928121 0.911525 50
-3.624824 5.937162 0.911512 101
-3.602497 5.927761 0.911687 49
-3.577758 5.910666 0.911935 45
-3.563046 5.923891 0.911886 48
-3.544592 5.925647 0.911948 44
-3.528911 5.939047 0.911899 50
-3.502065 5.913957 0.912219 40
-3.484547 5.915222 0.912278 45
-3.470856 5.931989 0.912189 49
-3.455910 5.944890 0.912137 48
-3.434315 5.938839 0.912270 45
-3.417633 5.939610 0.912326 48
-3.397252 5.937236 0.912421 45
-3.383047 5.949664 0.912366 44
-3.358099 5.927661 0.912644 46
-3.346239 5.951773 0.912478 45
-3.323797 5.941395 0.912645 49
-3.284286 5.860976 0.913473 45
-3.264356 5.858069 0.913564 46
-3.273767 5.959042 0.912659 48
-3.242291 5.909410 0.913191 49
-3.234937 5.948499 0.912874 50
-3.217623 5.952919 0.912889 50
-3.191573 5.922352 0.913235 49
-3.176353 5.938485 0.913139 49
-3.158996 5.938604 0.913189 50
-3.142645 5.946650 0.913165 50
-3.113504 5.904222 0.913619 50
-3.092698 5.888535 0.913814 45
-3.087131 5.943161 0.913348 50
-3.061098 5.908032 0.913726 50
-3.054249 5.958720 0.913296 101
-3.036900 5.962510 0.913305 50
-3.016269 5.942397 0.913534 50
-3.002260 5.961712 0.913396 102
-2.983287 5.957485 0.913478 103
-2.959596 5.929663 0.913779 101
-2.947807 5.960584 0.913530 50
-2.916665 5.893337 0.914197 50
-2.909325 5.947716 0.913726 50
-2.894969 5.966723 0.913585 102
-2.874694 5.954222 0.913737 103
-2.845274 5.890470 0.914365 45
-2.837927 5.948670 0.913856 102
-2.806427 5.864855 0.914666 49
-2.792760 5.887496 0.914486 43
-2.776318 5.894318 0.914452 45
-2.760482 5.905033 0.914381 109
-2.740805 5.891997 0.914529 104
-2.736614 5.977688 0.913761 109
-2.719201 5.980369 0.913762 108
-2.696489 5.947381 0.914092 103
-2.676312 5.930129 0.914275 103
-2.654024 5.896955 0.914604 45
-2.641810 5.935009 0.914273 101
-2.630936 5.984929 0.913831 109
-2.612813 5.975228 0.913939 109
-2.593387 5.961605 0.914083 106
-2.574556 5.951877 0.914189 106
-2.553411 5.922222 0.914479 103
-2.541760 5.971937 0.914034 109
-2.523918 5.969963 0.914066 109
-2.506097 5.967925 0.914098 109
-2.488297 5.965823 0.914128 108
-2.471336 5.971615 0.914085 109
-2.453156 5.965409 0.914152 109
-2.432743 5.935246 0.914438 107
-2.418414 5.968730 0.914137 109
-2.400328 5.962331 0.914202 109
-2.383648 5.971808 0.914119 109
-2.366583 5.977243 0.914073 109
-2.348240 5.966669 0.914174 109
-2.331737 5.967929 0.914164 109
-2.313208 5.965268 0.914189 109
-2.296979 5.970402 0.914142 109
-2.279082 5.963565 0.914203 109
-2.261479 5.960655 0.914228 109
-2.243444 5.949697 0.914325 109
-2.225917 5.946662 0.914349 109
-2.209216 5.959545 0.914225 109
-2.191683 5.956388 0.914247 109
-2.173831 5.945179 0.914343 109
-2.159070 6.009841 0.913738 115
-2.141693 6.014503 0.913685 118
-2.123894 6.007111 0.913743 126
-2.107897 5.999604 0.913801 143
-2.089227 5.988117 0.913894 152
-2.071960 5.996535 0.913802 143
-2.054712 6.008893 0.913673 143
-2.036440 6.017205 0.913579 118
-2.019876 5.953427 0.914153 109
-2.001685 5.953613 0.914132 109
-1.984420 5.965727 0.914001 109
-1.967921 5.965781 0.913981 109
-1.949661 5.977776 0.913848 109
-1.932564 5.921712 0.914344 101
-1.914953 5.965583 0.913915 106
-1.897386 5.981393 0.913744 109
-1.880030 5.977145 0.913757 109
-1.864287 5.980867 0.913699 109
-1.844943 5.988461 0.913598 109
-1.827497 5.988029 0.913573 109
-1.810174 5.983537 0.913585 109
-1.792478 5.990979 0.913485 109
-1.775468 5.978372 0.913570 109
-1.758058 5.977697 0.913543 109
-1.742222 5.961016 0.913666 50
-1.723361 5.992188 0.913340 109
-1.705903 5.991332 0.913312 109
-1.688232 5.994408 0.913246 109
-1.671640 5.993479 0.913218 109
-1.653061 5.996381 0.913149 109
-1.635330 5.999270 0.913081 109
-1.619054 6.006207 0.912979 109
-1.604389 5.953058 0.913432 50
-1.586140 5.975783 0.913178 106
-1.568812 5.962417 0.913256 108
-1.550477 5.972980 0.913111 106
-1.531038 5.995431 0.912853 109
-1.512670 6.013902 0.912633 109
-1.494769 6.016292 0.912561 109
-1.478269 5.994646 0.912712 109
-1.465172 5.949153 0.913091 101
-1.442987 6.003187 0.912530 107
-1.424645 6.009306 0.912418 109
-1.412386 5.959698 0.912834 106
-1.392752 5.985674 0.912534 106
-1.374448 5.983562 0.912494 104
-1.353185 6.013255 0.912153 109
-1.336643 6.003167 0.912190 104
-1.318643 6.004928 0.912113 104
-1.300977 6.010705 0.911999 108
-1.283117 6.004292 0.911994 104
-1.261777 6.029633 0.911687 109
-1.248694 5.995484 0.911950 106
-1.227768 6.016719 0.911679 108
-1.211105 6.014263 0.911639 107
-1.232800 5.754606 0.914073 40
-1.189632 5.921970 0.912391 42
-1.186937 5.828407 0.913226 32
-1.182122 5.746594 0.913946 50
-1.138493 5.905599 0.912334 44
-1.105389 6.001420 0.911335 105
-1.089275 5.990525 0.911365 108
-1.066228 6.018960 0.911012 50
-1.063668 5.933161 0.911771 48
-1.045693 5.933935 0.911685 101
-1.032267 5.915153 0.911794 101
-1.012174 5.931690 0.911556 101
-0.995606 5.920332 0.911582 102
-0.987782 5.869863 0.911997 43
-0.958895 5.929334 0.911332 103
-0.923004 6.011809 0.910429 101
-0.909596 5.988587 0.910571 102
-0.888015 6.008545 0.910290 101
-0.866231 6.020217 0.910080 101
-0.848680 6.016368 0.910027 101
-0.831144 6.012458 0.909973 102
-0.815403 6.000688 0.909997 50
-0.796960 6.008757 0.909831 48
-0.776782 6.008148 0.909732 48
-0.759219 6.008086 0.909640 44
-0.739756 6.015737 0.909469 50
-0.719430 6.018998 0.909332 103
-0.700036 6.018297 0.909232 103
-0.716994 5.878192 0.910547 103
-0.669713 5.998210 0.909240 49
-0.648331 6.005056 0.909061 101
-0.628784 6.008179 0.908923 50
-0.606082 6.022814 0.908666 104
-0.586420 6.025775 0.908527 104
-0.568852 6.020949 0.908466 103
-0.555415 6.004754 0.908526 102
-0.530275 6.026755 0.908187 104
-0.511599 6.025577 0.908085 104
-0.497389 6.008970 0.908140 50
-0.476229 6.019438 0.907921 102
-0.461245 6.002470 0.907973 48
-0.439999 6.012785 0.907753 101
-0.420133 6.015097 0.907608 50
-0.399048 6.021152 0.907422 102
-0.380621 6.015397 0.907352 103
-0.392192 5.918375 0.908246 36
-0.380760 5.897919 0.908344 101
-0.331440 5.991261 0.907234 107
-0.296100 6.042819 0.906567 101
-0.278859 6.032892 0.906534 101
-0.258315 6.038661 0.906347 101
-0.239825 6.032390 0.906273 50
-0.223541 6.022573 0.906242 50
-0.200715 6.031587 0.906009 49
-0.179137 6.036731 0.905815 48
-0.167787 6.015728 0.905908 49
-0.146666 6.016650 0.905750 48
-0.125022 6.021563 0.905555 49
-0.100554 6.033892 0.905277 50
-0.082444 6.031446 0.905165 50
-0.063451 6.028605 0.905049 50
-0.041611 6.033169 0.904850 49
-0.019715 6.037642 0.904651 101
0.003683 6.045753 0.904409 103
0.006705 6.001634 0.904742 49
0.035978 6.024484 0.904335 49
0.065434 6.047191 0.903927 103
0.086072 6.047505 0.903764 101
0.107996 6.055865 0.903527 102
0.125022 6.044554 0.903483 102
0.149457 6.056074 0.903199 50
0.160924 6.033932 0.903282 103
0.184769 6.041224 0.903034 43
0.208690 6.048411 0.902784 50
0.216798 6.018786 0.902950 50
0.229531 6.000163 0.902991 38
0.259920 6.021765 0.902573 49
0.276717 6.009941 0.902525 47
0.285150 5.984256 0.902653 47
0.286904 5.939573 0.902983 43
0.330741 5.994316 0.902191 46
0.378388 6.051648 0.901347 42
0.402878 6.053505 0.901123 47
0.405200 6.012659 0.901413 48
0.402115 5.961020 0.901831 50
0.448848 6.014058 0.901022 45
0.482045 6.038024 0.900550 37
0.506655 6.048303 0.900255 49
0.526060 6.043251 0.900120 49
0.549017 6.045290 0.899899 50
0.577389 6.057961 0.899550 50
0.602275 6.063354 0.899284 50
0.618150 6.050815 0.899232 50
0.648594 6.066688 0.898836 49
0.666297 6.057551 0.898740 50
0.680262 6.041264 0.898729 102
0.704353 6.042167 0.898497 50
0.737101 6.065560 0.898021 45
0.756689 6.059640 0.897879 40
0.770563 6.043088 0.897865 45
0.795838 6.047575 0.897592 45
0.826955 6.062463 0.897188 48
0.852395 6.066699 0.896912 47
0.864245 6.046375 0.896940 36
0.890609 6.049929 0.896658 33
0.901446 6.030014 0.896691 42
0.922993 6.026937 0.896500 38
0.948551 6.030701 0.896220 41
0.991144 6.061491 0.895583 38
0.949272 5.951617 0.896757 36
1.005240 6.006854 0.895815 36
1.042323 6.031358 0.895273 38
1.087547 6.064897 0.894585 38
1.118850 6.078718 0.894172 43
1.124097 6.047451 0.894328 41
1.133353 6.023024 0.894395 44
1.171962 6.046198 0.893840 34
1.176881 6.014878 0.893996 31
1.226349 6.054679 0.893215 38
1.256856 6.063795 0.892834 61
1.296080 6.086240 0.892272 61
1.311681 6.071480 0.892201 58
1.351166 6.093583 0.891636 65
1.375524 6.092038 0.891384 63
1.384509 6.067003 0.891447 59
1.417692 6.078625 0.891013 56
1.453220 6.093401 0.890533 60
1.484422 6.101357 0.890141 49
1.506734 6.095921 0.889930 44
1.525013 6.088307 0.889775 35
1.529173 6.056346 0.889927 45
1.494391 5.968554 0.890855 61
1.527787 5.979413 0.890414 44
1.575119 6.009720 0.889697 47
1.655106 6.085427 0.888336 48
1.689148 6.095555 0.887889 48
1.718630 6.099016 0.887532 47
1.748181 6.102333 0.887174 45
1.777800 6.105505 0.886815 48
1.801852 6.102747 0.886553 44
1.830091 6.101777 0.886232 43
1.857483 6.101334 0.885915 39
1.889726 6.107155 0.885505 42
1.905146 6.090498 0.885419 39
1.910790 6.061079 0.885520 47
1.926027 6.044365 0.885434 48
1.981266 6.077518 0.884591 46
1.997227 6.065111 0.884470 43
2.044561 6.089014 0.883770 45
2.069777 6.084415 0.883492 39
2.087532 6.070318 0.883355 48
2.100232 6.049919 0.883312 54
2.130437 6.051270 0.882937 45
2.148076 6.036961 0.882798 46
2.241738 6.115386 0.881233 42
2.274880 6.119194 0.880804 42
2.305542 6.119757 0.880423 42
2.341395 6.126301 0.879944 40
2.379925 6.135715 0.879415 41
2.405625 6.129680 0.879125 39
2.434833 6.125801 0.878778 39
2.461383 6.124092 0.878453 39
2.469683 6.095768 0.878489 39
2.515529 6.114188 0.877817 38
2.559802 6.128567 0.877182 42
2.596273 6.133717 0.876691 36
2.627510 6.132705 0.876296 39
2.664140 6.137488 0.875802 36
2.700861 6.142078 0.875306 37
2.729588 6.137604 0.874955 34
2.761044 6.135940 0.874554 33
2.786221 6.129071 0.874257 36
2.801404 6.109544 0.874148 34
2.830178 6.104569 0.873793 39
2.897397 6.140193 0.872746 33
2.934623 6.143507 0.872239 31
2.955343 6.129281 0.872028 30
2.945503 6.083284 0.872360 30
2.985527 6.089098 0.871801 29
3.045212 6.114725 0.870891 24
3.079895 6.114332 0.870426 32
3.145596 6.145020 0.869411 23
3.143784 6.107343 0.869593 29
3.229637 6.157226 0.868222 22
3.261859 6.153141 0.867800 24
3.279847 6.134881 0.867628 25
3.324609 6.146327 0.866969 27
3.343469 6.126924 0.866787 25
3.401721 6.147198 0.865905 26
3.349387 6.063075 0.866954 23
3.420176 6.093126 0.865857 15
3.525299 6.156586 0.864155 23
3.554981 6.148336 0.863772 17
3.531922 6.090946 0.864307 29
3.631113 6.148649 0.862704 15
3.679474 6.155136 0.862000 18
3.720236 6.157940 0.861415 22
3.727262 6.126363 0.861426 15
3.688578 6.055743 0.862221 14
3.837648 6.153034 0.859765 14
3.894583 6.167210 0.858904 17
3.930648 6.162577 0.858403 13
3.927562 6.123583 0.858576 15
4.002893 6.152743 0.857397 16
4.066369 6.171010 0.856422 20
4.114833 6.175910 0.855705 12
4.030438 6.071420 0.857254 8
4.043781 6.043231 0.857146 7
4.193347 6.132532 0.854694 16
4.317165 6.202607 0.852674 11
4.375436 6.213742 0.851787 13
4.450250 6.236083 0.850622 8
4.412646 6.168274 0.851369 15
4.476466 6.184793 0.850379 15
4.581948 6.232326 0.848685 5
4.580110 6.189744 0.848827 15
4.445760 6.050168 0.851197 16
5.078042 6.507865 0.840566 7
4.541765 6.050879 0.849759 13
4.720790 6.152884 0.846817 13
4.738767 6.129533 0.846603 20
4.789867 6.135134 0.845819 9
5.054287 6.296160 0.841441 6
5.325228 6.421581 0.837043 11
5.193041 6.284284 0.839359 6
5.037425 6.131400 0.842065 15
5.110259 6.147011 0.840917 14
5.146752 6.137615 0.840377 15
5.415644 6.291277 0.835933 7
5.359215 6.212070 0.836958 16
5.517745 6.285890 0.834368 12
5.430570 6.187439 0.835901 17
5.504416 6.200529 0.834731 15
5.466666 6.135717 0.835432 20
5.520829 6.134693 0.834590 10
6.056418 6.463963 0.825676 23
6.136025 6.474924 0.824412 14
6.097747 6.410098 0.825114 19
6.171692 6.334991 0.824058 66
6.227145 6.330611 0.823187 40
7.488045 7.061852 0.802233 28
7.495687 7.020233 0.802162 11
7.496396 6.974358 0.802203 28
6.426563 6.256423 0.820101 11
7.395363 6.819359 0.803988 35
7.473481 6.822423 0.802730 34
7.431406 6.753453 0.803473 33
7.535856 6.774296 0.801771 18
7.601491 6.766340 0.800718 25
7.466229 6.642046 0.803005 15
7.473125 6.599283 0.802925 19
7.361739 6.489098 0.804810 24
7.446458 6.494909 0.803428 9
7.392026 6.421504 0.804358 17
7.519310 6.449067 0.802265 17
7.548721 6.421897 0.801796 17
7.616335 6.416277 0.800690 11
7.608929 6.372440 0.800828 12
7.702882 6.376555 0.799281 17
8.715684 6.892393 0.782449 7
8.881433 6.939642 0.779702 11
7.959021 6.383985 0.795050 11
7.970743 6.345532 0.794860 5
7.971737 6.301404 0.794846 9
7.988369 6.270177 0.794569 10
8.885483 6.695481 0.779649 8
8.908873 6.659439 0.779255 17
8.483579 6.393620 0.786320 6
8.368068 6.285959 0.788231 20
9.138762 6.632313 0.775400 11
9.129811 6.579137 0.775533 20
9.132708 6.483830 0.775446 221
9.136499 6.439963 0.775361 213
9.187815 6.416952 0.774481 106
9.100054 6.276673 0.775881 22
9.236787 6.296493 0.773573 15
9.945709 6.584203 0.761733 16
10.589809 6.830798 0.750961 16
9.923679 6.470393 0.762013 23
10.072731 6.490819 0.759485 5
10.088209 6.447134 0.759178 16
10.634000 6.588724 0.749968 30
10.712025 6.570520 0.748607 52
10.546001 6.390901 0.751246 15
10.674146 6.396606 0.749041 5
11.046451 6.502297 0.742752 4
10.991849 6.425907 0.743588 4
11.028262 6.390605 0.742905 7
11.047962 6.342966 0.742490 9
11.841663 6.557243 0.729036 25
12.114506 6.553380 0.724273 213
12.158941 6.516883 0.723431 114
12.732057 6.564528 0.713487 4
12.755162 6.514616 0.712980 4
13.254247 6.641480 0.704475 5
13.191284 6.557988 0.705403 5
14.071391 6.817988 0.690473 3
13.653094 6.610456 0.697380 5
13.864768 6.624341 0.693675 5
13.889076 6.567630 0.693110 5
15.094514 6.925031 0.672648 4
13.903998 6.389958 0.692403 9
14.927259 6.672571 0.674971 8
14.958369 6.617377 0.674270 18
15.130857 6.605267 0.671168 19
15.187414 6.560919 0.670037 8
15.579937 6.620835 0.663207 6
15.885399 6.650266 0.657839 6
16.217993 6.686003 0.652002 4
16.399212 6.668979 0.648708 4
16.623480 6.674448 0.644709 4
16.978283 6.703554 0.638441 4
17.245251 6.718335 0.633698 7
17.489637 6.710000 0.629282 5
17.895393 6.761623 0.622159 7
18.096094 6.744119 0.618489 5
18.408510 6.756881 0.612906 5
18.998598 6.845008 0.602576 3
19.347656 6.858420 0.596326 3
19.638170 6.857403 0.591076 6
20.082430 6.899676 0.583200 3
20.479010 6.917936 0.576094 3
20.916510 6.952434 0.568302 3
21.293547 6.964102 0.561515 3
21.753407 6.989686 0.553274 3
22.327015 7.053697 0.543115 4
22.965527 7.120768 0.531785 4
25.442276 7.426426 0.487983 15
25.862019 7.422631 0.480318 10
27.086569 7.593702 0.458723 5
25.899502 7.221634 0.478763 15
23.865520 6.676816 0.513500 4
29.953331 7.778304 0.407169 7
31.628855 8.012249 0.377580 8
30.176205 7.591561 0.402223 7
33.750916 8.196078 0.339565 9
33.740528 8.064384 0.339125 9
34.011089 7.994117 0.333820 10
33.681751 7.800951 0.338921 9
40.309246 8.914603 0.222675 17
47.997337 9.824473 0.085869 30
32.193573 5.443121 0.353581 143
32.236668 5.327401 0.352090 100
32.219181 4.974073 0.350260 17
32.244785 4.856091 0.349052 25
32.273956 4.738413 0.347772 25
32.288074 4.606938 0.346676 17
32.370975 4.385626 0.343712 77
32.462227 4.273365 0.341283 19
16.089363 1.512689 0.627034 2
15.981915 1.318453 0.627527 143
15.982896 1.258954 0.627038 143
15.959685 1.199172 0.626994 44
15.884834 0.949131 0.626361 2
15.868577 0.886935 0.626150 4
15.880096 0.824591 0.625415 2
15.907393 0.761962 0.624379 2
15.926473 0.699271 0.623493 2
15.913343 0.637075 0.623208 2
16.073246 0.069785 0.615217 2
16.102295 -0.058171 0.613504 6
16.118475 -0.122441 0.612608 4
16.122248 -0.189214 0.611916 4
-15.054258 1.012311 0.747617 1
-15.462060 1.057778 0.741367 1
-15.901653 1.111084 0.734662 1
-16.637033 1.166144 0.723167 1
-46.964760 1.687234 0.235041 20
-46.942081 1.843938 0.236647 20
-32.932190 1.686128 0.462788 6
-32.929585 1.794231 0.463671 6
-32.862637 1.900440 0.465578 6
-32.839298 2.007640 0.466778 6
-32.831577 2.115272 0.467721 6
-32.827477 2.223021 0.468600 6
-32.927120 2.329864 0.467783 6
-32.842617 2.428819 0.469888 6
-32.828892 2.546980 0.470980 6
-32.827854 2.644158 0.471706 6
-32.801632 2.756134 0.472941 6
-32.711460 2.858680 0.475138 6
-32.868404 2.976523 0.473435 6
-32.665771 3.071144 0.477384 6
-32.797962 3.188262 0.476063 6
-32.890629 3.292549 0.475286 6
-33.743698 3.467637 0.462685 6
-34.893948 3.684559 0.445555 7
-36.518223 3.938918 0.421003 8
-71.720833 10.121140 -0.107927 36
-71.340324 10.811321 -0.097773 19
-71.836624 11.616591 -0.101172 35
-39.411751 9.379846 0.404665 203
-39.388565 9.518827 0.405637 102
-35.824459 8.831113 0.458961 100
-35.784100 8.933800 0.460033 21
-32.015598 8.270495 0.516658 56
-28.685040 7.661565 0.566585 14
-28.675928 7.763400 0.567130 14
-56.765835 15.088920 0.154847 38
-41.225536 11.516017 0.384751 13
-41.028465 11.902927 0.389220 13
-41.113297 12.074090 0.388494 27
-40.998795 12.499352 0.391703 13
-40.878139 12.596786 0.393891 13
-40.969357 12.779841 0.393061 13
-20.914295 6.790855 0.684755 2
-50.988434 16.539331 0.249674 31
-25.778952 8.732165 0.615449 8
-25.426390 8.703693 0.620789 12
-25.038786 8.665643 0.626635 11
-24.663109 8.628808 0.632297 11
-24.276615 8.585580 0.638102 10
-23.896950 8.546181 0.643807 10
-23.594728 8.526655 0.648374 13
-23.113138 8.437632 0.655503 9
-22.688084 8.451015 0.662005 28
-15.135571 5.836664 0.770816 1
-14.764466 5.801894 0.776360 1
-14.324385 5.732799 0.782865 8
-14.259278 5.757137 0.783893 6
-14.153187 5.765035 0.785503 5
-14.013719 5.759007 0.787587 3
-13.885585 5.756518 0.789505 8
-13.765034 5.756188 0.791310 7
-13.637224 5.752055 0.793214 7
-13.509588 5.747087 0.795111 8
-13.452296 5.770474 0.796001 10
-13.354419 5.776480 0.797467 8
-13.282415 5.792795 0.798560 7
-13.092786 5.758274 0.801326 10
-12.976959 5.754240 0.803037 8
-12.862958 5.745650 0.804712 7
-12.747463 5.740158 0.806410 7
-12.639450 5.737166 0.807999 7
-12.564433 5.748216 0.809115 9
-12.471252 5.750549 0.810487 6
-12.359997 5.743976 0.812112 7
-12.269877 5.748537 0.813435 6
-12.163397 5.740494 0.814985 7
-12.046224 5.726697 0.816683 7
-11.949290 5.725935 0.818094 7
-11.860541 5.726253 0.819385 6
-11.761106 5.720793 0.820824 8
-11.677040 5.720007 0.822041 10
-11.599442 5.723922 0.823165 8
-11.504018 5.718476 0.824540 7
-11.412326 5.714210 0.825859 7
-11.327925 5.712963 0.827072 7
-11.225822 5.702119 0.828534 7
-11.134587 5.696097 0.829839 8
-11.039955 5.687659 0.831190 8
-10.963224 5.687869 0.832285 6
-16.623114 11.750358 0.854449 30
-16.527571 11.758676 0.855239 35
-16.409691 11.749735 0.856186 28
-16.295254 11.742503 0.857104 29
-16.160574 11.715247 0.858160 31
-16.088036 11.738109 0.858771 33
-15.971063 11.726534 0.859697 35
-15.879675 11.733826 0.860437 33
-8.774730 6.287972 0.911297 13
-8.690472 6.298261 0.911977 56
-8.659375 6.311769 0.912236 55
-8.622020 6.320128 0.912539 56
-8.581573 6.325781 0.912862 61
-8.547381 6.336258 0.913139 70
-8.521261 6.349334 0.913354 74
-8.483981 6.356956 0.913650 72
-8.451950 6.370621 0.913909 73
-8.417777 6.380433 0.914181 65
-8.384557 6.388950 0.914443 69
-8.359568 6.406174 0.914647 69
-8.320466 6.415131 0.914952 66
-8.282146 6.416848 0.915245 69
-8.241985 6.420571 0.915552 53
-8.200926 6.425170 0.915866 56
-8.173847 6.437924 0.916077 50
-8.157793 6.462227 0.916210 32
-8.121675 6.466805 0.916483 28
-8.100603 6.490423 0.916651 26
-8.074382 6.501651 0.916851 21
-8.043261 6.512206 0.917086 24
-8.009188 6.519912 0.917340 25
-7.981021 6.532866 0.917552 28
-7.949905 6.542971 0.917783 28
-7.918791 6.552926 0.918013 27
-7.886709 6.563767 0.918249 30
-7.853671 6.569639 0.918490 30
-7.818710 6.577399 0.918743 32
-7.794380 6.591256 0.918920 30
-7.762312 6.601479 0.919151 31
-7.725498 6.604953 0.919414 29
-7.702117 6.617438 0.919581 26
-7.673900 6.629017 0.919781 26
-7.642834 6.637649 0.920001 26
-7.616445 6.652779 0.920186 28
-7.586367 6.660147 0.920395 26
-7.560927 6.674053 0.920572 26
-7.535459 6.687850 0.920747 23
-7.498813 6.690065 0.921000 26
-7.470551 6.700728 0.921192 32
-7.442283 6.711264 0.921384 23
-7.411251 6.718774 0.921594 26
-7.386730 6.731005 0.921757 26
