# .PCD v.7 - Point Cloud Data file format
VERSION .7
FIELDS x y z intensity
SIZE 4 4 4 1
TYPE F F F U
COUNT 1 1 1 1
WIDTH 1553
HEIGHT 1
VIEWPOINT 0 0 0 1 0 0 0
POINTS 1553
DATA ascii
-2.385355 5.573831 0.756950 25
-2.370158 5.575216 0.756942 26
-2.353814 5.572637 0.757111 27
-2.337493 5.570000 0.757278 27
-2.321825 5.575273 0.757093 28
-2.305823 5.576507 0.757084 28
-2.290104 5.581671 0.756897 27
-2.273535 5.574821 0.757240 23
-2.257536 5.575887 0.757229 28
-2.242333 5.576847 0.757218 27
-2.226558 5.581793 0.757030 26
-2.210534 5.582695 0.757018 23
-2.194508 5.583540 0.757005 22
-2.178288 5.580339 0.757169 24
-2.163071 5.581037 0.757156 24
-2.148015 5.585677 0.756966 26
-2.131325 5.590327 0.756774 24
-2.115272 5.590897 0.756760 24
-2.099899 5.587391 0.756921 23
-2.083856 5.587851 0.756906 24
-2.067813 5.588254 0.756889 22
-2.051847 5.592597 0.756696 21
-2.035787 5.592888 0.756679 18
-2.019726 5.593124 0.756661 20
-2.003626 5.589308 0.756819 20
-1.987625 5.597423 0.756448 21
-1.971549 5.597491 0.756429 21
-1.955464 5.605494 0.756056 20
-1.939377 5.601453 0.756213 19
-1.923287 5.601352 0.756192 18
-1.907151 5.605191 0.755994 18
-1.891048 5.604978 0.755973 18
-1.874798 5.612699 0.755598 18
-1.858844 5.604382 0.755929 18
-1.843448 5.608016 0.755730 17
-1.827335 5.607580 0.755707 17
-1.811095 5.611082 0.755507 16
-1.794972 5.610533 0.755483 18
-1.778851 5.609928 0.755458 17
-1.762902 5.605274 0.755610 17
-1.746615 5.608549 0.755407 17
-1.729906 5.619749 0.754851 15
-1.713753 5.618916 0.754824 17
-1.697603 5.618028 0.754797 21
-1.680976 5.625061 0.754416 21
-1.664805 5.624057 0.754388 20
-1.647833 5.634959 0.753828 21
-1.631875 5.641870 0.753447 22
-1.616531 5.628740 0.753948 21
-1.600038 5.631496 0.753742 20
-1.581585 5.658092 0.752472 25
-1.564962 5.660723 0.752264 27
-1.547615 5.671257 0.751701 28
-1.531648 5.665809 0.751846 32
-1.514957 5.668262 0.751636 33
-1.495106 5.702470 0.750009 30
-1.479072 5.696843 0.750152 33
-1.446237 5.693369 0.750084 57
-1.429381 5.695517 0.749871 56
-1.412965 5.693635 0.749836 56
-1.396902 5.695762 0.749624 54
-1.380486 5.693767 0.749588 58
-1.364579 5.687750 0.749728 57
-1.347372 5.685536 0.749689 60
-1.329930 5.691289 0.749296 56
-1.314350 5.689173 0.749260 58
-1.297957 5.686890 0.749221 60
-1.281573 5.684550 0.749182 58
-1.264026 5.690058 0.748787 56
-1.248829 5.679698 0.749102 60
-1.231244 5.685083 0.748706 58
-1.214866 5.682510 0.748665 58
-1.199138 5.675935 0.748801 57
-1.182302 5.681270 0.748406 63
-1.165270 5.682466 0.748185 60
-1.146859 5.691475 0.747609 54
-1.130459 5.688607 0.747565 58
-1.114778 5.681749 0.747699 56
-1.097788 5.686781 0.747301 58
-1.080586 5.683588 0.747254 57
-1.059717 5.704040 0.746140 75
-1.044801 5.693023 0.746450 58
-1.029216 5.689961 0.746406 70
-1.012033 5.690600 0.746181 70
-0.993209 5.694921 0.745774 71
-0.975980 5.695429 0.745548 71
-0.959557 5.696048 0.745324 71
-0.943987 5.688620 0.745453 66
-0.925921 5.688766 0.745223 60
-0.909480 5.689211 0.744997 63
-0.893024 5.689597 0.744771 65
-0.870419 5.709016 0.743647 75
-0.855877 5.693319 0.744128 74
-0.836693 5.701097 0.743540 71
-0.819321 5.701030 0.743309 69
-0.801805 5.704982 0.742902 69
-0.781493 5.716419 0.742133 75
-0.767950 5.700654 0.742615 60
-0.749363 5.708286 0.742027 68
-0.732085 5.703816 0.741969 60
-0.713603 5.707227 0.741556 58
-0.696117 5.706707 0.741321 58
-0.681536 5.698633 0.741446 63
-0.662172 5.701619 0.741029 65
-0.643591 5.704757 0.740613 60
-0.626882 5.704210 0.740379 57
-0.607139 5.711051 0.739783 44
-0.585104 5.725487 0.738827 35
-0.566334 5.728325 0.738409 35
-0.547528 5.731091 0.737990 33
-0.529839 5.729956 0.737750 33
-0.510974 5.732577 0.737329 31
-0.494435 5.727489 0.737267 30
-0.476353 5.730230 0.736849 27
-0.457409 5.732640 0.736427 24
-0.438429 5.734975 0.736004 23
-0.420649 5.733436 0.735761 21
-0.405354 5.724236 0.735876 19
-0.387585 5.722572 0.735631 16
-0.372355 5.713266 0.735746 18
-0.355885 5.707694 0.735680 19
-0.338134 5.705844 0.735434 18
-0.320377 5.703928 0.735187 16
-0.302613 5.701944 0.734939 20
-0.284327 5.703952 0.734515 19
-0.267889 5.698073 0.734447 18
-0.247379 5.703404 0.733837 19
-0.229566 5.701148 0.733588 18
-0.210357 5.702570 0.733157 15
-0.191117 5.703915 0.732726 19
-0.174680 5.697711 0.732655 17
-0.156835 5.695181 0.732403 17
-0.141872 5.685132 0.732512 16
-0.121953 5.690240 0.731901 18
-0.106383 5.684118 0.731832 18
-0.084755 5.688426 0.731213 16
-0.066878 5.685557 0.730958 17
-0.047492 5.686321 0.730522 20
-0.028078 5.687006 0.730085 20
-0.010168 5.683924 0.729829 17
0.012381 5.691828 0.729028 15
0.030332 5.688593 0.728771 20
0.048286 5.685290 0.728512 21
0.064656 5.678250 0.728435 21
0.084974 5.682499 0.727817 21
0.104552 5.682647 0.727375 21
0.126598 5.686002 0.726748 19
0.142970 5.678689 0.726668 21
0.160965 5.674960 0.726406 24
0.179802 5.675169 0.725966 23
0.199482 5.674929 0.725521 22
0.215815 5.667361 0.725439 24
0.232936 5.659354 0.725352 25
0.253533 5.662889 0.724728 27
0.274177 5.666339 0.724103 30
0.293950 5.665710 0.723655 30
0.316309 5.668196 0.723020 32
0.332618 5.660221 0.722935 30
0.354219 5.662931 0.722303 30
0.373266 5.662381 0.721856 19
4.723734 14.258188 0.282309 28
4.798949 14.291772 0.279143 31
0.809099 6.301237 0.686369 27
0.840631 6.316295 0.684988 6
5.175976 14.447132 0.263627 35
5.241728 14.457376 0.261538 16
0.963558 6.413796 0.678101 15
0.903237 6.255607 0.685670 27
0.950408 6.298135 0.682821 25
0.947644 6.249476 0.684728 28
0.954304 6.218352 0.685721 24
0.957919 6.184272 0.686902 31
0.962240 6.149716 0.688079 45
0.984187 6.146423 0.687607 33
0.988206 6.111873 0.688784 54
0.996031 6.084269 0.689594 72
1.009752 6.067020 0.689855 66
1.029477 6.060064 0.689564 75
1.045107 6.046163 0.689641 75
1.060676 6.032214 0.689717 75
1.074119 6.014797 0.689976 75
1.091632 6.004174 0.689867 75
1.107019 5.990085 0.689942 75
1.119374 5.973088 0.690207 75
1.136741 5.962307 0.690097 75
1.149822 5.944698 0.690355 74
1.171362 5.940566 0.689876 75
1.192911 5.936343 0.689397 63
1.214468 5.932031 0.688916 63
1.236034 5.927628 0.688435 71
1.253241 5.916440 0.688322 72
1.279188 5.918550 0.687470 68
1.300776 5.913875 0.686987 65
1.325948 5.916330 0.686139 60
1.351171 5.918673 0.685290 58
1.372826 5.913702 0.684804 57
1.396738 5.911941 0.684132 54
1.423800 5.912775 0.683269 54
1.452329 5.917357 0.682225 51
1.640975 6.151186 0.668211 33
1.563877 6.005173 0.675691 30
1.556825 5.956353 0.677602 30
1.720322 6.148973 0.665793 30
1.733636 6.129605 0.666037 30
1.745965 6.110853 0.666286 28
1.794409 6.139859 0.663744 25
1.821814 6.139604 0.662871 21
1.855491 6.149522 0.661445 20
1.883017 6.148989 0.660570 21
1.922576 6.164306 0.658763 27
1.947832 6.160284 0.658071 24
1.977949 6.162506 0.657006 26
2.005697 6.161410 0.656126 25
2.035927 6.163346 0.655058 24
2.068673 6.168287 0.653802 24
2.099037 6.169918 0.652732 22
2.122035 6.161990 0.652220 21
2.155876 6.165757 0.650953 19
2.183899 6.163832 0.650066 24
2.219486 6.171104 0.648617 26
2.246711 6.169621 0.647734 22
2.282464 6.176554 0.646281 27
2.315777 6.180216 0.645015 29
2.343158 6.178310 0.644128 25
2.374040 6.178589 0.643046 22
2.402405 6.175658 0.642150 20
2.435966 6.178690 0.640878 17
2.462726 6.171659 0.640159 21
2.501613 6.180429 0.638509 22
2.537094 6.186754 0.637052 25
2.558726 6.173247 0.636705 27
2.595234 6.178460 0.635238 29
2.630928 6.184281 0.633777 21
2.664960 6.186131 0.632494 21
2.699061 6.187806 0.631210 20
2.727876 6.183374 0.630301 21
2.759403 6.181761 0.629203 18
2.793674 6.182938 0.627914 19
2.834334 6.188977 0.626240 17
2.871475 6.192704 0.624759 17
2.900512 6.187479 0.623843 17
2.937790 6.190842 0.622360 19
2.974242 6.194869 0.620883 20
3.006165 6.192062 0.619774 18
3.038128 6.189097 0.618664 21
3.067352 6.183100 0.617742 17
3.106844 6.189291 0.616070 18
3.138944 6.185831 0.614955 17
3.182315 6.193577 0.613082 21
3.222984 6.198251 0.611396 19
3.256171 6.193328 0.610268 19
3.294162 6.194770 0.608768 18
3.328470 6.194132 0.607465 18
3.363738 6.192394 0.606151 19
3.401926 6.193256 0.604646 19
3.440185 6.193914 0.603139 19
3.481399 6.197131 0.601440 18
3.519806 6.197370 0.599930 16
3.564091 6.202889 0.598037 16
3.595912 6.198204 0.596913 15
3.631594 6.195111 0.595588 18
3.676124 6.199970 0.593689 20
3.713959 6.200167 0.592179 16
3.755719 6.201865 0.590467 17
3.797560 6.203335 0.588753 17
3.830566 6.196561 0.587611 16
3.870464 6.193925 0.586075 16
3.918483 6.200042 0.583973 17
3.959708 6.201640 0.582261 19
4.004925 6.204610 0.580346 19
4.044199 6.202090 0.578812 19
4.086555 6.201968 0.577084 16
4.132019 6.204211 0.575163 16
4.170573 6.202095 0.573633 18
4.222301 6.209013 0.571324 18
4.265874 6.206846 0.569578 17
4.311677 6.208079 0.567648 19
4.351403 6.203967 0.566100 18
4.393356 6.203283 0.564368 15
4.442478 6.206309 0.562240 19
4.485486 6.204030 0.560494 21
4.534785 6.206518 0.558360 20
4.581056 6.206234 0.556417 20
4.627403 6.205689 0.554472 19
4.670685 6.202415 0.552717 18
4.714024 6.198903 0.550961 17
4.766893 6.202493 0.548623 23
4.819868 6.205776 0.546282 23
4.863422 6.201478 0.544519 24
4.916579 6.204181 0.542173 24
4.963453 6.201770 0.540212 20
5.019996 6.206270 0.537668 23
5.072534 6.209286 0.535325 24
5.119646 6.206034 0.533357 23
5.170045 6.204874 0.531192 30
5.223755 6.205774 0.528831 30
5.274317 6.204025 0.526662 30
5.321704 6.199662 0.524684 26
5.372406 6.197345 0.522509 26
5.485223 6.238475 0.516638 19
5.672601 6.291207 0.507211 158
5.529868 6.153417 0.516514 49
5.742370 6.260352 0.504779 131
5.797062 6.258123 0.502391 131
5.570235 6.065766 0.516583 75
5.988227 6.267207 0.493649 18
5.929855 6.188869 0.497893 13
6.633407 6.609548 0.457567 8
5.788309 6.018389 0.507763 23
5.829313 6.006454 0.506149 7
6.116077 6.151349 0.490240 6
6.378436 6.237410 0.476598 16
5.983259 5.950107 0.500265 37
6.591435 6.288487 0.465871 14
6.707634 6.320796 0.459923 16
6.777330 6.321723 0.456705 19
6.871059 6.336712 0.452108 21
6.828008 6.268822 0.455372 12
6.619858 6.103127 0.468084 37
6.520711 6.004014 0.474510 23
7.058512 6.279587 0.444502 10
7.266829 6.358579 0.433381 9
7.029447 6.178550 0.447686 25
7.168836 6.216614 0.440501 23
7.225223 6.206418 0.438045 14
7.608849 6.380206 0.417020 22
7.693856 6.383794 0.412968 13
7.467998 6.214511 0.426510 45
7.887852 6.404573 0.403481 12
7.811973 6.318523 0.408520 11
7.944788 6.257165 0.403249 9
8.330619 6.416356 0.382311 9
8.538462 6.432639 0.372141 13
8.607123 6.421527 0.369036 13
8.252252 6.194144 0.389586 4
8.380878 6.214310 0.383104 11
8.845545 6.401809 0.357906 12
9.003905 6.433342 0.349806 22
9.037160 6.402092 0.348672 8
10.325250 6.932493 0.278595 9
9.355230 6.414636 0.333103 8
9.450800 6.409116 0.328545 22
9.472304 6.372947 0.328013 23
10.641948 6.813893 0.264883 4
9.260118 6.127844 0.341753 3
12.059973 7.353788 0.188236 13
11.302367 6.954168 0.230684 6
10.392538 6.493262 0.281399 12
10.429927 6.458174 0.280019 12
10.716132 6.531710 0.264990 20
10.874686 6.547751 0.256973 40
10.908673 6.509212 0.255777 25
12.016229 6.926563 0.195880 29
12.087366 6.901877 0.192660 17
12.111582 6.854342 0.192031 6
12.140344 6.805772 0.191179 14
12.164234 6.758026 0.190548 13
11.868474 6.583819 0.207275 3
11.984317 6.574127 0.201611 4
12.152252 6.584304 0.193116 16
12.142884 6.520872 0.194281 16
12.552139 6.625926 0.172661 16
12.836455 6.676992 0.157869 6
13.039155 6.694896 0.147510 14
13.213344 6.640228 0.139312 7
13.262938 6.598275 0.137232 12
13.608940 6.664110 0.119136 21
14.169794 6.804820 0.089459 5
14.366819 6.811538 0.079434 6
14.615811 6.838443 0.066580 12
14.673818 6.793705 0.064048 18
14.904412 6.811509 0.052189 24
15.110873 6.812850 0.041690 29
15.377119 6.836195 0.027948 25
15.454240 6.794588 0.024372 14
15.739963 6.821264 0.009587 24
15.801966 6.773046 0.006813 20
16.206102 6.834580 -0.014320 15
16.104538 6.732405 -0.008335 6
16.555117 6.804561 -0.031950 4
16.563826 6.736343 -0.031893 4
16.553185 6.662284 -0.030812 4
16.548925 6.593914 -0.030112 4
16.449696 6.493798 -0.024322 2
16.384478 6.404621 -0.020368 2
16.372555 6.331612 -0.019278 2
16.211983 6.079012 -0.009430 9
16.130527 5.923667 -0.004324 2
16.112892 5.851149 -0.003013 2
16.118139 5.784959 -0.002935 2
16.092226 5.710706 -0.001209 2
16.027332 5.626722 0.002577 2
16.020151 5.558002 0.003279 2
16.001083 5.486479 0.004599 2
15.973978 5.413231 0.006334 2
15.907763 5.330798 0.010135 2
15.864504 5.254457 0.012702 2
15.840371 5.183051 0.014240 2
15.756870 5.101423 0.018906 2
15.751615 5.035105 0.019415 2
15.692238 4.953532 0.022796 2
15.670834 4.884134 0.024137 2
15.610123 4.806456 0.027552 2
15.588152 4.737591 0.028898 2
15.534639 4.662361 0.031905 2
15.523851 4.596427 0.032633 2
15.457391 4.522547 0.036296 2
15.430412 4.453922 0.037859 2
15.395327 4.383995 0.039840 2
15.383504 4.318873 0.040577 2
15.300777 4.240569 0.045060 2
15.268783 4.172315 0.046842 2
15.283690 4.112866 0.046127 2
15.231530 4.041483 0.048955 2
15.190889 3.972556 0.051160 2
15.161791 3.905962 0.052743 2
15.160018 3.844206 0.052867 2
15.118599 3.776066 0.055080 2
15.124249 3.715802 0.054788 2
15.034502 3.643725 0.059540 1
15.035738 3.583180 0.059461 1
15.017004 3.519716 0.060428 1
14.998034 3.456413 0.061398 1
14.978830 3.393274 0.062369 1
14.955435 3.329751 0.063551 1
14.955556 3.269623 0.063476 1
14.884173 3.200167 0.067181 1
14.860062 3.137308 0.068369 1
14.831752 3.074152 0.069770 1
14.807173 3.011698 0.070963 1
14.793924 2.953758 0.071550 1
14.792713 2.894360 0.071483 1
14.735706 2.828872 0.074365 1
14.710222 2.767193 0.075565 1
14.676565 2.704895 0.077189 1
14.678450 2.646414 0.076916 1
14.696033 2.589469 0.075799 1
14.615232 2.465003 0.079692 5
14.568516 2.402712 0.081960 3
14.573717 2.289858 0.081237 1
14.554230 2.230340 0.082029 1
14.530544 2.170688 0.083034 1
14.538525 2.113388 0.082345 1
14.526376 2.054759 0.082716 1
14.521994 1.996715 0.082664 1
14.521394 1.938945 0.082400 1
14.512461 1.883635 0.082585 1
14.511465 1.825926 0.082323 1
14.510267 1.768234 0.082060 1
14.421201 1.703861 0.086456 1
14.475451 1.648753 0.083216 1
14.425631 1.592339 0.085536 1
14.431506 1.538130 0.084874 1
14.413332 1.480311 0.085469 1
14.386969 1.422413 0.086492 1
14.388353 1.365347 0.086022 1
14.325696 1.304190 0.088946 1
14.326669 1.247339 0.088479 1
14.311466 1.190288 0.088867 1
14.260118 1.133029 0.091182 1
14.224532 1.079041 0.092666 1
14.208742 1.022512 0.093059 1
14.196750 0.966088 0.093239 1
14.172592 0.912624 0.094086 1
14.192145 0.853325 0.092529 1
14.159594 0.797324 0.093784 1
14.142822 0.741303 0.094183 1
14.113877 0.685623 0.095227 1
14.104770 0.632497 0.095221 1
14.111311 0.573411 0.094309 1
14.017907 0.520013 0.098800 1
14.020229 0.466899 0.098153 1
13.994332 0.411987 0.098990 1
13.972125 0.354309 0.099591 1
13.985746 0.298005 0.098275 1
13.971371 0.245689 0.098491 1
13.988597 0.189079 0.096959 1
13.977703 0.133840 0.096938 1
14.018295 0.072911 0.094086 1
13.995871 -0.032022 0.094090 1
13.948156 -0.087529 0.095995 1
13.944274 -0.143054 0.095545 1
13.795712 -0.351057 0.100928 1
-16.468870 1.059393 0.217933 85
-16.488533 1.110198 0.217327 27
-16.511349 1.211979 0.216934 10
-16.554441 1.263590 0.215107 3
-16.695986 1.369160 0.208609 1
-19.214458 1.611789 0.081367 3
-24.473293 1.879989 -0.185933 3
-24.517977 1.960622 -0.187729 3
-24.606266 2.043621 -0.191755 3
-24.610462 2.123057 -0.191517 3
-24.650284 2.204456 -0.193104 3
-24.637962 2.283190 -0.192054 3
-24.661257 2.364024 -0.192828 3
-24.695969 2.449771 -0.194176 3
-24.774469 2.534786 -0.197779 3
-24.789177 2.611841 -0.198176 3
-24.827232 2.694779 -0.199752 3
-24.852728 2.781065 -0.200687 3
-24.937946 2.868443 -0.204682 3
-24.896839 3.022321 -0.202004 14
-25.001461 3.193796 -0.206750 3
-25.025864 3.273333 -0.207743 3
-25.097267 3.361974 -0.211115 3
-25.108744 3.444823 -0.211468 3
-25.115953 3.527345 -0.211620 3
-25.154625 3.613539 -0.213378 3
-25.153296 3.695405 -0.213127 3
-25.246872 3.788735 -0.217690 3
-25.260782 3.872940 -0.218238 3
-25.278353 3.957780 -0.218986 3
-25.291653 4.042260 -0.219533 3
-25.344240 4.132189 -0.222081 3
-25.329206 4.213243 -0.221225 3
-25.412783 4.308220 -0.225368 3
-25.405636 4.386540 -0.224944 3
-25.457504 4.473636 -0.227516 3
-25.468935 4.559227 -0.228056 3
-25.538630 4.658256 -0.231554 3
-25.557278 4.745554 -0.232490 3
-25.603207 4.837519 -0.234820 3
-25.696072 4.937714 -0.239537 3
-25.693998 5.022544 -0.239472 3
-25.703430 5.109457 -0.240003 3
-25.729012 5.195122 -0.241363 3
-25.733881 5.281607 -0.241694 4
-25.812321 5.386084 -0.245766 4
-25.856543 5.476206 -0.248113 4
-25.903555 5.571599 -0.250622 4
-25.965061 5.674621 -0.253889 4
-25.972109 5.763052 -0.254411 4
-26.003172 5.852147 -0.256155 4
-26.033045 5.945703 -0.257863 4
-26.125120 6.052632 -0.262735 4
-26.127771 6.136892 -0.263087 4
-26.136112 6.231354 -0.263768 4
-26.176228 6.328606 -0.266061 4
-26.231550 6.429696 -0.269142 4
-26.220240 6.516152 -0.268865 4
-26.201817 6.596564 -0.268228 4
-26.188477 6.861379 -0.268584 12
-26.249338 6.965952 -0.272049 34
-26.331961 7.081083 -0.276656 17
-26.385244 7.180511 -0.279753 13
-26.440908 7.285626 -0.283009 13
-26.472940 7.385154 -0.285085 8
-25.740948 7.278470 -0.248334 8
-26.308361 7.615249 -0.278164 8
-26.339043 7.715066 -0.280239 13
-26.308947 7.793715 -0.279212 13
-26.164921 7.935969 -0.272987 17
-26.100582 8.100249 -0.270881 4
-26.758411 8.383441 -0.305018 4
-26.735651 8.664742 -0.305879 4
-26.710100 8.746850 -0.305237 4
-26.785732 8.865808 -0.309821 4
-26.777147 8.958517 -0.310118 4
-26.787214 9.057435 -0.311387 4
-26.785507 9.152776 -0.312073 4
-24.512630 8.492757 -0.196328 3
-24.228851 8.484768 -0.182505 3
-26.649736 9.772333 -0.310925 4
-26.681330 9.885756 -0.313515 4
-26.683956 9.984279 -0.314587 4
-21.788954 8.281994 -0.063004 2
-20.913176 8.261857 -0.020903 67
-20.829378 8.301565 -0.017330 77
-20.767849 8.349533 -0.014919 82
-20.714773 8.408125 -0.013037 75
-20.672647 8.470876 -0.011737 50
-20.572542 8.654022 -0.009100 2
-14.840507 6.454819 0.287419 179
-20.463057 9.066071 -0.008994 2
-20.531269 9.169250 -0.013508 2
-20.539143 9.250251 -0.014927 2
-20.521160 9.319955 -0.015005 2
-20.524754 9.399526 -0.016232 2
-20.567987 9.497497 -0.019563 2
-20.559975 9.572436 -0.020214 2
-20.540798 9.642364 -0.020292 2
-20.606354 9.831773 -0.025985 34
-25.646349 12.424817 -0.295416 14
-25.426725 12.419942 -0.285257 9
-12.696564 6.310158 0.388916 15
-24.550240 12.282226 -0.243075 26
-24.318071 12.263862 -0.232204 34
-24.207390 12.305602 -0.227810 17
-23.965160 12.279228 -0.216389 12
-23.709190 12.243957 -0.204221 16
-23.489161 12.225523 -0.193964 36
-23.131634 12.133117 -0.176317 11
-23.108715 12.210747 -0.176546 11
-22.921488 12.205326 -0.168027 11
-22.720493 12.191148 -0.158758 11
-22.151434 12.066755 -0.131165 21
-21.944855 12.044333 -0.121552 35
-21.839878 12.077044 -0.117435 35
-21.707054 12.093489 -0.111809 23
-21.417944 12.020473 -0.097688 32
-21.228640 11.997725 -0.088895 39
-20.973907 11.935969 -0.076523 15
-21.426332 12.287049 -0.102819 10
-20.531523 11.854568 -0.055541 18
-20.607090 11.986300 -0.061276 24
-20.212967 11.844218 -0.041360 14
-10.593664 6.201846 0.484900 224
-10.595914 6.244410 0.483996 131
-19.985748 12.217772 -0.038573 25
-19.157982 11.785658 0.005649 22
-19.066195 11.811440 0.009098 45
-19.083717 11.910583 0.006374 17
-18.685158 11.821345 0.025253 14
-18.587044 11.840350 0.029057 42
-18.878212 12.110502 0.011113 10
-19.225470 11.928194 0.118950 17
-19.399433 12.123880 0.109041 27
-19.564131 12.311354 0.099612 23
-18.194201 11.835349 0.159552 24
-17.950708 11.753579 0.170124 19
-17.980629 11.859231 0.167118 32
-17.963163 12.089664 0.163589 44
-17.311718 11.717365 0.194546 37
-17.150015 11.683457 0.201143 7
-17.403824 12.105749 0.183885 19
-17.376608 12.163934 0.183770 50
-17.365318 12.233840 0.182841 34
-17.139238 12.150229 0.192674 30
-17.268457 12.331882 0.184458 34
-16.213440 11.627475 0.236394 43
-10.838102 7.710357 0.507415 1
-10.789178 7.721917 0.508939 1
-10.700244 7.700046 0.512560 1
-10.618704 7.688014 0.515712 1
-10.560604 7.691174 0.517714 1
-10.513191 7.699920 0.519217 1
-10.395653 7.655397 0.524292 1
-10.337948 7.657423 0.526286 1
-10.346019 7.762397 0.523806 4
-10.117311 7.669917 0.533750 1
-10.041539 7.655118 0.536700 1
-9.981344 7.652639 0.538840 1
-9.958051 7.680596 0.539041 1
-9.883862 7.663311 0.541973 1
-9.854437 7.685757 0.542493 1
-9.814663 7.701662 0.543506 1
-9.751817 7.695145 0.545795 1
-9.720489 7.713093 0.546462 1
-9.618682 7.671823 0.550839 1
-9.571304 7.677409 0.552316 1
-9.541941 7.698637 0.552826 1
-9.506554 7.714424 0.553657 1
-9.465199 7.724707 0.554808 1
-9.370488 7.686548 0.558846 1
-9.327557 7.692256 0.560143 1
-9.286447 7.701732 0.561288 1
-9.239485 7.705582 0.562751 1
-9.200196 7.718611 0.563740 1
-9.166181 7.731658 0.564551 1
-9.081525 7.699214 0.568090 1
-9.055174 7.721279 0.568425 1
-9.005637 7.721154 0.570038 1
-8.959067 7.723536 0.571490 1
-8.924050 7.736800 0.572300 1
-8.880443 7.741528 0.573589 1
-8.856845 7.765642 0.573758 1
-8.756448 7.713777 0.578235 1
-8.727285 7.731816 0.578720 1
-8.673859 7.723085 0.580630 1
-8.647514 7.743638 0.580953 1
-8.595887 7.738439 0.582709 1
-8.576277 7.763264 0.582702 1
-8.488599 7.720332 0.586524 1
-8.453986 7.731564 0.587318 1
-8.416612 7.739748 0.588270 1
-8.373754 7.741957 0.589539 1
-8.341929 7.755579 0.590170 1
-8.301891 7.760311 0.591277 1
-6.622436 6.106973 0.685293 18
-8.002829 7.763023 0.600240 1
-7.947356 7.748173 0.602284 1
-7.910540 7.754025 0.603218 1
-7.863238 7.747662 0.604783 1
-7.829149 7.756148 0.605556 1
-7.797680 7.767507 0.606169 1
-7.761009 7.772653 0.607097 1
-7.698500 7.747161 0.609603 1
-7.664582 7.754927 0.610370 1
-7.601906 7.776142 0.611584 1
-7.568017 7.783463 0.612348 1
-7.537865 7.792748 0.612945 1
-7.493908 7.787379 0.614337 1
-7.462620 7.797327 0.614938 1
-7.418821 7.791554 0.616327 2
-7.382603 7.794937 0.617241 1
-7.343947 7.795014 0.618311 1
-7.302888 7.791762 0.619537 1
-7.261918 7.788307 0.620761 1
-7.229564 7.793210 0.621507 1
-7.198485 7.802055 0.622100 2
-7.282385 8.014578 0.613708 3
-7.278297 8.057737 0.612568 3
-7.260781 8.085863 0.612219 3
-7.228848 8.094689 0.612811 3
-7.185069 8.087286 0.614186 2
-7.108389 8.034486 0.617754 2
-6.978158 7.906829 0.624924 2
-6.972680 7.950248 0.623784 2
-6.894901 7.892917 0.627500 1
-6.806017 7.818830 0.631995 2
-6.766049 7.812829 0.633200 2
-6.737633 7.823010 0.633621 3
-6.716042 7.842928 0.633572 3
-6.678497 7.839736 0.634616 3
-6.652312 7.852864 0.634878 3
-6.635071 7.879121 0.634514 3
-6.597608 7.875506 0.635556 3
-6.576981 7.894167 0.635497 3
-6.536497 7.935443 0.635228 3
-6.525855 8.028367 0.632627 4
-6.548866 8.118197 0.629297 6
-6.527365 8.136742 0.629237 10
-6.463750 8.205300 0.628605 12
-6.427114 8.256215 0.627861 19
-6.310452 8.238241 0.631107 1
-6.260269 8.263491 0.631439 3
-6.240931 8.288798 0.631065 3
-6.267817 8.453511 0.625190 2
-6.339712 8.642699 0.617523 2
-6.277464 8.595372 0.620409 2
-6.250268 8.606163 0.620651 2
-6.258152 8.679659 0.618099 3
-6.214451 8.667390 0.619434 1
-6.224215 8.748746 0.616577 1
-6.285111 8.925019 0.609535 1
-4.440989 5.655373 0.755237 1
-4.400963 5.658410 0.755958 127
-4.368103 5.634964 0.757401 194
-4.342744 5.625566 0.758223 212
-4.313850 5.608925 0.759354 151
-4.244845 5.589959 0.761348 1
-4.175683 5.570452 0.763337 219
-4.154502 5.567344 0.763844 219
-4.136802 5.571365 0.764041 219
-4.120803 5.578935 0.764084 220
-4.098017 5.571960 0.764743 165
-4.040024 5.572257 0.765792 0
-4.017465 5.564907 0.766448 0
-4.001489 5.572060 0.766488 0
-3.982260 5.571844 0.766835 0
-3.962256 5.567538 0.767333 0
-3.947071 5.574151 0.767369 0
-3.924756 5.566367 0.768022 0
-3.905647 5.565840 0.768367 0
-3.887319 5.569255 0.768559 0
-3.865178 5.561196 0.769210 0
-3.843117 5.553038 0.769861 0
-3.831719 5.570683 0.769433 0
-3.812025 5.565749 0.769927 0
-3.791588 5.561054 0.770422 0
-3.771205 5.556272 0.770916 0
-3.749418 5.547683 0.771564 1
-3.732708 5.554210 0.771597 1
-3.708959 5.537678 0.772549 1
-3.692452 5.539717 0.772732 0
-3.670929 5.530774 0.773376 0
-3.649489 5.521737 0.774021 0
-3.632874 5.527898 0.774051 0
-3.612921 5.522443 0.774540 0
-3.588389 5.501581 0.775642 1
-3.578012 5.522294 0.775055 1
-3.560856 5.524144 0.775235 1
-3.547136 5.533201 0.775106 1
-3.537001 5.557877 0.774366 1
-3.482868 5.500338 0.777178 11
-3.465068 5.502096 0.777357 11
-3.448063 5.503525 0.777534 12
-3.431854 5.504634 0.777709 13
-3.417317 5.513548 0.777579 13
-3.397887 5.507180 0.778061 13
-3.378519 5.500732 0.778543 13
-3.365142 5.513289 0.778257 15
-3.352486 5.525565 0.777970 21
-3.337811 5.534222 0.777837 20
-3.317361 5.523687 0.778470 21
-3.300741 5.528630 0.778491 22
-3.283777 5.529445 0.778663 25
-3.264612 5.522513 0.779141 26
-3.249580 5.526814 0.779158 23
-3.230503 5.519741 0.779635 25
-3.213623 5.520295 0.779805 25
-3.195702 5.516931 0.780128 26
-3.178859 5.517356 0.780297 24
-3.165106 5.529309 0.780006 24
-3.145210 5.518020 0.780633 23
-3.127406 5.514388 0.780954 24
-3.112596 5.522308 0.780815 22
-3.095803 5.522426 0.780981 23
-3.079022 5.522481 0.781147 21
-3.062101 5.518399 0.781465 20
-3.046151 5.518141 0.781630 21
-3.029425 5.518014 0.781795 22
-3.012713 5.517825 0.781959 22
-2.995125 5.513679 0.782275 25
-2.978455 5.513364 0.782439 21
-2.965258 5.528598 0.781989 21
-2.947714 5.524268 0.782304 21
-2.931049 5.523778 0.782466 22
-2.916046 5.531051 0.782321 19
-2.898556 5.522453 0.782788 20
-2.881147 5.521945 0.782949 21
-2.865328 5.525132 0.782955 20
-2.851058 5.532031 0.782808 20
-2.834448 5.531188 0.782967 18
-2.817855 5.530284 0.783126 16
-2.802006 5.533250 0.783131 13
-2.786148 5.536160 0.783135 15
-2.770280 5.539016 0.783139 13
-2.753027 5.533940 0.783449 13
-2.736493 5.532740 0.783605 12
-2.719977 5.531480 0.783761 14
-2.704125 5.534104 0.783763 13
-2.688425 5.532599 0.783917 14
-2.672569 5.535113 0.783919 13
-2.655494 5.529670 0.784225 14
-2.639649 5.532070 0.784226 15
-2.622426 5.530574 0.784378 15
-2.606243 5.524831 0.784684 15
-2.590415 5.527058 0.784683 16
-2.574043 5.525270 0.784834 13
-2.558737 5.531347 0.784679 13
-2.544412 5.545302 0.784218 11
-2.527822 5.535316 0.784674 11
-2.511958 5.537269 0.784671 11
-2.494826 5.535291 0.784820 17
-2.481118 5.548953 0.784357 27
-2.465646 5.554716 0.784199 30
-2.450141 5.560427 0.784041 28
-2.433365 5.554157 0.784341 31
-2.417436 5.555781 0.784335 30
-2.401117 5.553371 0.784481 31
-2.386358 5.558787 0.784321 31
-2.371211 5.560175 0.784314 33
-2.354463 5.561651 0.784306 31
-2.337849 5.555033 0.784604 33
-2.322714 5.556260 0.784595 35
-2.306778 5.557497 0.784586 34
-2.290838 5.558679 0.784576 36
-2.274619 5.555818 0.784719 37
-2.258424 5.552899 0.784861 36
-2.242748 5.557901 0.784697 36
-2.227040 5.562850 0.784532 35
-2.211081 5.563754 0.784520 34
-2.195120 5.564601 0.784508 33
-2.179156 5.565393 0.784495 34
-2.163012 5.562137 0.784634 36
-2.147219 5.566811 0.784467 35
-2.131397 5.571430 0.784300 33
-2.115274 5.568004 0.784438 34
-2.099298 5.568518 0.784423 33
-2.084229 5.572949 0.784255 32
-2.068141 5.569358 0.784392 33
-2.052161 5.569707 0.784375 35
-2.036180 5.570000 0.784358 34
-2.020146 5.566241 0.784494 33
-2.004215 5.570419 0.784322 32
-1.988257 5.574542 0.784150 31
-1.972281 5.582606 0.783825 30
-1.956252 5.586617 0.783652 28
-1.940229 5.582578 0.783785 28
-1.924235 5.578484 0.783918 28
-1.908269 5.574333 0.784051 31
-1.892214 5.578121 0.783876 31
-1.876860 5.585863 0.783549 28
-1.860910 5.581547 0.783680 26
-1.844688 5.589165 0.783350 23
-1.828640 5.588733 0.783327 26
-1.812594 5.588246 0.783304 23
-1.796266 5.595692 0.782973 21
-1.780508 5.587103 0.783255 23
-1.764637 5.582455 0.783384 21
-1.748246 5.589730 0.783051 21
-1.732197 5.588962 0.783025 20
-1.715727 5.596121 0.782692 18
-1.699656 5.595239 0.782665 16
-1.683827 5.590312 0.782791 18
-1.667523 5.593308 0.782610 18
-1.652265 5.592312 0.782583 18
-1.635646 5.599184 0.782247 18
-1.619859 5.594037 0.782371 20
-1.603796 5.592821 0.782342 19
-1.587092 5.599516 0.782004 18
-1.570001 5.610135 0.781512 13
-1.552131 5.628653 0.780711 12
-1.536312 5.623219 0.780833 10
-1.519391 5.629670 0.780493 11
-1.503204 5.628103 0.780461 11
-1.487023 5.626480 0.780428 11
-1.470008 5.632750 0.780086 12
-1.454244 5.627037 0.780206 12
-1.437619 5.629214 0.780017 13
-1.420401 5.643337 0.779368 11
-1.404979 5.641522 0.779334 11
-1.387289 5.651457 0.778835 11
-1.371528 5.645463 0.778953 11
-1.355286 5.643380 0.778916 11
-1.337466 5.653126 0.778416 12
-1.319570 5.662804 0.777915 11
-1.301896 5.664382 0.777720 10
-1.286405 5.662174 0.777683 11
-1.268937 5.667701 0.777335 12
-1.250825 5.677116 0.776832 11
-1.233863 5.678561 0.776637 10
-1.216689 5.675868 0.776594 11
-1.200520 5.677322 0.776400 11
-1.183516 5.678585 0.776203 12
-1.165008 5.683589 0.775849 13
-1.150134 5.676987 0.775963 15
-1.133214 5.682148 0.775613 15
-1.116736 5.675151 0.775721 16
-1.095964 5.691684 0.774901 21
-1.081035 5.680782 0.775165 20
-1.063923 5.681611 0.774965 22
-1.046850 5.686460 0.774612 22
-1.028183 5.699089 0.773948 31
-1.013336 5.687970 0.774211 30
-0.993735 5.700298 0.773544 27
-0.977305 5.696896 0.773496 30
-0.960066 5.693262 0.773445 32
-0.944481 5.689919 0.773398 28
-0.928087 5.686346 0.773349 34
-0.911706 5.682714 0.773299 34
-0.891863 5.690533 0.772781 37
-0.875388 5.690859 0.772577 40
-0.859811 5.687236 0.772528 36
-0.840757 5.690948 0.772163 37
-0.822482 5.694781 0.771800 38
-0.805940 5.694865 0.771594 38
-0.789530 5.690807 0.771541 40
-0.771334 5.690360 0.771329 39
-0.752781 5.698007 0.770811 39
-0.735354 5.697631 0.770600 33
-0.715876 5.704922 0.770078 36
-0.697365 5.708272 0.769710 36
-0.681955 5.699977 0.769810 36
-0.662348 5.707048 0.769285 38
-0.644823 5.706339 0.769072 36
-0.627023 5.709644 0.768705 33
-0.603964 5.728018 0.767711 38
-0.586326 5.727094 0.767496 40
-0.569805 5.722270 0.767436 39
-0.551021 5.725049 0.767063 38
-0.532201 5.727755 0.766690 38
-0.514511 5.726564 0.766473 35
-0.497992 5.721489 0.766411 37
-0.480298 5.720171 0.766192 38
-0.460182 5.726408 0.765661 35
-0.442444 5.724949 0.765441 33
-0.423465 5.727227 0.765064 33
-0.405698 5.725631 0.764843 31
-0.390008 5.720450 0.764782 33
-0.371793 5.722796 0.764406 31
-0.351434 5.728577 0.763870 28
-0.329717 5.738054 0.763177 26
-0.312332 5.732046 0.763107 25
-0.293146 5.733807 0.762725 25
-0.273927 5.735491 0.762343 25
-0.254676 5.737100 0.761961 23
-0.231300 5.749901 0.761107 20
-0.216079 5.740086 0.761194 17
-0.200343 5.734276 0.761127 21
-0.179590 5.739332 0.760585 18
-0.158781 5.744300 0.760041 17
-0.143632 5.734251 0.760127 13
-0.124819 5.731288 0.759893 15
-0.105375 5.732297 0.759505 15
-0.087370 5.729511 0.759274 13
-0.071670 5.723275 0.759204 13
-0.053003 5.724401 0.758818 13
-0.035670 5.717379 0.758740 16
-0.017667 5.714329 0.758506 13
0.001871 5.714902 0.758115 14
0.022158 5.719429 0.757569 13
0.040206 5.716161 0.757334 14
0.055114 5.705474 0.757414 16
0.077129 5.709065 0.756858 13
0.095180 5.705589 0.756622 13
0.112409 5.702405 0.756388 13
0.136124 5.713774 0.755522 12
0.150960 5.702780 0.755600 13
0.172331 5.706307 0.755044 12
0.196236 5.713003 0.754325 11
0.212703 5.705447 0.754243 12
0.229143 5.697834 0.754161 13
0.247255 5.693781 0.753919 13
0.264544 5.690048 0.753681 13
0.284376 5.689467 0.753280 13
0.305965 5.692405 0.752719 11
0.328423 5.694850 0.752154 11
0.346586 5.690421 0.751909 10
0.356836 5.671999 0.752304 6
4.677096 14.285712 0.368924 47
4.755804 14.326718 0.365814 45
4.829449 14.356645 0.363178 35
0.802544 6.292811 0.721673 11
5.145012 14.512969 0.350859 20
5.218843 14.532743 0.348511 34
0.893641 6.239778 0.721313 15
0.934072 6.272347 0.719297 17
0.938957 6.237723 0.720310 26
0.943636 6.203129 0.721323 16
0.946152 6.165082 0.722497 26
0.958284 6.144471 0.722872 35
0.976251 6.134253 0.722766 24
0.984216 6.106650 0.723461 40
0.992024 6.079055 0.724155 36
1.001693 6.054918 0.724690 46
1.011229 6.030775 0.725225 58
1.021799 6.010585 0.725605 60
1.044581 6.010957 0.725022 58
1.057953 5.993593 0.725235 60
1.073317 5.979612 0.725288 58
1.090708 5.968993 0.725179 57
1.105962 5.954913 0.725231 57
1.124131 5.943641 0.725117 57
1.140534 5.933386 0.725012 58
1.162035 5.929289 0.724580 60
1.181397 5.921732 0.724309 57
1.208082 5.923636 0.723547 55
1.226589 5.916459 0.723279 60
1.245941 5.908653 0.723006 58
1.269666 5.907454 0.722408 56
1.294768 5.910050 0.721655 56
1.320782 5.911961 0.720894 53
1.346849 5.913750 0.720132 53
1.368488 5.908796 0.719693 50
1.394636 5.910356 0.718929 48
1.420835 5.911793 0.718164 45
1.458457 5.929539 0.716589 43
1.603680 6.101171 0.707396 28
1.619194 6.085430 0.707434 33
1.604629 6.027230 0.709580 27
1.717306 6.148185 0.702803 25
1.744606 6.148302 0.702027 21
1.763479 6.134688 0.701892 25
1.804052 6.154611 0.700144 21
1.807857 6.122110 0.700990 22
1.832870 6.118566 0.700372 20
1.880881 6.147631 0.698132 19
1.915641 6.156571 0.696860 17
1.938463 6.149388 0.696401 17
1.968543 6.151649 0.695452 21
2.001118 6.156936 0.694339 20
2.033778 6.162056 0.693224 19
2.061614 6.160703 0.692434 19
2.091954 6.162364 0.691480 17
2.122354 6.163875 0.690525 17
2.155300 6.168366 0.689405 16
2.180835 6.163330 0.688774 19
2.211402 6.164401 0.687815 17
2.239507 6.162219 0.687018 21
2.275237 6.169185 0.685728 22
2.311067 6.175964 0.684437 17
2.341893 6.176404 0.683473 21
2.372773 6.176692 0.682507 21
2.407186 6.179122 0.681368 17
2.440769 6.182139 0.680235 15
2.468331 6.179677 0.679436 15
2.502040 6.182374 0.678300 14
2.533206 6.181877 0.677328 16
2.564422 6.181225 0.676353 17
2.594783 6.181213 0.675386 18
2.628745 6.183251 0.674244 14
2.668090 6.191087 0.672771 15
2.702212 6.192758 0.671626 14
2.728368 6.185352 0.670975 16
2.762593 6.186701 0.669828 14
2.791488 6.181977 0.669009 14
2.825824 6.182992 0.667859 14
2.865662 6.189690 0.666376 14
2.897418 6.187412 0.665388 16
2.934695 6.190796 0.664067 16
2.974804 6.196885 0.662579 16
3.009496 6.196973 0.661421 14
3.041479 6.194002 0.660427 13
3.067037 6.186004 0.659771 14
3.100962 6.186483 0.658617 14
3.144246 6.194465 0.656954 14
3.182031 6.196520 0.655622 14
3.219892 6.198374 0.654288 14
3.255000 6.197204 0.653119 15
3.298677 6.204294 0.651449 13
3.333923 6.202729 0.650276 13
3.363507 6.195394 0.649435 15
3.404573 6.199052 0.647926 15
3.445729 6.202487 0.646415 13
3.486974 6.205697 0.644902 13
3.519619 6.200420 0.643888 13
3.560100 6.204174 0.642380 12
3.595747 6.201278 0.641196 12
3.628516 6.195472 0.640178 12
3.667180 6.194928 0.638823 16
3.712703 6.198595 0.637122 13
3.753556 6.201299 0.635606 12
3.798362 6.205469 0.633910 14
3.831379 6.198698 0.632883 11
3.873362 6.199747 0.631352 11
3.912432 6.197914 0.629986 11
3.951560 6.195872 0.628618 12
4.005787 6.206773 0.626408 14
4.039039 6.199017 0.625373 15
4.078362 6.196312 0.624000 13
4.123811 6.198594 0.622288 13
4.163260 6.195444 0.620911 14
4.211921 6.199816 0.619026 12
4.260687 6.203911 0.617139 12
4.306485 6.205173 0.615418 13
4.348377 6.204733 0.613874 12
4.400511 6.210570 0.611811 9
4.440371 6.206008 0.610422 12
4.480276 6.201231 0.609031 12
4.535802 6.208754 0.606791 17
4.578962 6.205984 0.605227 15
4.637846 6.215382 0.602812 11
4.674884 6.207140 0.601583 12
4.715095 6.201162 0.600182 13
4.767980 6.204760 0.598099 16
4.820970 6.208052 0.596014 18
4.861362 6.201332 0.594606 16
4.908157 6.199224 0.592857 18
4.958213 6.199256 0.590935 18
5.014754 6.203787 0.588669 19
5.068201 6.205606 0.586571 19
5.112093 6.200003 0.584983 19
5.159256 6.196516 0.583221 21
5.212950 6.197459 0.581116 21
5.269978 6.200426 0.578837 20
5.323863 6.200733 0.576726 19
5.371321 6.196100 0.574955 22
5.646497 6.312034 0.561982 68
5.648604 6.274051 0.562599 32
5.662784 6.246522 0.562542 21
5.743732 6.262767 0.559040 26
5.834804 6.285247 0.555018 16
5.922812 6.304921 0.551163 9
5.967874 6.295152 0.549539 8
5.716682 6.088362 0.563226 18
5.867888 6.149505 0.556098 5
5.845706 6.095897 0.557919 8
5.756207 5.998988 0.563189 12
6.852041 6.666735 0.507580 14
6.135531 6.125557 0.545709 9
6.352933 6.222873 0.535260 15
6.045754 5.990581 0.551599 10
6.463966 6.211024 0.530932 4
7.264076 6.664674 0.490866 17
7.313526 6.652798 0.489033 17
6.681319 6.223369 0.521834 12
7.374334 6.598641 0.487398 16
6.429279 5.991028 0.535871 17
6.525786 6.008501 0.531615 12
6.983513 6.239255 0.509124 13
7.281500 6.370878 0.494763 9
7.225008 6.293010 0.498288 16
7.170625 6.219209 0.501658 27
7.348644 6.278104 0.493362 13
7.363551 6.243616 0.493247 14
7.443692 6.247772 0.489833 17
7.475953 6.222667 0.488843 22
7.761196 6.334362 0.475265 12
7.687637 6.252341 0.479521 22
7.755141 6.245251 0.476775 15
8.189898 6.432441 0.455815 7
8.257268 6.425026 0.453067 11
8.074691 6.283056 0.462734 10
8.448147 6.431384 0.444882 16
8.637358 6.483294 0.436142 15
8.740795 6.491976 0.431620 8
8.815926 6.485507 0.428497 6
8.882343 6.469406 0.425864 6
8.983563 6.472694 0.421486 6
9.027672 6.446902 0.419918 16
9.153239 6.463403 0.414316 12
9.017846 6.349194 0.421548 20
9.302659 6.439640 0.408168 26
9.439548 6.459305 0.402020 16
9.393594 6.388590 0.404847 22
9.474744 6.375887 0.401479 40
10.571101 6.785755 0.349152 6
11.970578 7.377042 0.281562 7
12.063005 7.357331 0.277751 18
11.257871 6.936192 0.317532 4
10.406093 6.452124 0.360018 6
10.512929 6.447367 0.355381 13
11.309506 6.628376 0.318480 21
11.313381 6.578138 0.318808 7
12.243808 6.911575 0.274432 7
12.423200 6.927524 0.266340 13
11.800195 6.614212 0.296918 15
11.811343 6.565550 0.296877 27
11.934559 6.559071 0.291462 7
12.065324 6.554746 0.285683 12
12.795058 6.784754 0.251127 18
12.610326 6.653587 0.260514 7
12.985295 6.736383 0.243053 22
13.162102 6.743863 0.235081 19
13.241909 6.713568 0.231756 11
13.283251 6.671498 0.230244 8
13.441689 6.669406 0.223146 31
13.567497 6.651243 0.217632 17
14.161252 6.807236 0.189708 6
14.418534 6.835546 0.177900 6
14.851261 6.858014 0.158198 6
15.402315 6.914722 0.132862 10
15.589463 6.910281 0.124407 10
15.867766 6.934941 0.111613 11
16.118847 6.952129 0.100093 7
16.498493 6.934791 0.082921 16
17.071232 7.046015 0.056145 21
17.358007 7.066804 0.042936 26
17.532766 7.043361 0.035085 13
17.862131 7.073651 0.019854 22
18.303867 7.131918 -0.000682 14
18.421921 7.086231 -0.005854 9
18.362570 6.991281 -0.002652 9
18.364185 6.914712 -0.002351 9
18.338634 6.830471 -0.000777 9
18.419363 6.780599 -0.004263 4
18.070063 6.605867 0.012599 4
17.990347 6.504734 0.016706 4
17.715746 6.281263 0.030285 13
17.803591 6.230985 0.026415 8
17.642305 6.042020 0.034554 4
17.562107 5.952377 0.038570 4
17.531919 5.875952 0.040214 4
17.503115 5.792988 0.041802 4
17.395487 5.694817 0.047084 4
17.299595 5.458454 0.052149 4
17.248398 5.305492 0.054866 4
17.094488 5.131399 0.062374 4
16.999390 5.041479 0.066964 4
16.978197 4.967880 0.068061 4
16.897345 4.885654 0.071953 3
16.839651 4.808781 0.074743 3
16.833248 4.739224 0.075111 3
16.775612 4.659774 0.077880 3
16.757517 4.585049 0.078778 3
16.675688 4.501930 0.082663 3
16.612556 4.426299 0.085657 3
16.600822 4.357167 0.086221 3
16.526463 4.273740 0.089722 3
16.478739 4.198913 0.091958 3
16.493193 4.138420 0.091258 3
16.448870 4.064770 0.093314 3
16.376656 3.986957 0.096673 3
16.341812 3.850230 0.098200 3
16.278294 3.710011 0.101036 3
16.208572 3.634818 0.104227 3
16.205351 3.572865 0.104281 3
16.166739 3.502855 0.105987 3
16.144121 3.432126 0.106924 3
16.076828 3.362176 0.109969 3
16.053268 3.295143 0.110937 3
16.025494 3.227809 0.112093 3
15.993504 3.160218 0.113439 3
15.965230 3.093343 0.114600 3
15.873189 3.019463 0.118760 3
15.864254 2.955448 0.118990 3
15.842839 2.893356 0.119810 3
15.817555 2.827912 0.120793 3
15.799675 2.766562 0.121429 3
15.813698 2.705324 0.120537 3
15.718015 2.568498 0.124557 10
15.630942 2.254794 0.127301 3
15.587660 2.125528 0.128714 3
-16.472952 1.056186 0.302247 60
-16.580055 1.158740 0.298194 19
-16.571405 1.209648 0.298973 11
-16.668228 1.365177 0.295714 2
-26.492001 1.958625 -0.145670 6
-26.576332 2.048019 -0.148928 6
-26.608643 2.131300 -0.149881 6
-26.616514 2.217922 -0.149719 6
-26.640041 2.305463 -0.150275 6
-26.671238 2.393636 -0.151189 6
-26.753971 2.485170 -0.154432 6
-26.768572 2.572973 -0.154624 6
-26.802797 2.662237 -0.155712 6
-26.820757 2.750630 -0.156081 6
-26.838402 2.839170 -0.156450 6
-26.927443 2.933435 -0.160035 6
-26.972317 3.024780 -0.161651 6
-27.164782 3.390636 -0.168838 6
-27.140806 3.472629 -0.167450 6
-27.175749 3.564969 -0.168697 6
-27.202404 3.656744 -0.169587 6
-27.271942 3.757923 -0.172395 6
-27.278042 3.848047 -0.172392 6
-27.323515 3.942868 -0.174165 6
-27.416243 4.043752 -0.178063 6
-27.453600 4.134013 -0.179511 6
-27.450432 4.223981 -0.179149 6
-27.482609 4.318616 -0.180381 6
-27.581766 4.422536 -0.184619 7
-27.597374 4.515755 -0.185138 7
-27.628469 4.611357 -0.186363 7
-27.646698 4.709986 -0.187021 7
-27.732410 4.814282 -0.190714 7
-27.739372 4.902717 -0.190911 7
-27.776924 5.000647 -0.192481 7
-27.802267 5.097004 -0.193521 7
-27.879261 5.197397 -0.196884 7
-27.903872 5.294379 -0.197920 7
-27.951761 5.395591 -0.200009 7
-28.062262 5.508094 -0.204908 7
-28.049498 5.604421 -0.204319 7
-28.112740 5.705084 -0.207139 7
-28.195251 5.809828 -0.210832 7
-28.303991 5.924914 -0.215711 7
-28.314116 6.022080 -0.216205 7
-28.377903 6.134672 -0.219112 7
-28.387259 6.232291 -0.219603 7
-28.537266 6.358522 -0.226388 7
-28.527178 6.448227 -0.226036 7
-28.605789 6.561369 -0.229665 7
-28.605757 6.658495 -0.229799 7
-28.624901 6.759915 -0.230805 7
-28.650442 6.867914 -0.232122 7
-28.680025 7.065384 -0.233816 15
-28.928436 7.215976 -0.245120 15
-28.937698 7.317367 -0.245766 15
-28.995996 7.435656 -0.248633 15
-29.160948 7.570371 -0.256261 16
-29.137848 7.665271 -0.255511 24
-29.005846 7.733022 -0.249905 7
-29.124325 7.868391 -0.255536 8
-29.120752 7.963394 -0.255692 16
-29.169758 8.077291 -0.258234 16
-25.699636 7.350704 -0.103522 44
-29.132723 8.372289 -0.257721 16
-29.095989 8.566091 -0.256920 88
-29.201372 8.795739 -0.262539 8
-29.335182 8.937570 -0.269030 8
-29.364819 9.049984 -0.270863 8
-29.391598 9.156773 -0.272560 8
-29.566637 9.529819 -0.282129 8
-29.469551 9.599825 -0.278323 8
-29.515560 9.719930 -0.281005 8
-29.513859 9.830626 -0.281588 8
-29.460062 9.919339 -0.279809 8
-29.455338 10.024001 -0.280259 8
-24.510187 8.482125 -0.057723 6
-18.492613 6.678939 0.212544 42
-22.812273 8.406317 0.015522 5
-22.574400 8.406921 0.025659 5
-21.867050 8.305813 0.056539 9
-21.564196 8.272272 0.069667 13
-16.626602 6.552003 0.292982 185
-16.652880 6.617758 0.291320 73
-20.854572 8.306623 0.099421 100
-20.791725 8.357966 0.101627 100
-20.737478 8.408621 0.103465 100
-20.687920 8.468495 0.105013 100
-20.639488 8.524846 0.106532 29
-20.618124 8.588250 0.106840 97
-14.909628 6.371875 0.366837 4
-14.846971 6.448976 0.368696 9
-20.748573 9.104053 0.096340 13
-20.747232 9.177485 0.095638 13
-20.740513 9.252666 0.095130 13
-20.733496 9.327898 0.094622 13
-20.718891 9.399913 0.094450 13
-20.658842 9.455419 0.096321 4
-20.587069 9.497451 0.098812 4
-20.647160 9.842218 0.092407 49
-12.683107 6.254109 0.459939 181
-12.679007 6.298599 0.459554 144
-24.349672 12.268890 -0.087721 13
-24.166082 12.268865 -0.080314 71
-24.087482 12.326258 -0.077892 19
-23.905787 12.330035 -0.070637 31
-23.628645 12.282812 -0.058893 43
-23.472382 12.297014 -0.052825 43
-23.341003 12.323365 -0.047930 55
-23.230850 12.360242 -0.044039 36
-22.978439 12.315070 -0.033364 78
-22.657875 12.235723 -0.019516 29
-22.534403 12.261811 -0.014986 23
-21.980713 12.049482 0.009957 22
-21.942015 12.119294 0.010483 38
-21.662626 12.053948 0.022448 16
-21.331581 12.046594 0.035571 42
-21.071196 11.986574 0.046673 25
-21.081121 12.081285 0.044856 15
-21.483925 12.406178 0.024189 16
-20.791748 12.085384 0.056076 15
-22.046713 12.384156 0.137314 39
-21.833338 12.354974 0.144956 10
-22.070623 12.583994 0.134098 18
-20.685600 11.872759 0.189914 9
-20.543816 11.964590 0.193588 40
-20.842045 12.229769 0.180170 22
-20.778725 12.281209 0.181654 26
-20.739220 12.346824 0.182144 29
-20.293293 12.164714 0.199483 9
-19.588007 11.900041 0.226574 34
-19.543055 11.957271 0.227314 11
-19.173018 11.810087 0.241613 27
-19.604561 12.167454 0.222437 18
-18.921892 11.818130 0.249839 13
-19.882509 12.519604 0.208405 12
-9.905231 6.179950 0.625712 221
-9.874628 6.197478 0.626470 162
-18.181574 11.826072 0.274076 13
-18.052635 11.903147 0.277157 31
-17.862633 11.855511 0.284024 25
-18.152557 12.132527 0.270530 21
-17.550407 11.794509 0.295029 37
-17.317364 11.716518 0.303712 33
-17.921936 12.226036 0.276552 13
-17.079082 11.707868 0.311491 23
-17.297255 11.939110 0.300954 25
-17.424479 12.111611 0.294220 25
-17.466515 12.224154 0.291123 17
-17.234766 12.141833 0.299772 50
-16.957457 12.019815 0.310482 19
-17.322384 12.366871 0.293421 20
-16.097036 11.536011 0.345357 27
-10.872158 7.735660 0.570939 1
-10.719393 7.665824 0.576856 1
-10.682197 7.688142 0.577645 1
-10.632307 7.700492 0.578988 1
-10.569022 7.697271 0.581001 1
-10.457512 7.658179 0.585103 1
-10.396561 7.658051 0.586982 1
-10.354479 7.672519 0.588026 1
-10.309280 7.684273 0.589207 1
-10.353496 7.814077 0.585604 3
-10.307984 7.825603 0.586782 3
-10.083616 7.689377 0.595975 2
-10.027534 7.688186 0.597688 2
-9.981477 7.699753 0.598866 1
-9.924387 7.699379 0.600585 1
-9.849108 7.683170 0.603128 1
-9.810511 7.697681 0.604014 1
-9.765848 7.706789 0.605174 1
-9.683110 7.680285 0.608112 1
-9.623571 7.675665 0.609956 1
-9.591189 7.694457 0.610559 1
-9.552780 7.707807 0.611436 1
-9.511387 7.718310 0.612448 1
-9.413480 7.677881 0.616068 1
-9.384168 7.698495 0.616527 1
-9.347104 7.709626 0.617387 1
-9.302979 7.716466 0.618529 0
-9.267713 7.731212 0.619258 0
-9.227752 7.739084 0.620251 0
-9.125322 7.690686 0.624125 0
-9.101900 7.715654 0.624301 0
-9.058084 7.721285 0.625434 0
-9.011426 7.723932 0.626701 0
-8.976362 7.737418 0.627420 0
-8.941290 7.750742 0.628138 0
-8.846107 7.705292 0.631720 0
-8.793393 7.747575 0.632328 0
-8.735781 7.737535 0.634129 0
-8.705371 7.756659 0.634575 0
-8.663214 7.759104 0.635683 0
-8.626721 7.767044 0.636518 0
-8.597447 7.784553 0.636951 0
-8.498545 7.730204 0.640781 0
-8.461119 7.738589 0.641619 0
-8.423716 7.746796 0.642454 0
-8.394593 7.763518 0.642882 0
-8.359947 7.774304 0.643579 0
-8.325304 7.784930 0.644275 0
-8.238931 7.739784 0.647545 0
-8.127552 7.760828 0.650024 0
-8.093163 7.770454 0.650712 0
-8.054622 7.772912 0.651662 0
-8.012287 7.773262 0.652753 0
-7.975327 7.779383 0.653572 0
-7.938397 7.785330 0.654390 0
-7.898869 7.788091 0.655341 0
-7.869873 7.802739 0.655752 0
-7.830411 7.805151 0.656700 0
-7.775414 7.789142 0.658456 0
-7.737314 7.790108 0.659394 0
-7.667993 7.806750 0.660749 1
-7.613503 7.789743 0.662497 0
-7.588386 7.805369 0.662757 1
-7.541757 7.797150 0.664098 1
-7.507875 7.804190 0.664766 0
-7.461445 7.795532 0.666104 0
-7.427656 7.802221 0.666769 0
-7.388904 7.802505 0.667701 0
-7.355178 7.808871 0.668363 0
-7.319004 7.811942 0.669158 0
-7.290250 7.824300 0.669550 0
-7.234552 7.801771 0.671414 0
-7.193696 7.797953 0.672473 0
-7.121914 7.802457 0.674050 1
-7.083693 7.801264 0.674971 1
-7.050326 7.806293 0.675623 1
-7.015796 7.807079 0.676401 1
-6.984868 7.815025 0.676917 1
-6.946868 7.813157 0.677832 1
-6.913639 7.817577 0.678479 1
-6.875766 7.815361 0.679392 1
-6.840295 7.816216 0.680170 1
-6.809505 7.823428 0.680680 1
-6.787933 7.843581 0.680656 1
-6.757117 7.850561 0.681164 1
-6.724031 7.854125 0.681804 1
-6.695514 7.864127 0.682177 1
-6.676012 7.887214 0.682017 1
-6.610219 7.946186 0.681932 13
-6.582713 7.954905 0.682295 6
-6.553000 7.960180 0.682791 13
-6.549306 8.010428 0.681570 2
-6.605285 8.150496 0.676763 5
-6.560794 8.136413 0.678058 9
-6.493685 8.141343 0.679319 2
-6.531704 8.254458 0.675571 2
-6.497858 8.256807 0.676201 2
-6.409345 8.227005 0.678779 3
-6.365328 8.211774 0.680066 8
-6.344241 8.233946 0.679896 1
-6.312763 8.238922 0.680387 2
-6.287442 8.254070 0.680481 1
-6.274273 8.289780 0.679780 0
-6.258885 8.322037 0.679212 0
-6.274768 8.405359 0.676658 0
-6.276845 8.468847 0.674902 0
-6.283777 8.603088 0.671127 1
-6.309548 8.707936 0.667784 2
-6.300741 8.758724 0.666562 2
-6.405379 9.011608 0.657691 2
-6.331146 8.942990 0.660946 1
-6.291887 8.937137 0.661827 0
-4.533042 5.747884 0.781858 0
-4.429015 5.672013 0.785831 157
-4.401547 5.659346 0.786671 138
-4.387079 5.671388 0.786589 151
-4.303686 5.628747 0.789231 2
-4.227555 5.595245 0.791469 221
-4.204458 5.588760 0.792038 214
-4.186656 5.592968 0.792214 225
-4.168852 5.597106 0.792389 224
-4.151046 5.601176 0.792564 179
-4.091467 5.642219 0.792339 0
-4.082646 5.663820 0.791854 1
