# .PCD v.7 - Point Cloud Data file format
VERSION .7
FIELDS x y z intensity
SIZE 4 4 4 1
TYPE F F F U
COUNT 1 1 1 1
WIDTH 1504
HEIGHT 1
VIEWPOINT 0 0 0 1 0 0 0
POINTS 1504
DATA ascii
21.108349 -9.724922 -0.113173 2
9.241982 -5.299731 0.426814 0
9.129990 -5.301641 0.431099 0
9.025573 -5.305717 0.435045 2
8.985253 -5.332035 0.436100 8
8.832676 -5.315846 0.442270 8
8.761962 -5.331341 0.444687 7
8.517030 -5.318672 0.454310 0
8.365276 -5.298936 0.460494 0
8.007229 -5.192076 0.476253 0
8.206976 -5.315140 0.466211 0
8.085250 -5.305420 0.471035 0
8.184073 -5.389446 0.465599 0
7.985400 -5.345542 0.474020 0
7.779836 -5.297104 0.482790 0
7.468715 -5.200476 0.496530 0
7.421939 -5.217217 0.497952 0
7.534793 -5.307443 0.491832 0
7.508091 -5.337405 0.492214 0
7.159456 -5.215793 0.507865 0
7.098326 -5.224351 0.509980 0
7.014774 -5.223994 0.513119 0
7.235074 -5.366044 0.501849 0
7.133202 -5.357112 0.505846 0
6.807324 -5.241993 0.520483 0
6.864479 -5.307513 0.516933 0
6.850206 -5.336885 0.516823 0
6.655795 -5.279527 0.525296 0
6.490530 -5.235082 0.532400 0
6.390001 -5.221746 0.536414 0
6.350308 -5.238393 0.537508 0
6.303481 -5.251187 0.538947 0
6.242449 -5.256397 0.541074 0
6.388021 -5.366444 0.533229 0
6.440086 -5.430866 0.529849 0
6.349087 -5.457796 0.532557 1
6.185607 -5.407619 0.539683 0
6.145627 -5.422864 0.540782 2
6.095113 -5.432147 0.542400 5
6.044635 -5.441130 0.544019 11
5.967000 -5.432929 0.547023 2
5.887969 -5.427016 0.550019 0
5.830750 -5.430988 0.551987 1
5.791748 -5.443121 0.553099 0
5.765850 -5.464338 0.553516 0
5.674130 -5.447484 0.557214 0
5.358829 -5.298167 0.572144 0
5.472179 -5.397285 0.565662 0
5.274471 -5.315646 0.574724 0
5.457823 -5.460867 0.564600 0
5.431212 -5.482000 0.565018 0
5.129153 -5.332863 0.579453 0
5.230827 -5.427196 0.573484 0
5.215394 -5.452410 0.573391 0
5.193078 -5.473362 0.573645 0
5.167313 -5.492098 0.574071 0
5.168569 -5.527726 0.573114 0
4.882741 -5.381595 0.586876 0
4.868235 -5.404396 0.586792 0
4.973876 -5.506176 0.580467 0
4.944335 -5.660511 0.577420 0
4.964553 -5.709275 0.575422 0
5.040735 -5.796375 0.570474 0
5.000920 -5.805138 0.571599 0
5.007208 -5.845413 0.570294 0
4.984595 -5.864069 0.570557 0
4.957811 -5.881554 0.570989 0
4.940794 -5.905812 0.570901 0
4.923692 -5.930011 0.570813 0
4.717910 -5.819413 0.580809 0
5.050525 -6.096178 0.561938 0
4.893655 -6.019869 0.569328 0
4.896395 -6.056844 0.568201 0
4.991427 -6.163774 0.562023 0
4.979846 -6.192907 0.561586 0
4.955337 -6.212459 0.561846 0
4.943552 -6.241510 0.561410 0
4.747782 -6.129415 0.571081 0
4.901485 -6.283806 0.561588 0
5.063696 -6.446635 0.551568 0
5.028903 -6.459032 0.552351 0
5.019325 -6.490904 0.551740 0
5.000180 -6.515373 0.551651 0
4.971546 -6.532340 0.552087 0
4.924122 -6.534236 0.553569 0
4.914178 -6.565875 0.552959 0
5.068851 -6.730607 0.543098 0
5.043670 -6.748974 0.543363 0
5.023623 -6.773526 0.543275 0
5.003492 -6.798009 0.543188 0
5.005806 -6.839076 0.541882 0
4.948664 -6.832726 0.543891 0
5.101483 -7.004947 0.533838 0
4.970861 -6.936606 0.540043 0
9.360839 -10.731092 0.286082 1
9.133035 -10.603834 0.297134 1
10.769260 -12.090222 0.200265 1
10.709458 -12.116332 0.201331 1
9.041041 -10.727810 0.296196 1
8.990826 -10.748479 0.297116 1
8.793060 -10.712070 0.304367 2
8.731208 -10.721010 0.305992 2
8.657594 -10.718889 0.308319 4
8.589563 -10.728182 0.310108 7
8.511559 -10.724426 0.312607 7
8.439565 -10.725688 0.314756 8
8.372302 -10.727487 0.316738 7
8.285999 -10.714299 0.319767 8
8.221410 -10.724421 0.321389 11
8.161469 -10.735188 0.322842 14
8.095819 -10.740111 0.324648 9
8.026218 -10.737382 0.326812 10
7.957911 -10.738828 0.328796 9
7.892567 -10.742717 0.330606 10
7.821636 -10.740646 0.332768 10
7.748010 -10.735378 0.335108 15
7.691465 -10.746700 0.336394 15
7.626528 -10.749224 0.338209 16
7.564493 -10.754264 0.339850 15
7.499749 -10.756129 0.341668 14
7.437890 -10.760532 0.343311 14
7.372275 -10.757227 0.345312 15
7.316132 -10.766773 0.346606 15
7.257285 -10.773149 0.348077 15
7.193025 -10.773416 0.349900 13
7.128877 -10.773355 0.351725 11
7.064842 -10.772964 0.353551 9
7.016178 -10.785355 0.354504 7
6.952322 -10.784368 0.356333 7
6.896653 -10.791919 0.357634 7
6.827642 -10.784379 0.359817 6
6.769470 -10.788372 0.361297 7
6.716697 -10.798044 0.362426 5
6.661314 -10.804475 0.363732 4
6.610342 -10.812137 0.364867 3
6.549818 -10.812033 0.366528 2
6.515577 -10.841818 0.366426 2
6.494269 -10.886626 0.365443 2
6.389660 -10.834204 0.370105 1
6.334655 -10.839058 0.371417 8
6.271993 -10.834481 0.373259 7
6.242805 -10.869426 0.372809 7
6.228798 -10.922728 0.371299 16
6.219605 -10.982215 0.369437 22
7.076615 -12.335222 0.298750 0
6.999710 -12.319950 0.301294 0
7.150078 -12.674819 0.284648 1
7.114244 -12.712993 0.284188 1
6.833689 -12.435027 0.301408 0
6.973840 -12.866217 0.282181 1
5.742372 -12.605336 0.321649 0
5.656725 -12.647758 0.322013 7
5.642314 -12.714556 0.319798 14
5.573178 -12.878142 0.315107 24
5.649381 -13.090149 0.305260 18
4.258100 -10.967628 0.417906 9
4.231421 -10.998495 0.417308 23
4.188487 -11.011076 0.417768 21
4.930038 -12.389253 0.348181 10
4.903889 -12.521817 0.343592 4
5.372793 -13.400758 0.299273 52
5.295091 -13.363217 0.302395 7
5.132703 -13.185222 0.312802 8
5.060159 -13.153546 0.315572 3
5.069551 -13.272797 0.310692 0
4.964262 -13.282413 0.312500 1
5.068274 -13.572486 0.298906 12
4.992992 -13.545972 0.301494 1
4.219477 -12.247768 0.368661 0
4.884726 -13.546552 0.303666 0
4.774574 -13.547431 0.305836 1
4.707837 -13.533437 0.307719 0
3.915148 -12.527950 0.363462 7
3.885618 -12.574479 0.362151 4
3.834434 -12.573552 0.363158 2
4.352250 -13.820296 0.303008 5
4.395713 -14.021677 0.294036 14
3.695575 -12.695999 0.360785 10
3.647818 -12.701420 0.361440 13
3.220366 -11.909330 0.401480 34
3.182126 -11.932001 0.401246 49
3.115070 -11.888559 0.404224 7
3.494273 -12.800869 0.360144 0
3.986182 -13.973495 0.303399 3
2.738096 -11.367477 0.432240 2
2.700290 -11.380315 0.432371 7
3.769908 -13.856879 0.311959 30
2.609954 -11.372723 0.434240 8
2.585271 -11.409889 0.433127 8
2.617796 -11.583274 0.425412 25
2.538017 -11.500320 0.430184 22
2.539471 -11.599774 0.426038 9
2.271399 -11.066828 0.452580 9
2.233195 -11.074312 0.452896 20
2.182689 -11.052145 0.454639 25
2.152213 -11.077765 0.454064 20
3.198126 -13.736938 0.326418 17
2.982805 -13.332728 0.346716 28
3.085425 -13.713569 0.329176 26
3.070540 -13.805535 0.325558 12
3.542768 -15.139926 0.262312 4
2.470292 -12.525784 0.388489 6
2.425792 -12.530129 0.388983 69
2.352894 -12.459609 0.393049 8
2.325601 -12.508392 0.391402 16
2.251985 -12.433552 0.395649 65
2.186455 -12.372606 0.399185 9
2.809623 -14.204093 0.312696 18
2.150486 -12.521838 0.393394 10
2.122394 -12.570128 0.391749 13
2.100665 -12.637203 0.389212 7
2.071934 -12.685402 0.387568 22
2.418394 -13.821416 0.334466 19
2.367221 -13.817853 0.335321 17
2.318681 -13.821661 0.335820 8
2.272697 -13.832869 0.335961 8
2.211676 -13.798368 0.338249 17
2.860100 -15.940726 0.238124 3
2.806594 -15.962244 0.237903 9
2.765486 -16.004759 0.236614 3
2.021877 -13.813294 0.340079 12
1.964152 -13.785277 0.342013 30
1.931278 -13.837242 0.340193 28
1.878397 -13.824117 0.341414 8
1.827945 -13.818436 0.342277 2
1.885942 -14.526018 0.311074 11
1.225348 -12.379149 0.411548 9
1.699058 -14.586673 0.310602 5
1.334134 -13.418676 0.365308 7
0.642183 -10.977086 0.478869 2
0.604370 -10.974651 0.479387 3
0.563872 -10.968653 0.480084 2
0.530106 -10.981416 0.479887 5
0.502878 -11.013009 0.478798 7
0.460316 -10.990649 0.480213 9
0.419829 -10.975880 0.481270 6
0.385985 -10.988153 0.481076 9
0.348419 -10.984753 0.481597 10
0.312712 -10.988997 0.481762 9
0.277005 -10.993114 0.481927 12
0.237793 -10.981509 0.482808 14
0.200414 -10.977554 0.483332 14
0.162242 -10.969557 0.484036 13
0.126723 -10.964950 0.484561 14
0.094456 -10.984045 0.484013 15
0.058039 -10.983469 0.484360 14
0.022596 -10.978492 0.484887 13
-0.012184 -10.985492 0.484877 14
-0.048524 -10.984528 0.485226 14
-0.084834 -10.983432 0.485575 15
-0.122111 -10.986458 0.485745 13
-0.158370 -10.985094 0.486095 14
-0.193172 -10.991463 0.486088 15
-0.229393 -10.989841 0.486439 15
-0.263156 -10.991722 0.486612 15
-0.300668 -10.981968 0.487322 15
-0.337198 -10.988131 0.487316 15
-0.372653 -10.989931 0.487490 15
-0.408101 -10.991606 0.487665 17
-0.441799 -10.992882 0.487840 15
-0.475489 -10.994045 0.488016 15
-0.512651 -10.995614 0.488192 17
-0.549230 -11.000999 0.488190 17
-0.585207 -10.998091 0.488546 17
-0.618309 -11.002728 0.488545 15
-0.654238 -10.999571 0.488902 18
-0.686823 -11.007941 0.488722 21
-0.723953 -11.008724 0.488902 21
-0.759326 -11.009153 0.489081 21
-0.794687 -11.009457 0.489261 20
-0.830500 -11.005666 0.489621 21
-0.865369 -11.009688 0.489623 21
-0.900690 -11.009617 0.489805 21
-0.933829 -11.013208 0.489808 21
-0.968724 -11.016870 0.489811 22
-1.004820 -11.008480 0.490352 22
-1.039699 -11.011894 0.490357 23
-1.074957 -11.011207 0.490541 21
-1.109845 -11.014376 0.490546 21
-1.144743 -11.017423 0.490552 21
-1.180305 -11.012383 0.490917 21
-1.215196 -11.015184 0.490924 19
-1.249798 -11.021849 0.490753 18
-1.284721 -11.024407 0.490761 18
-1.319382 -11.030830 0.490590 19
-1.355108 -11.021183 0.491136 19
-1.390029 -11.023374 0.491145 18
-1.424957 -11.025443 0.491155 23
-1.458145 -11.027295 0.491165 27
-1.493288 -11.025136 0.491355 26
-1.528598 -11.018862 0.491725 27
-1.563335 -11.024439 0.491558 27
-1.596841 -11.017847 0.491927 24
-1.633055 -11.031239 0.491404 27
-1.668009 -11.032459 0.491417 28
-1.703204 -11.025569 0.491789 32
-1.738033 -11.030540 0.491625 32
-1.771328 -11.027359 0.491818 29
-1.806268 -11.028097 0.491833 27
-1.841273 -11.024718 0.492028 26
-1.876351 -11.013225 0.492581 28
-1.911312 -11.005605 0.492955 30
-1.944320 -11.025825 0.492077 30
-1.979245 -11.029955 0.491916 28
-2.014193 -11.029966 0.491934 28
-2.049179 -11.037849 0.491595 28
-2.084086 -11.029625 0.491972 30
-2.119079 -11.033267 0.491813 33
-2.154160 -11.040783 0.491476 32
-2.189220 -11.044180 0.491318 28
-2.222289 -11.035508 0.491695 30
-2.257254 -11.034672 0.491717 30
-2.294199 -11.041651 0.491383 33
-2.329185 -11.040564 0.491405 33
-2.364312 -11.043347 0.491250 32
-2.399304 -11.042016 0.491273 30
-2.434118 -11.036570 0.491476 30
-2.467896 -11.047050 0.490964 33
-2.502901 -11.045357 0.490989 32
-2.539863 -11.047438 0.490837 33
-2.574868 -11.045493 0.490863 31
-2.609866 -11.043426 0.490890 32
-2.644857 -11.041237 0.490917 31
-2.678630 -11.047018 0.490585 28
-2.714200 -11.052561 0.490256 29
-2.748924 -11.046022 0.490463 31
-2.783923 -11.043348 0.490493 30
-2.819889 -11.052500 0.489986 29
-2.853159 -11.049726 0.490015 28
-2.888523 -11.050669 0.489867 26
-2.923171 -11.043528 0.490076 24
-2.960671 -11.048033 0.489752 27
-2.996070 -11.048595 0.489606 31
-3.030551 -11.057163 0.489101 27
-3.063414 -11.049718 0.489311 26
-3.100174 -11.045754 0.489346 24
-3.136069 -11.049795 0.489023 22
-3.172006 -11.053707 0.488700 21
-3.207029 -11.049556 0.488735 22
-3.243020 -11.053213 0.488414 26
-3.277031 -11.040886 0.488807 24
-3.311297 -11.044521 0.488484 22
-3.347351 -11.047805 0.488164 24
-3.383444 -11.050959 0.487845 24
-3.421328 -11.053735 0.487528 25
-3.455775 -11.044759 0.487745 24
-3.491941 -11.047522 0.487427 24
-3.528746 -11.054105 0.486931 22
-3.562018 -11.048981 0.486969 22
-3.599537 -11.059254 0.486296 18
-3.635220 -11.057553 0.486159 24
-3.670254 -11.051785 0.486201 26
-3.707947 -11.061653 0.485529 26
-3.743292 -11.067746 0.485035 28
-3.779058 -11.065536 0.484900 27
-3.814829 -11.063197 0.484765 24
-3.852358 -11.060409 0.484633 21
-3.888139 -11.057810 0.484499 18
-3.923925 -11.055083 0.484366 18
-3.957963 -11.052571 0.484231 17
-3.995315 -11.057434 0.483743 21
-4.032724 -11.062159 0.483255 22
-4.070191 -11.066745 0.482768 20
-4.106894 -11.067280 0.482459 19
-4.143627 -11.067681 0.482151 19
-4.178693 -11.060138 0.482200 18
-4.216315 -11.064179 0.481715 18
-4.253118 -11.064180 0.481408 15
-4.288194 -11.064447 0.481100 17
-4.325952 -11.068079 0.480617 18
-4.363686 -11.063377 0.480492 17
-4.399665 -11.058952 0.480366 18
-4.436584 -11.058283 0.480063 18
-4.471776 -11.057908 0.479757 18
-4.508928 -11.065166 0.479096 18
-4.543983 -11.056347 0.479150 16
-4.583745 -11.058566 0.478673 17
-4.620053 -11.061543 0.478192 16
-4.656409 -11.064390 0.477711 15
-4.695601 -11.070497 0.477055 15
-4.732770 -11.068739 0.476756 15
-4.771715 -11.066360 0.476461 13
-4.807848 -11.060473 0.476340 11
-4.848334 -11.069835 0.475510 11
-4.884506 -11.063673 0.475391 11
-4.922266 -11.069402 0.474736 11
-4.962475 -11.070124 0.474266 10
-5.003872 -11.074514 0.473618 10
-5.039517 -11.072148 0.473321 10
-5.075179 -11.069657 0.473024 11
-5.113794 -11.070313 0.472553 10
-5.153009 -11.066460 0.472263 10
-5.195324 -11.078244 0.471261 11
-5.232335 -11.079007 0.470789 9
-5.269906 -11.075264 0.470498 10
-5.306240 -11.067586 0.470385 9
-5.346348 -11.071151 0.469741 9
-5.387797 -11.078344 0.468919 9
-5.426759 -11.077806 0.468453 9
-5.467514 -11.076513 0.467991 9
-5.506550 -11.075668 0.467527 8
-5.548281 -11.082211 0.466708 7
-5.585659 -11.081683 0.466241 7
-5.623073 -11.081017 0.465775 6
-5.665401 -11.082690 0.465139 6
-5.701892 -11.073586 0.465032 6
-5.742545 -11.075583 0.464394 4
-7.257352 -14.988761 0.278507 7
-5.831465 -11.093368 0.462415 3
-5.884917 -11.132832 0.460005 6
-5.909765 -11.097541 0.461137 8
-5.953976 -11.101746 0.460329 9
-5.993567 -11.099028 0.459872 8
-6.031701 -11.092447 0.459593 6
-6.069578 -11.090138 0.459133 2
-6.109242 -11.086971 0.458678 2
-6.153502 -11.094734 0.457693 1
-6.193259 -11.091243 0.457240 1
-6.233041 -11.087596 0.456787 1
-6.275973 -11.091151 0.455981 1
-6.323890 -11.101120 0.454826 0
-6.357472 -11.082299 0.455082 0
-6.394022 -11.075119 0.454804 0
-8.501106 -15.618242 0.233644 68
-8.243834 -14.787562 0.272015 1
-8.230255 -14.256818 0.294004 65
-8.276431 -14.234991 0.294115 26
-9.309424 -15.741243 0.215010 4
-7.960991 -12.926188 0.352775 9
-9.798043 -16.327492 0.182626 5
-9.831349 -16.261082 0.184702 1
-8.148744 -12.884380 0.351088 2
-8.173468 -12.830973 0.352780 0
-8.287678 -12.847573 0.350005 7
-7.997548 -11.252406 0.418784 19
-8.004777 -11.183243 0.421345 15
-8.046358 -11.172522 0.420921 4
-8.046803 -11.093109 0.424008 2
-8.081935 -11.071941 0.424112 0
-9.009574 -12.514308 0.348953 0
-8.903186 -12.251456 0.361351 0
-9.121770 -11.053688 0.402096 0
-7.413751 -8.058317 0.552772 0
-7.450529 -8.055173 0.551989 0
-7.418512 -7.963644 0.556085 0
-7.422967 -7.919553 0.557567 0
-7.429660 -7.878650 0.558875 1
-7.421185 -7.819036 0.561226 1
-7.422370 -7.772030 0.562881 1
-7.538897 -7.868024 0.556532 7
-7.554009 -7.840323 0.557140 3
-7.349710 -7.542804 0.572882 0
-7.438621 -7.604198 0.568448 1
-7.469243 -7.594391 0.568015 3
-7.469065 -7.547691 0.569668 2
-7.463475 -7.494966 0.571668 1
-7.555918 -7.558076 0.567066 1
-7.547531 -7.502210 0.569240 1
-7.447508 -7.340534 0.577490 0
-7.456445 -7.306391 0.578446 1
-7.475730 -7.284298 0.578707 1
-7.431555 -7.190157 0.583133 1
-7.418602 -7.132286 0.585475 2
-7.423941 -7.095449 0.586603 2
-7.455807 -7.088367 0.585997 1
-7.479643 -7.072248 0.585911 1
-7.503434 -7.056038 0.585826 0
-7.556300 -7.029208 0.585310 10
-7.576259 -6.966952 0.586873 0
-7.388473 -6.726625 0.600114 0
-7.628664 -6.939464 0.586359 0
-7.674172 -6.945758 0.584892 0
-7.687574 -6.877332 0.586802 1
-7.680050 -6.828871 0.588621 0
-7.717121 -6.826095 0.587675 0
-7.734544 -6.803266 0.587938 0
-7.748048 -6.778562 0.588370 0
-7.785118 -6.775374 0.587426 0
-7.802345 -6.712459 0.588990 1
-7.830772 -6.700537 0.588564 1
-7.862059 -6.691264 0.587966 1
-7.893351 -6.681843 0.587369 0
-7.918867 -6.666755 0.587118 0
-7.950150 -6.657054 0.586522 0
-7.987260 -6.652680 0.585582 0
-8.065294 -6.686310 0.582231 0
-8.140706 -6.716744 0.579054 0
-8.163498 -6.697983 0.578979 0
-8.186234 -6.679132 0.578903 0
-8.226662 -6.676314 0.577796 0
-8.273080 -6.678636 0.576346 0
-8.474379 -6.819354 0.565954 2
-8.521462 -6.820623 0.564508 4
-8.517714 -6.776660 0.565985 1
-8.528760 -6.745970 0.566602 1
-8.530630 -6.707399 0.567735 1
-8.453718 -6.600921 0.573333 0
-8.509548 -6.609601 0.571373 0
-8.595926 -6.643888 0.567699 0
-8.636872 -6.638906 0.566600 0
-8.683002 -6.640017 0.565154 0
-8.729210 -6.640882 0.563710 0
-8.768230 -6.631485 0.562791 0
-8.859731 -6.665048 0.558959 0
-8.901062 -6.658770 0.557866 0
-8.916624 -6.633336 0.558139 0
-8.981876 -6.647990 0.555672 0
-9.001484 -6.623585 0.555780 0
-9.081436 -6.645115 0.552642 0
-9.113585 -6.630262 0.552067 0
-9.196060 -6.654673 0.548755 0
-9.222001 -6.634427 0.548525 0
-9.282687 -6.640926 0.546414 0
-9.314958 -6.625195 0.545842 0
-9.372652 -6.628663 0.543905 0
-9.447386 -6.642539 0.541120 0
-9.469193 -6.620210 0.541058 0
-9.539993 -6.632283 0.538441 0
-9.588470 -6.627305 0.537021 0
-9.666005 -6.643331 0.534067 0
-9.701746 -6.628300 0.533332 0
-9.763385 -6.631818 0.531233 0
-9.795920 -6.614005 0.530670 0
-9.856744 -6.618271 0.528568 0
-9.922899 -6.621738 0.526309 0
-10.099479 -6.620290 0.520546 0
-10.142049 -6.607813 0.519478 0
-10.233194 -6.630293 0.515853 0
-10.273573 -6.613510 0.514965 0
-10.336194 -6.613544 0.512881 0
-10.382285 -6.602133 0.511648 0
-10.458404 -6.610301 0.508887 0
-10.524655 -6.611428 0.506638 0
-10.611114 -6.625242 0.503371 0
-10.650774 -6.608161 0.502483 0
-10.734159 -6.618910 0.499390 0
-10.783028 -6.609227 0.497989 0
-10.859935 -6.614810 0.495239 0
-10.975220 -6.641699 0.490632 0
-11.011765 -6.620884 0.489920 0
-11.116308 -6.641837 0.485820 0
-11.210878 -6.655869 0.482231 0
-11.298825 -6.665163 0.478983 0
-11.315057 -6.630608 0.479293 0
-11.527362 -6.672708 0.470931 4
-11.550486 -6.641445 0.470906 4
-11.532094 -6.585907 0.472910 0
-11.687319 -6.629032 0.466468 0
-11.732080 -6.607419 0.465438 0
-11.862659 -6.636701 0.460179 0
-11.997040 -6.667105 0.454754 0
-20.105778 -11.007137 0.066904 1
-20.143469 -10.863345 0.068967 5
-20.149574 -10.784806 0.070588 3
-20.183561 -10.721395 0.070860 1
-22.471090 -11.850218 -0.036359 2
-20.537533 -10.744599 0.057763 1
-20.695471 -10.744381 0.052148 2
-20.791388 -10.706925 0.049580 4
-20.947783 -10.699805 0.044154 6
-21.093866 -10.694724 0.039041 4
-21.245384 -10.687215 0.033777 6
-21.400660 -10.680547 0.028349 6
-21.552536 -10.671144 0.023092 6
-21.729712 -10.673091 0.016664 6
-21.867582 -10.654737 0.012088 6
-22.039902 -10.656347 0.005821 6
-22.197773 -10.641271 0.000428 6
-22.383036 -10.642366 -0.006318 4
-22.556011 -10.640793 -0.012572 4
-22.728931 -10.629261 -0.018622 2
-22.889469 -10.615232 -0.024181 2
-24.114193 -10.806212 -0.072993 2
-26.952293 -11.345793 -0.188631 10
-25.167068 -10.517166 -0.106127 9
-25.364685 -10.498297 -0.113112 15
-25.466043 -10.439398 -0.115753 36
-18.861788 -7.720164 0.182682 11
-18.702202 -7.525462 0.192336 1
-18.612806 -7.357424 0.198826 48
-18.619226 -7.227311 0.200980 1
-18.538307 -7.065858 0.206959 27
-18.524452 -6.998746 0.208686 25
-18.522654 -6.932950 0.209927 35
-18.517851 -6.863024 0.211345 45
-18.523067 -6.800054 0.212251 28
-18.531822 -6.738425 0.212992 25
-18.536566 -6.675512 0.213898 36
-18.568085 -6.557398 0.214715 1
-18.587324 -6.499532 0.214957 10
-18.572166 -6.430437 0.216692 67
-18.609980 -6.378694 0.216105 77
-18.640017 -6.324325 0.215851 65
-18.635569 -6.259007 0.217087 11
-18.731985 -6.164447 0.214912 1
-18.762211 -6.106570 0.214672 1
-18.866316 -6.009837 0.212184 60
-18.902822 -5.956536 0.211603 16
-19.359741 -5.958713 0.193922 1
-19.523102 -5.939134 0.187898 1
-19.782827 -5.945144 0.177752 18
-20.000397 -5.937813 0.169428 12
-20.209555 -5.930121 0.161427 12
-20.411989 -5.915827 0.153775 12
-20.615395 -5.896931 0.146141 13
-20.821928 -5.880892 0.138335 8
-21.071178 -5.874314 0.128722 3
-21.336117 -5.869945 0.118457 1
-21.650843 -5.879677 0.106045 1
-21.916214 -5.871594 0.095795 1
-22.006882 -5.819761 0.092957 1
-22.276348 -5.809618 0.082555 1
-22.443941 -5.777684 0.076420 1
-27.596048 -6.877862 -0.139909 3
-27.620253 -6.789360 -0.139704 3
-27.558308 -6.681744 -0.135885 3
-27.511545 -6.578034 -0.132725 3
-27.429199 -6.467186 -0.128090 3
-27.400208 -6.372942 -0.125772 3
-27.337484 -6.262806 -0.121944 3
-27.289064 -6.160798 -0.118791 3
-27.185371 -6.048237 -0.113346 3
-27.175329 -5.954914 -0.111837 3
-27.145321 -5.857947 -0.109509 3
-27.138506 -5.765698 -0.108166 3
-27.107775 -5.669190 -0.105840 3
-27.009033 -5.565182 -0.100753 3
-26.922459 -5.459635 -0.096141 3
-26.902384 -5.366430 -0.094311 3
-26.842567 -5.266685 -0.090849 3
-26.754766 -5.162794 -0.086244 3
-26.690208 -5.063442 -0.082622 2
-26.680510 -4.973443 -0.081289 2
-26.583614 -4.869956 -0.076365 2
-26.609921 -4.698242 -0.075662 8
-26.666126 -4.618664 -0.077104 2
-26.532150 -4.511707 -0.070720 2
-26.512533 -4.421660 -0.069067 2
-26.492588 -4.331792 -0.067414 2
-26.500050 -4.245758 -0.066902 2
-26.479460 -4.156157 -0.065250 2
-26.514069 -4.073655 -0.065878 2
-26.548399 -3.990950 -0.066505 2
-26.602297 -3.910374 -0.067944 2
-26.703585 -3.834888 -0.071333 2
-26.692934 -3.750759 -0.070187 2
-26.714251 -3.665827 -0.070323 2
-26.667694 -3.573782 -0.067698 2
-26.581028 -3.478118 -0.063452 2
-26.625277 -3.395756 -0.064564 2
-26.565382 -3.307785 -0.061474 2
-26.509539 -3.216317 -0.058530 2
-26.505493 -3.125446 -0.057679 2
-26.508724 -3.039567 -0.057170 2
-26.515638 -2.954006 -0.056823 2
-26.478415 -2.865117 -0.054695 2
-26.476746 -2.779089 -0.054024 2
-26.502689 -2.695004 -0.054487 2
-26.468517 -2.606880 -0.052523 2
-26.457964 -2.520483 -0.051531 2
-26.443115 -2.433948 -0.050377 2
-26.467871 -2.349704 -0.050840 2
-26.444435 -2.262868 -0.049364 2
-26.464609 -2.178293 -0.049665 2
-26.676147 -2.101995 -0.057715 2
-26.536022 -2.010054 -0.051558 2
-26.683128 -1.929703 -0.057020 2
-26.686167 -1.843539 -0.056672 2
-26.720865 -1.758321 -0.057615 2
-26.691343 -1.671184 -0.055978 2
-26.693480 -1.584993 -0.055631 2
-26.695230 -1.503106 -0.055301 2
-26.205242 -1.409004 -0.035152 2
-26.514246 -1.324104 -0.047187 2
-26.335325 -1.236931 -0.039603 2
-26.283991 -1.151704 -0.037171 2
-26.228352 -1.071059 -0.034597 2
19.338449 1.501103 0.188602 2
19.608955 1.079043 0.178949 2
19.655943 1.007326 0.177240 2
19.527508 0.919524 0.181701 2
19.546085 0.845401 0.180975 2
19.691887 0.781760 0.175758 2
19.562546 0.695252 0.180224 2
19.703917 0.630278 0.175143 2
19.892939 0.567808 0.168372 2
19.754505 0.485265 0.173139 2
19.919174 0.419799 0.167206 2
19.908096 0.342285 0.167459 2
19.757071 0.256670 0.172638 2
20.144350 0.205722 0.158830 2
20.156467 0.128830 0.158235 2
20.140553 0.046652 0.158612 2
20.164099 -0.029748 0.157595 2
19.915621 -0.113659 0.166183 2
19.938614 -0.189409 0.165169 2
19.889431 -0.267780 0.166695 2
19.899786 -0.340125 0.166120 2
19.894024 -0.416794 0.166094 2
19.951933 -0.491877 0.163808 2
19.997673 -0.571443 0.161929 2
19.979046 -0.644734 0.162343 2
20.024179 -0.720861 0.160478 2
20.033110 -0.801508 0.159870 2
20.069704 -0.878188 0.158287 2
20.042072 -0.955310 0.158969 2
20.054146 -1.032259 0.158235 2
20.085953 -1.105518 0.156807 2
20.209427 -1.183525 0.152102 2
20.323637 -1.340235 0.147365 2
20.390388 -1.415462 0.144654 2
20.492855 -1.491889 0.140664 2
20.499052 -1.570598 0.140066 2
18.320976 -1.662827 0.216778 2
18.014978 -1.723091 0.227306 2
17.964458 -1.791102 0.228735 2
17.937672 -1.859777 0.229311 1
15.630467 -1.824259 0.311210 1
15.300147 -1.869716 0.322648 1
15.189443 -1.921429 0.326267 1
15.222103 -1.983436 0.324745 1
15.206656 -2.042836 0.324933 1
15.378512 -2.113942 0.318415 1
15.358827 -2.170509 0.318757 1
15.350708 -2.230818 0.318659 1
15.330420 -2.290207 0.318989 1
15.397614 -2.356205 0.316176 1
15.914820 -2.458850 0.297206 1
15.933580 -2.523380 0.296100 1
15.916267 -2.584928 0.296280 1
15.874858 -2.644203 0.297321 1
16.143673 -2.732507 0.287193 1
15.588554 -2.742076 0.306710 1
15.483312 -2.790326 0.310061 1
9.020741 -2.172873 0.542633 0
8.849725 -2.193285 0.548504 0
8.031012 -2.211150 0.577199 0
7.816491 -2.220441 0.584673 0
7.609963 -2.229248 0.591865 0
7.407460 -2.237140 0.598920 0
7.213160 -2.243079 0.605698 0
6.895928 -2.232581 0.616935 0
6.732917 -2.272524 0.622304 2
6.661254 -2.293117 0.624632 1
6.221939 -2.257878 0.640360 7
6.158302 -2.277437 0.642408 18
6.130167 -2.302171 0.643161 25
6.094067 -2.325451 0.644204 30
6.073680 -2.351096 0.644670 34
6.053213 -2.376615 0.645136 38
6.060485 -2.405344 0.644599 49
6.059533 -2.434163 0.644344 66
6.046674 -2.460879 0.644522 63
6.025862 -2.486085 0.644991 48
6.020691 -2.514092 0.644881 40
6.027205 -2.544318 0.644337 40
6.013982 -2.570810 0.644517 39
6.016359 -2.600322 0.644118 41
6.006871 -2.627508 0.644154 40
6.009039 -2.657048 0.643755 41
6.003563 -2.683599 0.643651 40
6.005525 -2.713181 0.643252 42
5.999561 -2.741115 0.643143 41
5.993501 -2.769029 0.643034 43
6.002951 -2.800393 0.642345 42
6.000582 -2.829200 0.642091 42
5.998109 -2.858011 0.641837 45
6.003319 -2.888646 0.641292 41
5.996743 -2.916572 0.641184 42
6.001729 -2.947282 0.640639 43
6.006939 -2.976653 0.640100 45
6.007815 -3.006516 0.639700 46
6.004705 -3.035433 0.639446 43
6.005363 -3.065341 0.639046 43
6.006271 -3.093882 0.638652 46
6.006344 -3.125246 0.638247 42
6.006667 -3.155241 0.637847 43
6.006878 -3.185264 0.637447 42
6.010832 -3.216371 0.636902 46
6.006964 -3.245391 0.636648 43
6.011079 -3.275181 0.636107 43
6.015085 -3.305022 0.635566 45
6.022013 -3.338824 0.634869 45
6.010029 -3.365689 0.634907 45
6.013700 -3.395647 0.634366 46
6.016840 -3.427054 0.633819 45
6.019858 -3.458513 0.633273 45
6.022322 -3.491421 0.632720 43
6.021275 -3.521790 0.632320 41
6.031548 -3.555792 0.631480 41
6.037873 -3.588680 0.630786 41
6.040718 -3.619009 0.630244 39
6.050128 -3.654679 0.629398 40
6.071236 -3.692816 0.628117 64
6.081276 -3.725913 0.627281 65
6.075563 -3.755388 0.627026 53
22.827478 -9.715684 -0.026609 7
22.618343 -9.743872 -0.020051 7
22.395813 -9.760991 -0.012884 6
22.173466 -9.776664 -0.005711 6
21.956594 -9.788084 0.001337 6
21.727135 -9.798146 0.008816 9
21.527851 -9.817915 0.015123 9
21.513493 -9.901539 0.014236 3
8.919584 -5.188171 0.509362 1
9.013113 -5.312203 0.504209 1
8.968303 -5.338904 0.505242 2
8.875156 -5.346138 0.508193 22
8.752421 -5.340849 0.512327 6
8.689118 -5.358812 0.514103 2
8.507469 -5.327864 0.520604 0
8.462816 -5.352283 0.521646 0
8.023524 -5.211437 0.538496 0
8.130809 -5.337553 0.532768 1
7.976144 -5.312850 0.538253 0
7.946428 -5.341277 0.538713 0
7.861726 -5.345464 0.541393 0
7.806357 -5.362060 0.542891 0
7.692604 -5.352225 0.546759 0
7.619119 -5.359731 0.549001 0
7.531150 -5.360151 0.551837 0
7.446928 -5.361680 0.554528 0
7.322924 -5.344172 0.558851 0
7.278806 -5.363133 0.559914 0
7.159523 -5.344389 0.564101 0
7.220149 -5.412438 0.560864 0
7.111086 -5.399571 0.564602 0
7.077755 -5.422627 0.565225 0
6.868442 -5.359418 0.573127 0
6.534232 -5.232874 0.586234 0
6.838689 -5.419683 0.572901 0
6.608942 -5.342886 0.581705 0
6.593035 -5.374411 0.581587 0
6.347172 -5.284672 0.591150 0
6.264719 -5.278994 0.593868 0
6.054725 -5.206429 0.601947 0
6.111606 -5.270220 0.598870 0
6.410478 -5.466188 0.585502 0
6.393306 -5.532367 0.584687 1
6.117459 -5.420664 0.595610 0
6.088787 -5.439892 0.596106 0
6.031292 -5.444954 0.597791 0
5.966873 -5.445786 0.599776 0
5.902547 -5.446222 0.601762 0
5.862679 -5.460022 0.602705 0
5.808918 -5.465688 0.604246 0
5.658909 -5.413983 0.609977 0
5.643520 -5.440691 0.609877 0
5.645304 -5.477412 0.609031 0
5.612463 -5.493946 0.609680 0
5.424844 -5.418624 0.617060 0
5.237846 -5.342048 0.624446 0
5.171340 -5.336368 0.626597 0
5.208251 -5.391215 0.624264 0
5.192945 -5.416350 0.624171 0
5.177550 -5.441432 0.624078 0
4.917560 -5.314660 0.634775 0
5.163443 -5.502034 0.623145 0
5.215373 -5.569652 0.620054 0
5.142882 -5.557120 0.622515 0
5.069766 -5.545392 0.624974 0
5.079996 -5.588612 0.623678 0
5.037992 -5.594638 0.624793 0
5.019435 -5.615763 0.624857 0
4.973317 -5.620427 0.626119 0
4.973856 -5.655805 0.625279 0
4.964269 -5.684569 0.624889 0
5.053133 -5.781633 0.619986 0
5.036465 -5.806225 0.619896 0
5.037039 -5.840828 0.619059 0
5.066219 -5.897151 0.616863 0
4.931005 -5.839634 0.622190 0
4.940325 -5.882146 0.620898 0
4.851460 -5.855636 0.624122 0
4.902946 -5.928164 0.620872 0
4.869519 -5.940593 0.621538 0
4.697553 -5.851104 0.628688 0
4.965202 -6.081226 0.615339 0
5.076504 -6.199947 0.609221 0
4.865347 -6.082285 0.618179 0
4.931060 -6.168188 0.614170 0
5.021859 -6.273768 0.608953 0
4.878981 -6.204422 0.614750 0
4.701653 -6.107559 0.622212 0
4.859402 -6.263263 0.613826 0
4.694465 -6.176173 0.620684 0
4.872229 -6.351416 0.611232 0
5.081311 -6.551336 0.600269 0
5.049389 -6.566135 0.600785 0
5.058177 -6.613051 0.599335 0
5.023964 -6.623962 0.600008 0
4.712410 -6.411922 0.614144 0
5.141023 -6.797348 0.592270 0
4.906015 -6.649226 0.602620 0
4.727794 -6.545125 0.610251 0
5.020566 -6.824654 0.594876 0
5.031995 -6.873475 0.593278 0
4.968631 -6.862035 0.595312 0
4.987895 -6.919847 0.593255 0
5.149961 -7.099559 0.584072 0
4.989032 -7.004886 0.590958 0
9.173741 -10.720979 0.378411 2
9.130775 -10.752030 0.378728 1
9.060730 -10.759128 0.380411 1
8.990771 -10.765856 0.382096 1
8.900030 -10.753577 0.384845 1
8.821399 -10.751475 0.386989 1
8.731064 -10.738212 0.389742 1
8.294155 -10.540660 0.406678 1
8.285649 -10.731224 0.401590 1
8.298428 -10.880196 0.397076 3
8.266816 -10.918859 0.396798 15
8.230458 -10.956423 0.396666 15
8.392875 -11.184919 0.386031 8
8.339164 -11.199697 0.386977 2
8.357491 -11.289198 0.383956 21
8.296116 -11.299873 0.385202 7
8.263408 -11.411317 0.382817 10
8.245681 -11.462414 0.381784 12
8.206371 -11.495253 0.381812 3
7.549935 -10.890228 0.415715 1
8.451449 -11.897714 0.364014 1
8.388575 -11.908103 0.365262 1
8.325755 -11.918187 0.366511 1
8.323249 -11.992009 0.364401 1
8.154767 -12.115611 0.364831 2
8.102526 -12.136201 0.365473 1
6.606936 -11.110013 0.431799 1
6.250883 -10.970742 0.444271 19
6.212751 -10.991879 0.444485 20
6.164447 -11.000496 0.445314 3
7.096254 -12.303385 0.383756 1
7.034325 -12.306984 0.385030 1
5.638628 -12.471980 0.409250 1
4.810940 -11.308722 0.464189 1
4.750836 -11.295689 0.465809 2
4.638515 -11.202003 0.471130 1
5.575541 -12.723853 0.402129 1
5.506551 -12.706507 0.404050 1
4.118655 -10.619308 0.500684 0
4.106471 -10.674389 0.499073 1
4.220627 -11.008572 0.485666 15
4.183615 -11.026825 0.485752 17
4.911214 -12.292097 0.429338 25
5.343373 -13.091312 0.394214 6
4.952132 -12.538550 0.420231 5
5.288091 -13.283115 0.388727 13
4.883876 -12.700253 0.415988 12
4.861242 -12.750618 0.414680 11
5.044913 -13.161704 0.397299 11
5.000486 -13.182758 0.397377 7
5.092741 -13.443158 0.386791 2
5.134019 -13.617396 0.380067 8
4.980376 -13.447069 0.388649 3
4.711450 -13.061662 0.406670 18
4.665501 -13.078020 0.406907 3
4.546504 -12.961020 0.413023 11
4.542959 -13.054030 0.409860 17
4.483833 -13.045134 0.411183 5
4.399710 -13.090108 0.411046 1
5.091290 -14.623109 0.345899 19
5.065778 -14.690389 0.343967 12
4.570495 -13.947146 0.378201 3
2.983922 -10.910976 0.510856 2
2.938643 -10.906859 0.511734 2
2.895228 -10.906129 0.512458 3
2.853639 -10.908805 0.513027 4
2.810342 -10.907717 0.513752 5
2.765377 -10.902846 0.514633 7
2.723951 -10.904996 0.515204 8
2.687700 -10.917813 0.515311 9
2.646323 -10.919643 0.515884 9
2.603347 -10.913254 0.516770 10
2.560411 -10.911114 0.517499 13
2.519208 -10.912431 0.518073 13
2.479699 -10.917222 0.518494 14
2.438577 -10.918211 0.519070 15
2.394257 -10.911729 0.519957 14
2.356594 -10.915272 0.520381 14
2.314160 -10.907684 0.521271 14
2.269960 -10.905085 0.522003 15
2.230552 -10.913319 0.522269 14
2.186634 -10.905943 0.523160 13
2.147637 -10.905030 0.523742 16
2.114635 -10.923140 0.523547 21
2.076994 -10.930050 0.523818 21
2.036561 -10.925009 0.524558 22
1.994479 -10.920506 0.525296 21
1.958654 -10.926275 0.525571 21
1.914965 -10.922133 0.526308 21
1.876001 -10.924573 0.526738 26
1.840241 -10.929918 0.527014 27
1.795305 -10.921535 0.527909 26
1.753315 -10.920429 0.528494 28
1.717649 -10.925338 0.528772 28
1.679208 -10.922626 0.529361 30
1.641856 -10.927905 0.529639 33
1.603509 -10.924904 0.530229 31
1.564470 -10.930523 0.530506 27
1.525830 -10.931608 0.530941 27
1.492937 -10.943247 0.530912 28
1.453911 -10.948433 0.531190 33
1.414027 -10.945311 0.531782 32
1.375940 -10.941442 0.532376 30
1.338274 -10.949961 0.532501 26
1.298544 -10.946382 0.533095 27
1.261860 -10.945875 0.533535 21
1.221751 -10.946359 0.533973 18
1.183414 -10.946127 0.534412 20
1.145644 -10.941389 0.535010 24
1.112182 -10.956124 0.534828 28
1.076846 -10.958754 0.535115 25
1.032216 -10.943208 0.536178 24
0.995244 -10.946079 0.536465 22
0.959431 -10.952644 0.536597 21
0.925864 -10.966749 0.536419 19
0.886662 -10.961549 0.537019 17
0.848633 -10.960038 0.537463 16
0.809562 -10.954537 0.538064 15
0.771639 -10.952735 0.538510 14
0.738681 -10.961872 0.538491 12
0.702907 -10.967515 0.538626 12
0.665058 -10.965307 0.539074 14
0.631037 -10.970227 0.539212 17
0.594994 -10.967295 0.539661 19
0.560251 -10.976294 0.539643 21
0.524494 -10.981296 0.539781 28
0.486797 -10.978415 0.540231 29
0.450105 -10.979272 0.540526 28
0.413438 -10.979996 0.540822 24
0.377723 -10.984472 0.540962 23
0.339265 -10.977148 0.541570 24
0.302687 -10.977465 0.541867 21
0.266136 -10.977648 0.542165 21
0.227865 -10.969897 0.542774 17
0.193974 -10.981517 0.542606 17
0.157491 -10.981302 0.542905 16
0.121036 -10.980955 0.543205 17
0.086349 -10.980110 0.543506 16
0.051564 -10.987333 0.543495 16
0.015961 -10.990517 0.543640 15
-0.019638 -10.993573 0.543786 14
-0.055999 -10.992579 0.544088 15
-0.090827 -10.999305 0.544080 13
-0.127153 -10.998053 0.544383 13
-0.162000 -11.004530 0.544375 13
-0.198288 -11.003018 0.544679 13
-0.233848 -11.005312 0.544828 12
-0.269402 -11.007479 0.544978 11
-0.304280 -11.013459 0.544972 11
-0.342234 -11.011722 0.545278 10
-0.376664 -11.009274 0.545585 9
-0.409175 -11.018551 0.545425 9
-0.444706 -11.020094 0.545577 8
-0.481429 -11.013608 0.546042 8
-0.515741 -11.022802 0.545883 6
-0.551244 -11.023967 0.546037 6
-0.588415 -11.013133 0.546658 5
-0.622766 -11.021960 0.546501 5
-0.658756 -11.018785 0.546812 5
-0.694189 -11.019443 0.546967 4
-0.728603 -11.027905 0.546812 4
-0.765020 -11.020383 0.547280 4
-0.799464 -11.028602 0.547125 3
-0.834875 -11.028762 0.547283 4
-0.868526 -11.028600 0.547440 3
-0.903475 -11.032489 0.547443 2
-0.941447 -11.024517 0.547914 2
-0.976381 -11.028152 0.547917 2
-1.008793 -11.039447 0.547610 2
-1.044537 -11.034888 0.547926 2
-1.079507 -11.038163 0.547931 1
-1.114488 -11.041316 0.547937 1
-1.149817 -11.040364 0.548099 1
-1.185129 -11.039288 0.548261 1
-1.219803 -11.046057 0.548113 1
-1.254810 -11.048719 0.548120 1
-1.290392 -11.043286 0.548440 1
-1.325389 -11.045703 0.548449 1
-1.358899 -11.043897 0.548613 1
-1.400725 -11.542952 0.529321 14
-1.497587 -11.043802 0.548965 1
-1.531282 -11.073444 0.547887 0
-1.566727 -11.067033 0.548210 0
-1.603717 -11.064560 0.548379 0
-1.638787 -11.065883 0.548392 0
-1.673602 -11.075073 0.548094 0
-1.708823 -11.072157 0.548264 0
-1.741857 -11.085054 0.547811 0
-1.776643 -11.101879 0.547203 0
-1.813971 -11.082649 0.547998 3
-1.849402 -11.063255 0.548792 9
-1.884282 -11.079707 0.548186 6
-1.917745 -11.068046 0.548669 8
-1.950857 -11.112230 0.546973 10
-2.024770 -11.080345 0.548257 0
-2.059868 -11.076201 0.548432 0
-2.093405 -11.095932 0.547672 0
-2.128633 -11.099543 0.547536 0
-2.161676 -11.075082 0.548489 0
-2.198534 -11.074423 0.548511 0
-2.233449 -11.065678 0.548844 0
-2.268839 -11.076789 0.548399 0
-2.303827 -11.071795 0.548577 0
-2.338918 -11.070673 0.548600 0
-2.375045 -11.097389 0.547534 0
-2.408142 -11.088103 0.547868 0
-2.442937 -11.078632 0.548204 0
-2.478240 -11.081017 0.548073 0
-2.513362 -11.079288 0.548098 0
-2.549566 -11.097390 0.547346 0
-2.583355 -11.071470 0.548306 0
-2.619425 -11.085331 0.547711 0
-2.654820 -11.087096 0.547583 0
-2.691602 -11.108676 0.546678 0
-2.724808 -11.078295 0.547794 0
-2.763534 -11.123531 0.545958 0
-2.797227 -11.100883 0.546764 0
-2.834390 -11.121940 0.545861 0
-2.869309 -11.114984 0.546047 0
-2.904904 -11.115870 0.545923 0
-2.938754 -11.116794 0.545797 0
-2.973997 -11.113457 0.545829 0
-3.010821 -11.125904 0.545240 0
-3.047331 -11.134242 0.544807 0
-3.075772 -11.083022 0.546703 0
-3.113532 -11.086958 0.546427 0
-3.150030 -11.094924 0.545996 0
-3.185664 -11.094819 0.545875 0
-3.219867 -11.082684 0.546221 0
-3.253729 -11.082550 0.546100 0
-3.292916 -11.109830 0.544894 0
-3.327611 -11.101293 0.545086 0
-3.362263 -11.092637 0.545278 0
-3.396870 -11.083862 0.545471 0
-3.432491 -11.095004 0.544887 0
-3.468233 -11.093899 0.544770 0
-3.504574 -11.096619 0.544499 0
-3.539744 -11.091307 0.544539 0
-3.576749 -11.097718 0.544114 1
-3.612554 -11.096100 0.543999 1
-3.647722 -11.090411 0.544041 1
-3.684187 -11.092484 0.543772 1
-3.719601 -11.098663 0.543347 2
-3.754777 -11.092601 0.543390 1
-3.793790 -11.097907 0.542970 2
-3.833962 -11.119114 0.541929 2
-3.871392 -11.124442 0.541508 14
-3.901466 -11.090356 0.542638 8
-3.937367 -11.087583 0.542529 7
-3.969979 -11.077181 0.542727 8
-4.004296 -11.066324 0.542928 3
-4.046684 -11.086329 0.541893 1
-4.084245 -11.090867 0.541475 1
-4.117744 -11.075708 0.541833 2
-4.156187 -11.083889 0.541262 2
-4.193805 -11.096212 0.540534 2
-4.230697 -11.096298 0.540274 2
-4.266739 -11.092351 0.540169 2
-4.301890 -11.084378 0.540219 2
-4.339727 -11.087962 0.539806 2
-4.375859 -11.091820 0.539391 3
-4.411007 -11.083466 0.539443 2
-4.448960 -11.086640 0.539031 4
-4.485845 -11.077598 0.539087 5
-4.524833 -11.084367 0.538521 6
-4.559185 -11.079814 0.538418 7
-4.595530 -11.082884 0.538006 6
-4.635437 -11.084904 0.537600 6
-4.669534 -11.071781 0.537810 6
-4.706689 -11.070121 0.537557 6
-4.742813 -11.064468 0.537459 6
-4.784261 -11.077947 0.536589 7
-4.823678 -11.083561 0.536029 7
-4.859224 -11.081832 0.535775 7
-4.897652 -11.083314 0.535371 6
-4.935006 -11.080812 0.535121 7
-4.975267 -11.081488 0.534721 7
-5.013816 -11.082528 0.534318 7
-5.052409 -11.083423 0.533916 7
-5.088697 -11.076528 0.533823 7
-5.126778 -11.081499 0.533264 7
-5.163085 -11.074337 0.533172 9
-5.205444 -11.086086 0.532310 13
-5.240568 -11.074837 0.532373 11
-5.276891 -11.067265 0.532283 12
-5.315204 -11.071527 0.531728 13
-5.354071 -11.071269 0.531330 12
-5.395534 -11.078436 0.530625 13
-5.433675 -11.069707 0.530541 12
-5.473961 -11.072772 0.529991 13
-5.512992 -11.071905 0.529596 14
-5.548974 -11.067739 0.529353 14
-5.589408 -11.070347 0.528805 16
-5.627189 -11.065276 0.528566 17
-5.666349 -11.063818 0.528173 17
-5.705543 -11.062210 0.527782 17
-5.747563 -11.067940 0.527083 17
-5.785439 -11.062278 0.526846 17
-5.823322 -11.056475 0.526610 18
-5.864081 -11.057989 0.526067 19
-5.903146 -11.060023 0.525521 16
-5.944019 -11.061219 0.524979 16
-5.985226 -11.057842 0.524595 17
-6.021734 -11.047581 0.524516 17
-6.067223 -11.059414 0.523515 21
-6.109577 -11.068069 0.522665 21
-6.148982 -11.069166 0.522123 20
-6.188654 -11.065690 0.521739 21
-6.228555 -11.057639 0.521513 20
-6.271207 -11.065632 0.520665 21
-6.309230 -11.062433 0.520279 22
-6.350620 -11.062001 0.519744 24
-6.392059 -11.061403 0.519210 23
-6.432069 -11.052551 0.518987 24
-6.475208 -11.055273 0.518301 27
-6.520060 -11.061460 0.517462 26
-6.560050 -11.056539 0.517084 20
-6.601639 -11.059531 0.516396 23
-6.645126 -11.057108 0.515870 24
-6.688657 -11.054502 0.515345 24
-6.733840 -11.064208 0.514352 24
-6.775708 -11.066505 0.513667 23
-6.817667 -11.064191 0.513140 23
-6.859681 -11.057260 0.512771 23
-6.901711 -11.054602 0.512245 23
-6.943797 -11.056221 0.511562 24
-6.987699 -11.056801 0.510885 23
-7.035248 -11.064343 0.509903 21
-7.075696 -11.057407 0.509533 21
-7.121604 -11.060993 0.508705 21
-7.163943 -11.057273 0.508183 20
-7.211752 -11.059565 0.507362 17
-7.256041 -11.059017 0.506689 16
-7.298523 -11.054749 0.506170 16
-7.339288 -11.051237 0.505647 15
-7.385757 -11.058132 0.504667 15
-7.428226 -11.048872 0.504307 15
-7.478526 -11.057932 0.503180 13
-7.521245 -11.052755 0.502665 8
-7.565746 -11.046432 0.502155 7
-7.616334 -11.054848 0.501031 10
-7.661368 -11.057057 0.500208 17
-7.706478 -11.059079 0.499386 13
-7.747217 -11.045033 0.499185 21
-7.796182 -11.049136 0.498217 20
-7.843234 -11.049565 0.497402 22
-7.894679 -11.061157 0.496126 22
-7.939877 -11.057721 0.495466 16
-7.976933 -11.040359 0.495415 18
-8.024237 -11.039989 0.494604 19
-8.071611 -11.039412 0.493793 19
-8.123222 -11.045447 0.492679 18
-8.170412 -11.039956 0.492028 18
-8.215896 -11.035337 0.491372 19
-8.268150 -11.045174 0.490104 17
-8.320160 -11.050287 0.488994 18
-8.370138 -11.051786 0.488037 17
-8.418050 -11.049691 0.487233 17
-8.462108 -11.045152 0.486576 18
-8.514487 -11.049351 0.485470 18
-8.562157 -11.042129 0.484826 19
-8.612515 -11.042517 0.483873 19
-8.667382 -11.049333 0.482618 16
-8.713479 -11.042604 0.481972 18
-8.768555 -11.048928 0.480719 14
-8.819260 -11.048379 0.479770 13
-8.868294 -11.048796 0.478817 12
-8.918635 -11.043294 0.478028 11
-8.974126 -11.048617 0.476779 11
-9.021108 -11.045080 0.475980 14
-9.074500 -11.046640 0.474885 12
-9.132621 -11.054465 0.473488 9
-9.179246 -11.045756 0.472850 9
-9.228236 -11.040087 0.472060 9
-9.279623 -11.037430 0.471121 7
-9.333441 -11.037762 0.470031 9
-9.392094 -11.044273 0.468639 10
-9.446115 -11.044080 0.467552 10
-9.495435 -11.037230 0.466767 9
-9.549609 -11.036543 0.465682 4
-9.603869 -11.035599 0.464597 7
-9.658216 -11.034397 0.463514 9
-9.705328 -11.023438 0.462884 4
-7.395041 -7.928830 0.608950 0
-7.362293 -7.837695 0.612509 0
-7.386063 -7.818936 0.612597 0
-7.162962 -7.490772 0.627618 0
-7.370809 -7.703277 0.616543 0
-7.404168 -7.696917 0.616028 0
-7.311270 -7.535496 0.623049 0
-7.313694 -7.492203 0.624341 0
-7.331164 -7.467455 0.624729 0
-7.335737 -7.427306 0.625869 0
-7.322114 -7.365766 0.628064 0
-7.339078 -7.341043 0.628451 0
-7.350755 -7.310190 0.629139 0
-7.383085 -7.303617 0.628624 0
-7.363213 -7.236365 0.631117 0
-7.366532 -7.196486 0.632256 0
-7.386988 -7.178656 0.632339 0
-7.375175 -7.119885 0.634383 0
-7.397500 -7.100143 0.634474 0
-7.436281 -7.103075 0.633505 0
-7.449464 -7.075150 0.634043 0
-7.492046 -7.079785 0.632930 0
-7.486223 -7.031054 0.634519 0
-7.516161 -6.981837 0.635290 1
-7.556016 -6.983018 0.634329 6
-7.574066 -6.960673 0.634568 1
-7.597518 -6.944086 0.634507 1
-7.651232 -6.959261 0.632799 15
-7.671933 -6.939499 0.632890 60
-7.675913 -6.902406 0.633878 62
-7.696416 -6.882558 0.633968 70
-7.674916 -6.819784 0.636303 15
-7.743827 -6.768524 0.636126 0
-7.814896 -6.799159 0.633528 0
-7.863649 -6.726800 0.634402 1
-7.877789 -6.700743 0.634793 0
-7.903355 -6.685727 0.634588 0
-7.943355 -6.684391 0.633637 0
-7.960192 -6.660863 0.633880 0
-8.011890 -6.670137 0.632334 0
-8.049114 -6.665482 0.631535 0
-8.033607 -6.611728 0.633417 0
-8.117801 -6.650183 0.630236 0
-8.457870 -6.882459 0.615243 2
-8.466423 -6.849176 0.615939 3
-8.474823 -6.815906 0.616635 3
-8.486056 -6.785303 0.617183 3
-8.509143 -6.765273 0.617136 2
-8.431508 -6.617350 0.623133 0
-8.487304 -6.626230 0.621452 0
-8.534140 -6.626979 0.620217 0
-8.559761 -6.609323 0.620022 0
-8.615855 -6.617373 0.618344 0
-8.699630 -6.648240 0.615332 0
-8.737657 -6.640183 0.614547 0
-8.778788 -6.634479 0.613614 0
-8.807611 -6.618400 0.613275 0
-8.868273 -6.588361 0.612450 0
-8.959290 -6.622003 0.609152 0
-9.010031 -6.622633 0.607780 0
-9.057731 -6.620492 0.606557 0
-9.111780 -6.623034 0.605040 0
-9.143893 -6.608027 0.604558 0
-9.226501 -6.632092 0.601713 0
-9.261880 -6.619037 0.601086 0
-9.313126 -6.617952 0.599721 0
-9.326261 -6.587554 0.600129 0
-9.396711 -6.600466 0.597881 0
-9.460941 -6.608162 0.595929 0
-9.514716 -6.609633 0.594416 0
-9.550264 -6.595241 0.593794 0
-9.592252 -6.585395 0.592878 0
-9.685976 -6.612955 0.589606 0
-9.724898 -6.600137 0.588840 0
-9.796309 -6.610408 0.586603 0
-9.822294 -6.587797 0.586428 0
-9.910244 -6.608897 0.583458 0
-9.919892 -6.574367 0.584020 0
-10.139167 -6.601909 0.577184 0
-10.185042 -6.591458 0.576133 0
-10.230944 -6.580756 0.575083 0
-10.313390 -6.594289 0.572420 0
-10.359425 -6.582953 0.571373 0
-10.435500 -6.591190 0.569006 0
-10.484989 -6.581433 0.567815 0
-10.544565 -6.577937 0.566185 0
-10.631087 -6.591435 0.563384 0
-10.684148 -6.582835 0.562051 0
-10.737252 -6.573933 0.560718 0
-10.830971 -6.590318 0.557630 0
-10.850367 -6.559459 0.557764 0
-11.025858 -6.625544 0.551169 0
-11.051208 -6.599779 0.551007 0
-11.103763 -6.590598 0.549675 0
-11.209556 -6.609041 0.546167 0
-11.247108 -6.585556 0.545582 0
-11.407199 -6.637268 0.539735 0
-11.549577 -6.679409 0.534615 4
-11.485603 -6.599074 0.538254 1
-11.470500 -6.545785 0.539856 0
-11.874751 -6.733242 0.523820 1
-11.662355 -6.565426 0.533736 0
-11.768505 -6.581106 0.530238 0
-11.937535 -6.631491 0.524122 1
-19.489416 -10.735450 0.211463 6
-19.635269 -10.736069 0.207070 4
-19.797068 -10.740349 0.202112 4
-19.990881 -10.768885 0.195677 6
-20.081150 -10.736301 0.193622 4
-20.185522 -10.710727 0.190987 2
-22.219654 -11.704220 0.109051 2
-22.767334 -11.629937 0.093861 2
-22.898808 -11.422578 0.093925 2
-22.136148 -10.781193 0.129883 12
-24.172230 -10.546925 0.070606 3
-27.361267 -11.812466 -0.052581 11
-27.369329 -11.711456 -0.051054 7
-24.713499 -10.498971 0.054330 3
-24.911057 -10.492329 0.048178 6
-25.068125 -10.467814 0.043612 3
-25.275085 -10.457836 0.037199 3
-25.474836 -10.443549 0.031079 3
-18.784878 -7.686655 0.291318 7
-18.764563 -7.607549 0.293300 17
-18.698050 -7.514216 0.296990 21
-18.668398 -7.435788 0.299244 47
-18.637295 -7.360550 0.301484 65
-18.609617 -7.287001 0.303580 68
-18.601440 -7.217801 0.304970 69
-18.551735 -7.133499 0.307935 102
-18.550455 -7.067456 0.309037 110
-18.526360 -6.993343 0.310997 114
-18.524534 -6.927546 0.312098 115
-18.529989 -6.864500 0.312912 116
-18.523884 -6.797530 0.314155 116
-18.525068 -6.733286 0.315111 115
-18.526993 -6.666221 0.316079 115
-18.547585 -6.605610 0.316334 110
-18.543274 -6.543112 0.317420 97
-18.547277 -6.480322 0.318232 87
-18.570045 -6.423769 0.318332 92
-18.585011 -6.364672 0.318716 82
-18.611193 -6.309174 0.318674 68
-18.633377 -6.252359 0.318774 48
-18.650644 -6.197173 0.319004 24
-18.684803 -6.140804 0.318690 8
-18.729364 -6.090650 0.317938 6
-18.738436 -6.032854 0.318453 52
-18.814209 -5.988464 0.316577 63
-18.900536 -5.949893 0.314265 58
-19.253714 -5.922474 0.302973 3
-19.482430 -5.921573 0.295418 3
-19.649700 -5.902083 0.290140 3
-19.840185 -5.887798 0.284015 21
-20.038506 -5.874320 0.277612 15
-20.252401 -5.863617 0.270647 14
-20.469463 -5.855715 0.263533 13
-20.691383 -5.844164 0.256297 13
-20.933659 -5.832745 0.248373 11
-21.178299 -5.827279 0.240287 7
-21.442511 -5.825039 0.231500 12
-21.708593 -5.814219 0.222748 8
-21.865999 -5.775455 0.217961 4
-22.193760 -5.779446 0.206948 2
-33.418297 -8.090020 -0.196541 5
-33.381561 -7.961009 -0.193809 5
-33.425148 -7.855676 -0.194061 5
-32.299553 -7.500147 -0.152181 4
-32.615402 -7.456024 -0.162308 4
-32.806038 -7.383896 -0.167922 5
-32.956264 -7.307966 -0.172145 5
-32.491924 -7.102898 -0.154255 4
-32.780804 -7.043304 -0.163357 4
-32.424782 -6.863442 -0.149420 4
-32.115025 -6.695023 -0.137180 4
-32.020668 -6.568799 -0.132674 4
-31.961199 -6.449720 -0.129435 4
-31.940626 -6.338115 -0.127602 4
-31.832994 -6.211641 -0.122683 4
-31.819424 -6.102103 -0.121134 4
-31.777851 -5.988118 -0.118604 4
-31.629324 -5.857094 -0.112293 4
-31.574986 -5.742296 -0.109348 4
-31.859886 -5.680958 -0.118445 4
-31.519535 -5.527608 -0.105444 4
-31.512150 -5.415852 -0.104161 4
-31.380957 -5.291532 -0.098566 4
-31.510485 -5.205228 -0.102200 4
-31.176458 -5.054014 -0.089483 4
-30.928898 -4.916924 -0.079849 4
-30.942339 -4.815923 -0.079436 4
-30.745260 -4.688056 -0.071628 4
-30.702362 -4.580806 -0.069265 4
-30.706110 -4.383034 -0.067771 12
-30.844793 -4.297254 -0.071821 4
-30.538734 -4.156575 -0.060249 4
-30.601200 -4.062437 -0.061653 4
-30.575871 -3.958904 -0.059995 4
-30.581991 -3.858745 -0.059450 4
-30.611158 -3.765860 -0.059760 4
-30.632524 -3.667078 -0.059771 4
-30.653549 -3.568181 -0.059781 4
-30.733978 -3.474272 -0.061875 4
-30.662289 -3.372436 -0.058712 4
-30.933767 -3.287989 -0.067444 4
-28.342365 -2.992369 0.023404 3
-28.381002 -2.902684 0.022668 3
-28.459219 -2.815460 0.020546 3
-30.779160 -2.871990 -0.059434 4
-30.505842 -2.759503 -0.049353 4
-30.428230 -2.650208 -0.046024 4
-30.437752 -2.551183 -0.045761 4
-30.438946 -2.451709 -0.045221 4
-30.443783 -2.352432 -0.044820 4
-30.436293 -2.252620 -0.044005 4
-30.420464 -2.152558 -0.042913 4
-30.388304 -2.052041 -0.041270 4
-30.387587 -1.957767 -0.040752 4
-30.358734 -1.857728 -0.039249 4
-30.329529 -1.757902 -0.037747 4
