# .PCD v.7 - Point Cloud Data file format
VERSION .7
FIELDS x y z intensity
SIZE 4 4 4 1
TYPE F F F U
COUNT 1 1 1 1
WIDTH 1545
HEIGHT 1
VIEWPOINT 0 0 0 1 0 0 0
POINTS 1545
DATA ascii
-20.734167 8.319581 0.691281 92
-20.720930 8.386196 0.691602 100
-20.712282 8.462308 0.691867 100
-20.712065 8.538171 0.692000 100
-20.718958 8.617137 0.692028 100
-24.527994 10.814958 0.638546 3
-24.376400 10.842173 0.640818 3
-15.580617 7.027484 0.766118 1
-15.416031 7.013629 0.768526 1
-15.188069 7.022776 0.771883 1
-15.015388 6.996396 0.774388 1
-14.937356 7.012714 0.775543 1
-14.852575 7.033636 0.776798 1
-14.730171 7.030713 0.778580 1
-14.638932 7.036367 0.779911 1
-14.476142 7.015135 0.782260 1
-14.386683 7.025585 0.783563 1
-14.268570 7.021404 0.785269 1
-14.179323 7.030653 0.786563 1
-14.051843 7.017607 0.788394 1
-13.898520 6.993293 0.790591 1
-13.838261 7.015025 0.791463 1
-13.661535 6.974249 0.793984 1
-11.074068 7.976542 0.894757 1
-11.068624 8.022979 0.894852 1
-11.055416 8.066140 0.895003 1
-11.052702 8.115114 0.895076 1
-11.120094 8.217076 0.894644 1
-11.135525 8.281356 0.894585 1
-11.156863 8.350830 0.894482 1
-11.137343 8.387908 0.894670 1
-11.100341 8.408216 0.894977 1
-11.076189 8.444198 0.895196 1
-11.167448 8.572598 0.894592 1
-11.174793 8.632780 0.894582 1
-59.719231 49.236977 0.550212 33
-61.543118 51.114605 0.537528 31
-12.838491 10.203361 0.882909 1
-12.717224 10.295832 0.883892 28
-58.658169 51.085838 0.559425 33
-58.291725 51.113266 0.562183 33
-57.850906 51.036495 0.565438 34
-57.411690 51.010590 0.568694 34
-56.602947 50.610672 0.574530 35
-55.024368 49.516209 0.585788 36
-56.243465 50.980083 0.577307 35
-55.834023 50.951664 0.580299 35
-38.081070 34.735016 0.705488 14
-38.006859 34.890232 0.706065 14
-37.897030 35.024097 0.706890 14
-38.007385 35.621227 0.706195 15
-37.603596 35.933929 0.709105 15
-37.048035 35.654476 0.713026 14
-36.586548 35.438210 0.716276 14
-36.639294 35.708126 0.715900 14
-36.064087 35.854904 0.719894 14
-10.843601 10.199524 0.897437 10
-10.809790 10.232020 0.897662 12
-10.732949 10.277503 0.898174 32
-10.726739 10.332795 0.898201 12
-36.018158 37.797691 0.719756 15
-36.934128 39.053268 0.713201 20
-36.997871 39.390816 0.712648 21
-36.545418 39.175068 0.715727 19
-46.657211 50.669384 0.644164 40
-47.581505 52.054047 0.637467 39
-35.975220 39.331680 0.719389 18
-45.733410 50.661842 0.650191 40
-51.868462 58.023685 0.606553 33
-44.383392 49.812820 0.659365 41
-44.805882 50.648067 0.656163 41
-43.383121 49.339279 0.666040 42
-51.720490 59.482685 0.606606 32
-43.852512 50.583702 0.662247 41
-51.017925 59.479263 0.611028 33
-50.667568 59.474949 0.613219 33
-42.155815 49.598602 0.673560 43
-49.986523 59.482765 0.617433 33
-41.770077 50.506664 0.675182 42
-9.084566 9.976266 0.908916 12
-9.068002 10.019938 0.908975 24
-9.137427 10.173910 0.908414 8
-8.891998 9.923967 0.910115 11
-8.790814 9.986507 0.910644 24
-8.762984 10.077622 0.910705 20
-8.778941 10.165523 0.910515 22
-8.697005 10.121674 0.911033 23
-8.648547 10.122544 0.911307 24
-8.527248 10.022895 0.912111 29
-8.519089 10.078197 0.912089 12
-8.424430 10.013243 0.912697 18
-8.418396 10.071609 0.912657 7
-8.815104 10.697444 0.909660 3
-8.208754 9.974547 0.913933 17
-8.213715 10.048972 0.913804 10
-8.127795 9.991553 0.914346 14
-8.112084 10.036180 0.914367 4
-8.250786 10.376896 0.913140 19
-8.231275 10.418780 0.913180 34
-5.818828 7.063797 0.930767 8
-5.746635 7.043111 0.931161 239
-5.721266 7.049495 0.931276 158
-5.659073 7.040828 0.931594 3
-5.621336 7.026342 0.931802 4
-5.594057 7.028804 0.931929 4
-5.562704 7.024280 0.932086 4
-5.535504 7.026493 0.932211 4
-5.506307 7.025142 0.932350 4
-5.477163 7.023661 0.932489 5
-5.448072 7.022050 0.932626 5
-5.417046 7.016840 0.932778 6
-5.388076 7.014964 0.932914 6
-5.361127 7.016442 0.933033 6
-5.328349 7.007335 0.933197 7
-5.309268 7.022553 0.933252 8
-5.274685 7.009679 0.933430 6
-5.251922 7.013043 0.933523 6
-5.222204 7.011000 0.933656 6
-5.191702 7.004732 0.933801 6
-5.167977 7.008355 0.933894 7
-5.136556 7.002388 0.934040 8
-5.111032 7.002260 0.934147 8
-5.085289 7.006669 0.934245 8
-5.062438 7.013985 0.934324 8
-5.035935 7.014090 0.934432 8
-5.006907 7.006414 0.934566 9
-4.977661 7.003241 0.934691 10
-4.926764 7.006223 0.934886 13
-4.900820 7.001141 0.934999 10
-4.868999 6.994390 0.935138 13
-4.848389 6.999893 0.935204 14
-4.819466 6.995993 0.935323 14
-4.796120 6.998207 0.935406 14
-4.772388 7.004938 0.935479 14
-4.741286 6.992941 0.935622 14
-4.718648 6.998978 0.935690 14
-4.695394 7.000811 0.935770 15
-4.672158 7.002556 0.935849 14
-4.651155 7.011986 0.935901 15
-4.622024 7.003055 0.936024 16
-4.596756 7.005444 0.936106 17
-4.572558 7.007273 0.936185 18
-4.548379 7.009006 0.936263 20
-4.521085 7.003284 0.936369 23
-4.495417 7.001130 0.936459 22
-4.469301 6.994741 0.936561 24
-4.443739 6.992375 0.936650 26
-4.421724 7.001438 0.936698 25
-4.395762 6.994741 0.936797 26
-4.371364 6.991651 0.936882 26
-4.343442 6.985580 0.936984 27
-4.322083 6.989728 0.937039 26
-4.299675 6.994210 0.937095 24
-4.277264 6.998608 0.937150 24
-4.249146 6.987974 0.937261 21
-4.228196 6.995928 0.937301 22
-4.205819 7.000062 0.937354 20
-4.183441 7.004112 0.937406 18
-4.159688 7.004323 0.937472 19
-4.134599 7.000680 0.937551 17
-4.113606 7.008234 0.937588 17
-4.089633 7.004031 0.937664 18
-4.069679 7.011059 0.937697 14
-4.046289 7.014971 0.937747 13
-4.018768 7.003295 0.937851 15
-3.993920 6.999078 0.937925 16
-3.971664 7.002347 0.937971 15
-3.949410 7.005535 0.938017 16
-3.927158 7.008640 0.938062 16
-3.904550 7.003373 0.938131 17
-3.876583 6.995552 0.938219 15
-3.855299 6.993914 0.938272 15
-3.832233 7.001147 0.938303 15
-3.812417 7.011468 0.938317 16
-3.785574 6.998761 0.938413 17
-3.762291 6.997434 0.938467 16
-3.740175 6.999854 0.938506 15
-3.720163 7.001577 0.938543 15
-3.699229 7.011831 0.938555 16
-3.674863 7.002179 0.938632 14
-3.653900 7.012274 0.938643 14
-3.630731 7.010441 0.938692 13
-3.610752 7.011802 0.938726 13
-3.587628 7.013950 0.938762 13
-3.567644 7.019314 0.938781 13
-3.543504 7.017428 0.938829 14
-3.522456 7.022919 0.938849 14
-3.500399 7.024460 0.938881 14
-3.478428 7.021777 0.938925 14
-3.451501 7.007889 0.939011 15
-3.433436 7.020573 0.939000 14
-3.410506 7.017901 0.939043 14
-3.391433 7.026570 0.939044 13
-3.369300 7.031775 0.939060 13
-3.344623 7.021063 0.939128 15
-3.323564 7.025860 0.939142 14
-3.302673 7.026443 0.939168 13
-3.280541 7.031324 0.939181 13
-3.259660 7.031759 0.939205 16
-3.231943 7.004951 0.939324 8
-3.207685 6.993689 0.939388 17
-3.190723 7.017603 0.939331 38
-3.165744 7.002253 0.939407 47
-3.144751 7.006424 0.939416 55
-3.124035 7.006393 0.939437 21
-3.106759 7.030068 0.939377 11
-3.085669 7.034034 0.939384 11
-3.041335 7.029933 0.939436 11
-3.018533 7.017726 0.939494 11
-2.997790 7.029450 0.939472 11
-2.977093 7.028913 0.939489 10
-2.956659 7.036374 0.939478 10
-2.934912 7.035867 0.939494 10
-2.911934 7.027379 0.939536 10
-2.891627 7.042687 0.939497 10
-2.871416 7.037673 0.939525 10
-2.850302 7.040818 0.939525 10
-2.828608 7.039929 0.939537 11
-2.807486 7.042924 0.939536 10
-2.784190 7.029993 0.939588 11
-2.764157 7.040763 0.939559 11
-2.743545 7.047500 0.939542 11
-2.721898 7.046229 0.939552 10
-2.700269 7.044881 0.939561 9
-2.678073 7.047554 0.939556 10
-2.658440 7.053875 0.939537 8
-2.638329 7.056158 0.939531 8
-2.617151 7.058488 0.939524 8
-2.594490 7.056878 0.939530 8
-2.574370 7.058948 0.939523 8
-2.552511 7.065140 0.939500 8
-2.532052 7.075136 0.939464 7
-2.511169 7.081079 0.939441 7
-2.490621 7.078888 0.939444 6
-2.469365 7.080703 0.939433 6
-2.447677 7.090504 0.939394 6
-2.427751 7.096076 0.939369 5
-2.406727 7.101660 0.939342 5
-2.386180 7.099118 0.939343 4
-2.365383 7.108551 0.939302 4
-2.344776 7.121904 0.939246 2
-2.324317 7.139182 0.939177 1
-2.304410 7.168373 0.939066 1
-2.283468 7.181520 0.939008 1
-2.263024 7.206583 0.938910 1
-2.242589 7.235574 0.938797 1
-2.223457 7.300467 0.938560 1
-2.204181 7.373294 0.938296 1
-2.184262 7.442066 0.938044 2
-2.166393 7.518701 0.937766 2
-2.146302 7.615343 0.937417 2
-2.125047 7.691929 0.937135 1
-2.986565 49.562870 0.794119 14
-2.818923 49.674141 0.793570 14
-2.649668 49.724834 0.793220 14
-2.484164 50.158916 0.791549 14
-2.303762 50.132507 0.791438 14
-2.148429 49.885349 0.792108 14
-1.977691 49.689709 0.792576 14
-1.543387 63.944248 0.743018 43
-1.323248 63.982407 0.742596 43
-1.099030 64.299767 0.741201 42
-1.127609 49.694595 0.791438 14
-0.958355 49.655399 0.791329 14
-0.394660 66.010765 0.734306 41
-0.168270 65.984917 0.734050 41
0.060194 66.030243 0.733537 41
-0.278468 49.652660 0.790290 14
-0.116208 49.670799 0.789961 14
-1.533468 10.496378 0.926682 2
-1.455307 10.720860 0.925773 17
-1.355489 10.655053 0.925810 13
-1.341587 10.377594 0.926730 17
-1.246408 10.779965 0.925165 14
-1.238751 10.430429 0.926339 12
-1.195812 10.150121 0.927200 20
-1.158648 10.207171 0.926925 24
-1.125760 10.212285 0.926833 9
-1.019479 10.636194 0.925152 12
-0.991914 10.589245 0.925245 19
-0.980422 10.374954 0.925941 21
-0.946813 10.379432 0.925844 14
-0.900312 10.499074 0.925325 22
-0.883119 10.356234 0.925762 11
-0.817761 10.348488 0.925618 14
-0.765164 10.503195 0.924961 6
-0.705624 10.443074 0.925000 7
-0.676956 10.406931 0.925041 4
-0.660156 10.287513 0.925391 10
-0.577739 10.409050 0.924751 16
-0.474114 10.874877 0.922904 10
-0.440229 10.865676 0.922834 19
6.203348 50.630901 0.771582 16
-0.270879 10.842181 0.922388 6
-0.250341 10.737127 0.922665 4
-0.201529 10.813786 0.922256 7
-0.089062 10.845920 0.921777 15
-0.054672 10.839329 0.921681 13
-0.101613 10.428720 0.923166 4
-0.065533 10.437863 0.923011 3
0.009325 10.467487 0.922650 30
0.045702 10.484386 0.922465 11
0.077961 10.465240 0.922408 14
0.106748 10.438530 0.922387 19
0.135463 10.419910 0.922339 17
0.170891 10.416069 0.922217 23
0.206610 10.428444 0.922042 15
0.221371 10.342915 0.922254 17
0.264146 10.378058 0.921978 7
0.366179 10.369782 0.921599 9
0.446053 10.555974 0.920701 9
0.579339 10.938965 0.918976 22
0.638115 11.022974 0.918476 7
0.661940 10.971288 0.918535 9
0.562549 10.327173 0.920917 26
0.687058 10.653945 0.919394 7
0.693210 10.423922 0.920061 26
0.845151 10.825719 0.918188 11
0.942301 10.776630 0.917900 16
0.941387 10.655851 0.918261 36
0.989067 10.691589 0.917937 18
1.030539 10.586750 0.918050 30
1.058001 10.557179 0.918007 27
1.150992 10.733298 0.917057 10
1.089045 10.425499 0.918239 3
1.168659 10.445755 0.917796 20
1.249490 10.583267 0.917009 10
1.274874 10.553626 0.916968 22
1.308607 10.537922 0.916844 44
1.355000 10.564252 0.916538 46
1.401729 10.484318 0.916524 8
1.646656 10.846772 0.914262 12
1.694532 10.662535 0.914508 8
1.878426 10.836163 0.913053 18
1.843432 10.656556 0.913718 19
1.776839 10.386091 0.914794 15
1.916975 10.640227 0.913355 10
2.075948 10.739541 0.912206 16
1.964831 10.382868 0.913746 15
2.049193 10.395018 0.913231 39
2.105649 10.440461 0.912789 26
2.267824 10.636044 0.911355 30
2.511870 11.096753 0.908783 15
2.387324 10.718754 0.910444 14
2.522323 10.749807 0.909556 6
2.561534 10.656683 0.909536 30
2.853059 11.187048 0.906499 14
2.826702 11.040179 0.907003 10
2.751895 10.707786 0.908232 26
2.799847 10.720024 0.907902 26
2.945304 10.929325 0.906507 39
2.965760 10.887938 0.906469 18
2.982331 10.834935 0.906479 11
2.959960 10.622085 0.907089 20
1.914945 8.447231 0.918604 3
1.873454 8.243177 0.919309 0
1.916418 8.202147 0.919106 0
1.911072 8.132305 0.919285 0
1.914877 8.080139 0.919365 1
1.910643 8.014022 0.919526 0
1.907449 7.956365 0.919662 0
1.912204 7.907919 0.919725 1
1.910770 7.849074 0.919849 1
1.918863 7.807708 0.919872 1
1.918754 7.752491 0.919978 1
1.918308 7.697357 0.920085 1
1.923566 7.652677 0.920132 0
1.919581 7.590122 0.920275 0
1.906792 7.518713 0.920497 0
1.916336 7.480459 0.920497 0
1.924335 7.447683 0.920498 1
1.938035 7.369212 0.920536 1
1.945595 7.331725 0.920545 1
1.967706 7.318054 0.920406 2
1.970677 7.273785 0.920458 2
1.988320 7.253259 0.920361 2
2.005900 7.227926 0.920272 2
2.043926 7.194066 0.920041 19
2.081676 7.159977 0.919808 107
2.095444 7.131771 0.919746 121
2.139013 7.150880 0.919384 115
2.138219 7.103310 0.919460 56
2.161878 7.097036 0.919287 21
2.185418 7.085918 0.919120 8
2.222495 7.094510 0.918820 5
2.248321 7.086457 0.918629 4
2.316539 7.048591 0.918142 2
2.344613 7.043406 0.917925 2
2.365716 7.028343 0.917776 2
2.398468 7.029425 0.917512 1
2.426578 7.023880 0.917292 1
2.455753 7.017443 0.917064 1
2.489962 7.022079 0.916781 1
2.514709 7.013712 0.916589 1
2.550086 7.017272 0.916296 1
2.585541 7.020657 0.916001 1
2.608981 7.007940 0.915821 1
2.645587 7.010215 0.915516 1
2.681220 7.013113 0.915217 0
2.702215 6.996875 0.915058 0
2.736885 7.000292 0.914764 0
2.772677 7.002719 0.914461 0
2.811029 7.008104 0.914132 0
2.848031 7.009329 0.913818 0
2.875484 7.002703 0.913590 0
2.926651 7.023087 0.913136 0
2.986421 7.010460 0.912633 0
3.027804 7.017811 0.912271 0
3.056495 7.009583 0.912028 0
3.098046 7.016546 0.911662 0
3.137601 7.025072 0.911311 0
3.166409 7.016382 0.911065 0
3.225956 7.039168 0.910527 0
3.263223 7.044046 0.910196 0
3.270681 7.005836 0.910153 0
3.342232 7.049578 0.909493 0
3.373928 7.043037 0.909214 0
3.416261 7.048316 0.908833 0
3.442705 7.035478 0.908602 0
3.485178 7.040368 0.908218 0
3.507315 7.020370 0.908027 0
3.600085 7.081976 0.907162 0
3.626727 7.068421 0.906925 0
3.661494 7.063560 0.906610 0
3.704476 7.067309 0.906215 0
3.736602 7.059166 0.905923 0
3.767683 7.051872 0.905639 0
3.802592 7.046331 0.905318 0
3.836875 7.035708 0.905003 0
3.911385 7.075037 0.904303 0
4.004072 7.085361 0.903436 0
4.019695 7.058808 0.903293 0
4.057745 7.054935 0.902935 0
4.097954 7.048756 0.902556 0
4.179371 7.091727 0.901784 0
4.209171 7.078689 0.901501 0
4.247524 7.073916 0.901136 0
4.291652 7.074530 0.900714 0
4.327231 7.066570 0.900373 0
4.357059 7.052896 0.900084 0
4.459255 7.108078 0.899108 0
4.500905 7.104880 0.898705 0
4.530952 7.090509 0.898411 0
4.568686 7.085329 0.898043 0
4.598721 7.070662 0.897746 0
4.701496 7.118554 0.896756 0
4.726619 7.102994 0.896505 0
4.765683 7.095748 0.896118 0
4.798836 7.082947 0.895787 0
4.858804 7.094000 0.895199 0
4.871098 7.062189 0.895062 0
4.988212 7.123010 0.893928 0
5.012583 7.101357 0.893674 0
5.061025 7.100615 0.893190 0
5.097441 7.089147 0.892818 0
5.142969 7.085314 0.892359 0
5.234224 7.120151 0.891462 0
5.273897 7.110503 0.891055 0
5.316653 7.103225 0.890617 0
5.364522 7.102127 0.890131 0
5.395050 7.084178 0.889806 0
5.508942 7.134705 0.888685 0
5.533441 7.111127 0.888415 0
5.576505 7.102571 0.887966 0
5.650753 7.118876 0.887217 0
5.743952 7.149723 0.886286 0
5.802997 7.152638 0.885679 0
5.946974 7.222066 0.884256 0
10.759821 10.872253 0.838005 13
10.879748 10.893754 0.836777 12
10.749100 10.722418 0.837953 13
11.100865 10.847917 0.834408 12
11.160799 10.821454 0.833745 28
11.522385 11.019101 0.830175 11
11.513740 10.943441 0.830170 14
11.680642 10.993332 0.828467 14
11.799549 11.006865 0.827222 14
11.800270 10.937749 0.827119 24
12.025138 11.022476 0.824839 9
12.053552 10.968959 0.824458 13
12.089827 10.924744 0.824005 11
12.456846 11.105215 0.820334 8
12.515038 11.070831 0.819654 10
12.405361 10.920169 0.820601 21
12.588350 10.971797 0.818706 12
12.905655 11.117169 0.815506 7
12.843250 10.995422 0.815981 14
12.904493 10.968933 0.815269 17
13.172427 11.064735 0.812515 7
13.250880 11.040518 0.811615 9
13.305935 11.000523 0.810940 15
13.669324 11.160979 0.807249 10
13.745048 11.132401 0.806363 16
13.824129 11.105577 0.805441 16
13.997718 11.138424 0.803589 8
14.202171 11.189393 0.801429 12
14.281740 11.160513 0.800490 20
14.452871 11.196038 0.798663 6
14.733482 11.289908 0.795738 6
14.812057 11.253710 0.794786 12
14.893855 11.227107 0.793816 19
14.994572 11.207441 0.792647 6
15.110868 11.192428 0.791310 6
15.318398 11.234777 0.789076 11
15.429772 11.227118 0.787806 4
15.624406 11.250988 0.785668 6
16.104904 11.363005 0.780506 4
16.139196 11.303044 0.779972 7
16.662645 11.425504 0.774330 10
16.829983 11.437555 0.772455 7
16.964401 11.425986 0.770892 7
16.790150 11.244709 0.772412 5
18.380384 11.843855 0.755779 9
18.628632 11.879568 0.753022 6
18.624002 11.785342 0.752813 9
18.860514 11.729331 0.749923 6
18.050304 11.223152 0.757843 2
13.526606 8.841688 0.803345 1
13.491530 8.688788 0.803298 4
13.489614 8.620637 0.803114 6
13.460947 8.542973 0.803210 11
13.463331 8.474179 0.802969 11
13.448412 8.403916 0.802923 13
13.477802 8.351809 0.802413 17
13.443193 8.266135 0.802544 11
13.450379 8.203846 0.802257 13
13.475461 8.150011 0.801785 4
13.462774 8.082076 0.801709 8
13.465592 8.018249 0.801461 4
13.457215 7.949550 0.801327 4
13.463153 7.887528 0.801044 4
13.468845 7.825550 0.800761 4
13.473111 7.766309 0.800503 4
13.500334 7.713993 0.799994 8
13.493155 7.650023 0.799851 13
13.524527 7.535752 0.799061 26
13.548409 7.478955 0.798566 27
13.585740 7.430906 0.797940 53
13.603309 7.377802 0.797529 37
13.685904 7.344800 0.796413 27
13.785916 7.321485 0.795121 24
13.893390 7.300507 0.793747 19
14.024756 7.294700 0.792142 19
14.142002 7.269609 0.790629 16
14.272032 7.255134 0.789001 15
14.443257 7.255525 0.786932 10
14.653644 7.276153 0.784469 8
14.882604 7.292316 0.781761 5
15.111901 7.306886 0.779039 5
15.324297 7.320394 0.776516 5
15.549355 7.333596 0.773835 5
15.778479 7.346652 0.771101 6
16.011675 7.359521 0.768314 6
16.248947 7.372162 0.765473 6
16.494083 7.385843 0.762538 6
16.763781 7.413501 0.759362 6
16.996656 7.412149 0.756506 13
17.201004 7.406909 0.753978 6
17.458704 7.417916 0.750866 4
22.961399 9.147806 0.691186 3
22.997326 9.063229 0.690355 3
22.967777 8.866654 0.689803 3
22.965923 8.765710 0.689350 7
22.996727 8.679834 0.688561 11
22.992796 8.583359 0.688147 7
23.002510 8.495965 0.687604 7
23.028549 8.408786 0.686858 3
23.038933 8.317016 0.686278 3
23.040031 8.227405 0.685821 3
23.070227 8.136827 0.684995 3
23.114262 8.054836 0.684036 3
23.265932 8.002623 0.681885 3
24.342764 8.006109 0.668491 4
27.375301 8.274539 0.632017 5
38.263592 10.829388 0.509474 11
38.344337 10.700166 0.507756 11
38.272896 10.534493 0.507742 11
38.302059 10.393090 0.506593 11
38.393093 10.265936 0.504740 11
38.596867 10.163851 0.501604 11
38.527119 9.999639 0.501553 11
38.593472 9.865957 0.499957 11
58.946793 13.023050 0.261499 43
41.728271 8.981307 0.455109 13
56.255669 11.428739 0.285935 42
23.868584 2.522678 0.639781 3
23.543121 2.324768 0.642467 3
23.531853 2.230510 0.641894 3
23.515711 2.055965 0.640761 7
23.475302 1.965348 0.640579 7
23.466551 1.876140 0.639998 7
23.465204 1.796130 0.639390 10
23.471851 1.707489 0.638608 10
23.470194 1.618614 0.637927 7
23.484219 1.530099 0.637044 7
23.501936 1.441564 0.636110 7
23.515347 1.352855 0.635226 7
23.524446 1.264015 0.634394 3
23.537237 1.175145 0.633509 3
23.581715 1.086309 0.632214 3
23.597885 0.997158 0.631276 3
23.669739 0.907714 0.629617 3
23.728512 0.728180 0.627374 3
32.835918 -0.330862 0.501249 8
29.558708 -0.647433 0.540607 5
29.101522 -0.732418 0.545731 5
28.903660 -0.829532 0.547411 5
28.825590 -0.927393 0.547542 5
28.798744 -1.033528 0.546937 5
28.803452 -1.141711 0.545904 5
28.787832 -1.248500 0.545140 5
22.489975 -1.391781 0.624581 3
22.171108 -1.445781 0.628160 3
21.657248 -1.477220 0.634444 3
21.250832 -1.516698 0.639273 3
20.737110 -1.541400 0.645612 3
20.545349 -1.599580 0.647511 2
20.018999 -1.690723 0.653367 24
19.973837 -1.918628 0.651739 22
19.963543 -1.995172 0.651124 16
19.956942 -2.072234 0.650453 13
19.969866 -2.152122 0.649502 13
19.970627 -2.230394 0.648720 16
19.967154 -2.308115 0.647993 13
19.975264 -2.387677 0.647098 11
19.979136 -2.466714 0.646259 8
19.994568 -2.547727 0.645249 8
19.986023 -2.624990 0.644579 8
19.992981 -2.704892 0.643682 8
20.015417 -2.787597 0.642557 8
20.033604 -2.869812 0.641488 5
20.052860 -2.944516 0.640479 8
20.079889 -3.108332 0.638451 62
-28.574238 1.122332 0.683752 4
-28.545584 1.219630 0.684841 4
-28.496691 1.307212 0.686059 8
-28.507355 1.404655 0.686732 4
-28.725494 1.688460 0.686719 4
-29.362587 1.800808 0.680968 4
-31.118546 1.954642 0.663886 4
-52.747433 2.847672 0.445623 17
-52.701393 3.005621 0.447328 17
-52.629768 3.366024 0.450849 51
-52.585228 3.541060 0.452649 51
-52.612450 3.710848 0.453656 17
-52.598160 3.896243 0.455206 17
-52.787880 4.076262 0.454587 17
-66.773827 10.173381 0.352423 41
-66.689934 10.392082 0.354720 41
-66.527855 10.587267 0.357660 41
-66.362267 11.011146 0.362099 83
-66.484917 11.261031 0.362436 41
-66.523697 11.498402 0.363546 41
-66.648407 11.750606 0.363858 41
-48.256786 9.032100 0.535479 13
-45.288303 8.820624 0.564576 12
-44.685043 8.873407 0.571070 12
-40.869560 8.577434 0.608265 11
-39.239597 8.408278 0.623885 10
-37.945889 8.268438 0.636245 9
-37.583355 8.324634 0.640267 9
-30.887745 7.162135 0.701620 4
-30.190866 7.111389 0.708408 9
-29.638115 7.092762 0.713912 4
-29.015591 7.054605 0.720010 12
-28.603212 7.064807 0.724247 8
-27.475985 6.986080 0.735215 7
-26.967543 6.963397 0.740229 7
-26.485014 6.934169 0.744941 7
-26.008661 6.912114 0.749626 10
-25.584282 6.895143 0.753811 10
-25.157467 6.870251 0.757975 9
-24.776545 6.858525 0.761744 9
-24.329178 6.830949 0.766094 9
-23.929737 6.808636 0.769986 8
-23.597414 6.797469 0.773260 8
-23.820164 6.939131 0.771761 5
-23.029123 6.798959 0.778958 8
-22.209675 6.729249 0.786791 62
-22.182848 6.794158 0.787384 17
-21.194143 6.656016 0.796544 2
-20.887758 6.854163 0.800543 36
-20.920610 6.936953 0.800610 19
-20.937864 7.015202 0.800808 23
-20.773626 7.107956 0.802858 100
-20.755962 7.174839 0.803338 99
-20.755421 7.240165 0.803641 95
-20.741077 7.308283 0.804089 97
-20.741632 7.381532 0.804411 100
-20.725649 7.452929 0.804884 100
-20.734339 7.525640 0.805119 100
-20.726509 7.596445 0.805504 100
-20.722179 7.668615 0.805858 100
-20.713812 7.739482 0.806242 100
-20.716455 7.814475 0.806535 100
-20.707541 7.885425 0.806920 100
-20.704639 7.962456 0.807269 100
-20.697626 8.026932 0.807603 100
-20.691652 8.099389 0.807957 100
-20.696604 8.176188 0.808221 100
-20.699978 8.256378 0.808510 100
-20.705582 8.330147 0.808749 100
-20.698446 8.402890 0.809105 100
-20.698462 8.478642 0.809400 100
-20.694468 8.552987 0.809726 100
-20.693886 8.628905 0.810022 99
-20.704096 8.709481 0.810230 100
-20.941095 8.962513 0.808916 7
-20.931566 9.036527 0.809279 7
-20.837185 9.074354 0.810312 7
-24.454535 10.716578 0.781963 6
-24.189505 10.694217 0.784389 10
-23.965170 10.687869 0.786485 9
-15.658340 7.081300 0.852175 1
-15.396153 7.020972 0.854434 1
-15.211070 6.993553 0.856078 1
-15.139110 7.016482 0.856830 1
-14.983621 7.000432 0.858231 1
-14.929931 7.030655 0.858833 1
-14.872570 7.058876 0.859460 1
-14.721205 7.042206 0.860815 1
-14.544858 7.012467 0.862358 1
-14.570589 7.078968 0.862329 1
-14.412617 7.056380 0.863720 1
-14.226239 7.018651 0.865325 1
-14.165705 7.041884 0.865954 1
-14.030033 7.027193 0.867158 1
-13.867093 6.995136 0.868558 1
-13.796151 7.011271 0.869256 1
-13.650507 6.988636 0.870522 1
-13.579767 7.003666 0.871211 1
-13.459422 6.992364 0.872275 1
-13.356997 6.989612 0.873198 1
-13.254730 6.986218 0.874117 1
-13.163207 6.987848 0.874950 1
-13.117567 7.013615 0.875431 1
-12.977032 6.987500 0.876628 1
-12.906943 6.998972 0.877289 1
-12.784414 6.980974 0.878342 1
-12.723619 6.991574 0.878913 1
-12.656231 7.005493 0.879551 1
-12.482072 6.955985 0.880981 1
-12.339644 6.923201 0.882167 1
-12.326846 6.961580 0.882373 1
-12.242637 6.963368 0.883123 1
-12.197565 6.985075 0.883572 1
-12.124910 6.990273 0.884225 1
-12.069531 7.005264 0.884746 1
-12.091759 7.061666 0.884677 1
-12.088913 7.112938 0.884815 1
-11.994798 7.152102 0.885719 3
-11.920995 7.202953 0.886465 1
-11.902636 7.239812 0.886699 1
-11.896474 7.279573 0.886831 1
-11.856499 7.305190 0.887225 1
-11.953271 7.413671 0.886604 1
-11.933020 7.452429 0.886850 1
-11.918236 7.489837 0.887046 1
-11.923368 7.540401 0.887094 1
-11.898147 7.578608 0.887377 1
-11.878416 7.615479 0.887609 1
-11.874150 7.657765 0.887718 1
-11.849648 7.694056 0.887985 1
-11.862523 7.753351 0.887975 1
-11.884990 7.819619 0.887894 1
-11.880816 7.867894 0.888006 1
-11.877633 7.914493 0.888105 1
-11.886121 7.972081 0.888122 1
-11.874745 8.015936 0.888282 1
-11.854651 8.051098 0.888499 1
-11.353224 7.491932 0.958416 1
-11.337033 7.529256 0.958656 1
-11.368637 7.602680 0.958901 1
-11.349923 7.636154 0.959130 1
-11.362493 7.694434 0.959367 1
-11.355277 7.738881 0.959607 1
-11.334903 7.773980 0.959847 1
-11.331752 7.819164 0.960074 1
-11.330429 7.868403 0.960314 1
-11.363041 7.945518 0.960568 1
-11.364366 7.997417 0.960809 1
-11.365441 8.049410 0.961051 1
-11.372650 8.106320 0.961294 1
-11.431751 8.200488 0.961534 1
-11.419222 8.243241 0.961777 1
-11.425504 8.300666 0.962023 1
-11.434657 8.360678 0.962271 1
-11.487586 8.455381 0.962531 1
-11.492869 8.513372 0.962781 1
-11.472813 8.551579 0.963023 1
-13.163053 10.081688 0.964412 24
-13.081696 10.080235 0.964672 26
-12.994309 10.073240 0.964927 26
-12.916347 10.073406 0.965181 21
-12.838517 10.073139 0.965433 24
-12.766947 10.077589 0.965684 24
-12.674111 10.063554 0.965921 26
-12.605853 10.069749 0.966167 26
-12.528580 10.067759 0.966405 22
-12.445400 10.060106 0.966636 24
-12.374468 10.062494 0.966871 26
-12.311246 10.067967 0.967094 27
-12.231525 10.061677 0.967317 29
-12.157954 10.060258 0.967541 26
-12.084331 10.064640 0.967789 26
-12.015576 10.063327 0.967997 27
-11.943982 10.058969 0.968199 27
-11.867993 10.053266 0.968408 26
-11.806877 10.060693 0.968627 29
-11.731168 10.054204 0.968830 30
-11.658546 10.050027 0.969033 28
-11.603556 10.061899 0.969249 27
-11.539888 10.065245 0.969454 27
-11.472110 10.061075 0.969639 30
-11.391342 10.047122 0.969821 30
-11.333792 10.054961 0.970025 27
-11.270571 10.056928 0.970219 30
-11.213162 10.064166 0.970418 30
-11.141586 10.057060 0.970598 30
-11.073009 10.052386 0.970778 28
-11.007403 10.050176 0.970958 28
-10.950375 10.056138 0.971147 30
-10.893414 10.061813 0.971333 30
-10.829718 10.057075 0.971495 24
-10.758994 10.047812 0.971658 24
-10.702330 10.052560 0.971837 27
-10.645740 10.057024 0.972014 27
-10.591982 10.064101 0.972192 27
-10.527294 10.059283 0.972353 26
-10.468218 10.059959 0.972519 27
-10.411969 10.063261 0.972686 27
-10.358517 10.069217 0.972856 27
-10.299715 10.069018 0.973015 30
-10.238321 10.065565 0.973167 30
-10.182424 10.067724 0.973326 27
-10.128198 10.068178 0.973473 30
-10.076724 10.071355 0.973622 30
-10.015769 10.066723 0.973765 30
-9.965524 10.073780 0.973924 28
-9.904791 10.068557 0.974063 27
-9.854687 10.075098 0.974218 27
-9.802022 10.078372 0.974367 31
-9.744225 10.075314 0.974503 27
-9.696913 10.084150 0.974658 30
-9.631565 10.071377 0.974775 28
-9.579254 10.073583 0.974915 26
-9.536289 10.083432 0.975060 25
-9.486653 10.088248 0.975201 26
-9.434538 10.089737 0.975336 26
-9.377448 10.084774 0.975458 27
-9.292794 10.045329 0.975519 27
-9.266154 10.077105 0.975701 23
-9.162021 10.011894 0.975713 36
-9.080794 9.974283 0.975770 61
-9.085601 10.041848 0.976005 25
-9.041645 10.050907 0.976142 22
-8.964259 10.019910 0.976211 23
-8.893648 9.993597 0.976281 46
-8.891332 10.055876 0.976510 27
-8.842716 10.057713 0.976629 28
-8.778899 10.035768 0.976696 40
-8.759266 10.075527 0.976882 40
-8.658333 10.006089 0.976863 37
-8.633944 10.039073 0.977034 27
-8.526701 9.959036 0.976991 61
-8.530629 10.030437 0.977232 46
-8.543500 10.114950 0.977500 20
-8.458040 10.063079 0.977504 28
-8.428648 10.088965 0.977658 35
-8.350722 10.046125 0.977676 61
-8.323662 10.074930 0.977833 43
-8.278211 10.077382 0.977937 40
-8.266222 10.124618 0.978124 27
-8.225254 10.133375 0.978238 26
-8.130315 10.062577 0.978193 45
-8.100847 10.087376 0.978337 43
-8.077960 10.122047 0.978500 32
-8.041616 10.136685 0.978622 30
-8.003043 10.147841 0.978737 25
-7.953509 10.142109 0.978815 27
-7.906268 10.139497 0.978899 28
-7.848279 10.119859 0.978946 23
-7.796968 10.110035 0.979012 13
-5.735112 7.073910 0.972905 4
-5.706525 7.072772 0.972954 2
-5.675902 7.068099 0.972995 2
-5.639083 7.057734 0.973027 2
-5.612754 7.059619 0.973080 2
-5.581292 7.055160 0.973122 2
-5.553984 7.057439 0.973177 2
-5.522650 7.052703 0.973216 2
-5.490336 7.048440 0.973258 3
-5.465163 7.053800 0.973317 3
-5.435085 7.048041 0.973349 4
-5.406004 7.046228 0.973392 4
-5.377888 7.048366 0.973445 4
-5.343047 7.035824 0.973462 4
-5.315214 7.033021 0.973498 4
-5.285506 7.026596 0.973526 5
-5.259524 7.031723 0.973582 4
-5.228038 7.021529 0.973600 4
-5.199391 7.018806 0.973635 4
-5.174565 7.023015 0.973686 4
-5.146828 7.024146 0.973731 6
-5.122035 7.028146 0.973780 6
-5.096463 7.027949 0.973817 7
-5.074591 7.034760 0.973870 5
-5.046194 7.031347 0.973900 5
-5.021472 7.034946 0.973946 5
-4.993174 7.031296 0.973974 6
-4.969230 7.038791 0.974030 6
-4.935714 7.024146 0.974031 6
-4.911119 7.027308 0.974074 7
-4.884796 7.026773 0.974107 7
-4.857832 7.022017 0.974128 7
-4.829882 7.017649 0.974151 7
-4.808824 7.027630 0.974207 7
-4.782649 7.026667 0.974237 7
-4.760933 7.032365 0.974280 7
-4.733146 7.027565 0.974300 7
-4.712055 7.037208 0.974353 7
-4.685997 7.035838 0.974380 7
-4.658351 7.030708 0.974397 7
-4.635631 7.036432 0.974440 7
-4.609691 7.034744 0.974464 8
-4.586982 7.040287 0.974505 8
-4.556365 7.027372 0.974501 8
-4.532140 7.029038 0.974531 8
-4.509490 7.034294 0.974570 8
-4.483751 7.032083 0.974590 8
-4.460643 7.033027 0.974616 8
-4.431487 7.019079 0.974606 8
-4.407418 7.020257 0.974633 8
-4.383810 7.025474 0.974670 8
-4.358294 7.022747 0.974686 7
-4.338686 7.034803 0.974738 7
-4.313217 7.031888 0.974752 7
-4.289235 7.032600 0.974775 7
-4.264905 7.029080 0.974787 6
-4.243453 7.032948 0.974815 6
-4.219889 7.037529 0.974847 6
-4.197047 7.037487 0.974866 6
-4.169691 7.034761 0.974880 6
-4.148577 7.042438 0.974917 5
-4.124743 7.042508 0.974935 6
-4.102269 7.046256 0.974961 6
-4.076889 7.038225 0.974957 5
-4.055512 7.041431 0.974981 5
-4.031785 7.041141 0.974996 6
-4.009367 7.044546 0.975020 6
-3.984626 7.044430 0.975035 6
-3.960770 7.039717 0.975037 6
-3.943184 7.053922 0.975085 7
-3.918315 7.049389 0.975088 7
-3.894719 7.048567 0.975099 7
-3.870095 7.047987 0.975110 8
-3.846558 7.046980 0.975120 7
-3.822932 7.041734 0.975118 7
-3.800633 7.044373 0.975135 7
-3.779488 7.050760 0.975162 7
-3.759458 7.060910 0.975197 7
-3.733696 7.047649 0.975173 7
-3.711430 7.049961 0.975188 7
-3.689208 7.056339 0.975213 7
-3.665856 7.054637 0.975217 7
-3.644665 7.056406 0.975229 7
-3.620309 7.050676 0.975222 7
-3.598100 7.052573 0.975234 7
-3.576928 7.058254 0.975255 7
-3.554720 7.059993 0.975265 7
-3.531517 7.057778 0.975265 6
-3.509338 7.059350 0.975274 6
-3.486191 7.056963 0.975273 6
-3.466064 7.061991 0.975289 6
-3.442012 7.055554 0.975277 5
-3.419894 7.056801 0.975283 6
-3.398845 7.057717 0.975289 6
-3.378566 7.066597 0.975313 5
-3.358242 7.075410 0.975338 5
-3.336992 7.080254 0.975351 4
-3.311382 7.065501 0.975315 4
-3.288457 7.062366 0.975308 4
-3.251270 6.992665 0.975133 6
-3.206077 6.985868 0.975115 39
-3.189142 7.009777 0.975174 62
-3.166811 7.002055 0.975153 32
-3.114980 7.073309 0.975325 1
-3.095936 7.089101 0.975362 2
-3.071046 7.073354 0.975318 1
-3.051215 7.085070 0.975344 2
-2.984011 7.076440 0.975307 20
-2.963172 7.075855 0.975300 21
-2.941286 7.075371 0.975293 23
-2.919415 7.074808 0.975285 21
-2.898170 7.078120 0.975286 18
-2.876913 7.081357 0.975286 15
-2.852839 7.072804 0.975257 13
-2.831033 7.071924 0.975246 12
-2.811968 7.082702 0.975265 10
-2.791236 7.089602 0.975273 10
-2.770992 7.100397 0.975290 9
-2.748121 7.091290 0.975257 8
-2.727318 7.097972 0.975263 7
-2.707544 7.104454 0.975269 6
-2.686197 7.107026 0.975264 5
-2.664840 7.109523 0.975258 4
-2.642587 7.103996 0.975232 3
-2.622961 7.122249 0.975265 2
-2.601552 7.124526 0.975258 2
-2.580537 7.130707 0.975259 1
-2.560263 7.144779 0.975280 1
-2.540273 7.162766 0.975311 1
-2.520165 7.180689 0.975340 1
-2.501671 7.218472 0.975418 1
-2.482681 7.240164 0.975457 1
-2.464833 7.277747 0.975534 1
-2.445332 7.311377 0.975600 1
-2.427940 7.376862 0.975744 2
-2.407592 7.406388 0.975798 1
-2.388894 7.463789 0.975921 2
-2.372305 7.561058 0.976141 2
-2.448457 10.309180 0.982806 49
-2.417683 10.346786 0.982867 37
-2.385201 10.352322 0.982850 33
-2.349670 10.285809 0.982656 24
-2.319984 10.359059 0.982802 25
-2.287278 10.360259 0.982772 23
-2.254820 10.369340 0.982760 20
-2.221855 10.362315 0.982709 18
-2.189041 10.359174 0.982666 17
-2.156252 10.355917 0.982623 17
-2.123558 10.356544 0.982588 15
-2.092610 10.365035 0.982573 14
-2.059970 10.373441 0.982556 12
-2.027244 10.377732 0.982528 11
-1.994416 10.361910 0.982451 10
-1.961704 10.369973 0.982431 8
-1.928909 10.385921 0.982428 7
-1.896030 10.397756 0.982415 5
-1.863356 10.381476 0.982335 3
-1.830355 10.397080 0.982330 3
-1.797519 10.396570 0.982285 3
-1.764436 10.407944 0.982269 2
-1.731951 10.391209 0.982185 2
-1.699137 10.390355 0.982137 2
-1.665826 10.405379 0.982127 1
-1.633101 10.400298 0.982069 1
-1.599797 10.411091 0.982047 1
-1.417775 10.750925 0.982589 10
-1.374619 10.347684 0.981554 22
-1.342486 10.337601 0.981478 39
-1.311805 10.307456 0.981356 69
-1.274621 10.368966 0.981443 45
-1.239748 10.394435 0.981447 62
-1.208842 10.367941 0.981331 59
-1.171113 10.425053 0.981405 27
-1.152071 10.262846 0.980981 23
-1.118443 10.291986 0.980993 17
-1.057905 10.587675 0.981601 51
-1.048867 10.333658 0.980971 26
-1.019072 10.302563 0.980842 27
-0.977814 10.398850 0.981000 69
-0.938969 10.451041 0.981056 57
-0.910824 10.403691 0.980888 36
-0.891222 10.284731 0.980563 25
-0.847956 10.372304 0.980694 31
-0.813946 10.392389 0.980677 21
-0.755387 10.566511 0.980988 7
-0.723506 10.550347 0.980886 16
-0.712273 10.379437 0.980447 25
-0.680046 10.371062 0.980362 25
-0.641763 10.406151 0.980371 18
-0.607707 10.421526 0.980339 22
-0.572468 10.432578 0.980294 49
-0.544874 10.392078 0.980137 17
-0.438966 10.861482 0.981068 13
-0.464732 10.484962 0.980196 8
-0.420149 10.550769 0.980263 25
-0.342185 10.805546 0.980724 44
-0.307654 10.811961 0.980664 23
-0.322827 10.518352 0.979972 14
-0.257095 10.697751 0.980270 41
-0.229563 10.656312 0.980106 12
-0.166370 10.811544 0.980349 8
-0.138932 10.778015 0.980203 8
-0.137318 10.411288 0.979285 66
-0.105314 10.409118 0.979205 54
-0.066941 10.430039 0.979167 54
-0.024400 10.470404 0.979167 50
0.010308 10.471423 0.979087 43
0.047530 10.484055 0.979028 39
0.087387 10.508274 0.978992 31
0.134275 10.563591 0.979017 15
0.136507 10.423833 0.978658 24
0.209967 10.595935 0.978911 15
0.230059 10.529823 0.978693 19
0.267737 10.533419 0.978606 20
0.302881 10.533369 0.978517 20
0.321196 10.463191 0.978290 41
0.363990 10.502203 0.978279 41
0.398141 10.497915 0.978179 38
0.438150 10.516779 0.978122 25
0.446640 10.411462 0.977829 44
0.508614 10.515294 0.977931 31
0.560154 10.576253 0.977950 33
0.576081 10.501694 0.977714 29
0.625971 10.554565 0.977714 31
0.635020 10.456754 0.977436 36
0.694224 10.548305 0.977510 40
0.710743 10.485542 0.977300 36
0.775669 10.587719 0.977385 35
0.821933 10.616055 0.977328 36
0.854961 10.610617 0.977220 39
0.891936 10.612238 0.977119 38
0.930635 10.613214 0.977010 31
0.966537 10.610719 0.976899 38
0.997746 10.592800 0.976760 42
1.025293 10.563324 0.976601 30
1.071464 10.599148 0.976559 30
1.097231 10.569990 0.976405 31
1.124147 10.527733 0.976211 48
1.186032 10.604347 0.976230 36
1.214543 10.578118 0.976073 39
1.251400 10.582711 0.975972 34
1.298581 10.617476 0.975921 34
1.333845 10.605469 0.975779 39
1.362150 10.578794 0.975619 52
1.391632 10.555815 0.975464 41
1.416987 10.521436 0.975291 69
1.439137 10.483824 0.975118 73
1.483147 10.501991 0.975027 43
1.578497 10.654578 0.975139 43
1.571670 10.537747 0.974840 40
1.638595 10.615283 0.974836 27
1.683211 10.636975 0.974751 43
1.732551 10.665308 0.974667 42
1.773498 10.671021 0.974548 39
1.811861 10.664725 0.974403 43
1.861505 10.696828 0.974326 37
1.898321 10.690864 0.974186 39
1.932159 10.677338 0.974034 38
1.979487 10.697050 0.973928 38
1.972384 10.583310 0.973632 32
1.930875 10.388431 0.973223 40
2.096349 10.692170 0.973513 36
2.153527 10.733228 0.973431 39
2.041627 10.376610 0.972805 29
2.085437 10.388303 0.972684 28
2.129329 10.404187 0.972575 19
2.155740 10.375203 0.972398 36
2.353636 10.733855 0.972727 34
2.400677 10.747954 0.972599 38
2.434711 10.732675 0.972432 41
2.481952 10.746399 0.972301 36
2.534352 10.770816 0.972182 33
2.561733 10.740553 0.971993 40
2.587264 10.706596 0.971799 59
2.651898 10.755770 0.971705 37
2.675634 10.717946 0.971506 40
2.728628 10.741361 0.971377 40
2.785334 10.771721 0.971255 27
2.793135 10.705628 0.971029 34
2.876648 10.793843 0.970976 19
2.875195 10.705280 0.970716 27
2.961124 10.792012 0.970648 19
2.991694 10.767638 0.970458 24
3.049449 10.796603 0.970322 23
1.859508 8.277749 0.967294 0
1.851277 8.200718 0.967091 0
1.850082 8.137953 0.966903 0
1.847259 8.075949 0.966723 0
1.845293 8.013379 0.966538 0
1.841019 7.947399 0.966351 0
1.847911 7.902557 0.966184 0
1.829287 7.812293 0.965977 0
1.837442 7.771105 0.965816 0
1.841423 7.722977 0.965648 0
1.864095 7.705523 0.965501 0
1.874398 7.671989 0.965353 0
1.877668 7.623941 0.965187 0
1.888711 7.589773 0.965033 0
1.889427 7.538367 0.964866 0
1.901163 7.503569 0.964706 0
1.907462 7.462582 0.964548 1
1.916525 7.429161 0.964402 1
1.931633 7.406011 0.964263 2
1.935227 7.361672 0.964104 1
1.957444 7.348037 0.963965 2
1.964843 7.310538 0.963811 1
1.980515 7.286627 0.963666 1
1.991801 7.255918 0.963516 2
2.011502 7.238710 0.963374 1
2.024660 7.211336 0.963227 2
2.070175 7.186720 0.962946 8
2.098358 7.182652 0.962808 18
2.106724 7.148421 0.962657 10
2.129338 7.138232 0.962523 3
2.157455 7.133889 0.962383 1
2.183352 7.126110 0.962241 1
2.211495 7.121531 0.962099 1
2.230611 7.103634 0.961952 1
2.262084 7.101398 0.961802 1
2.294399 7.059417 0.961512 7
2.331711 7.067402 0.961369 2
2.350579 7.049126 0.961219 2
2.383353 7.050299 0.961072 1
2.409163 7.041587 0.960923 2
2.439671 7.039239 0.960773 2
2.472579 7.039979 0.960623 1
2.496045 7.027688 0.960470 1
2.533798 7.034568 0.960318 1
2.571654 7.041257 0.960164 1
2.599975 7.034983 0.960008 1
2.634512 7.038940 0.959859 1
2.661835 7.033204 0.959708 1
2.692665 7.029709 0.959549 0
2.727033 7.028415 0.959380 0
2.764272 7.034902 0.959225 0
2.798769 7.033259 0.959053 0
2.826237 7.026849 0.958897 0
2.867248 7.035111 0.958729 0
2.900853 7.033810 0.958561 0
2.978327 7.043120 0.958217 0
3.009583 7.038208 0.958046 0
3.038315 7.030070 0.957874 0
3.079854 7.037169 0.957696 0
3.116361 7.037923 0.957518 0
3.158099 7.044605 0.957336 0
3.193702 7.045877 0.957163 0
3.230427 7.046074 0.956980 0
3.272443 7.052145 0.956793 0
3.310374 7.051037 0.956598 0
3.346251 7.051586 0.956419 0
3.388539 7.057031 0.956226 0
3.430928 7.062255 0.956031 0
3.473419 7.067256 0.955834 0
3.513334 7.069062 0.955638 0
3.559763 7.075627 0.955426 0
3.593398 7.072059 0.955239 0
3.633546 7.073249 0.955037 0
3.679204 7.080102 0.954828 0
3.716795 7.077934 0.954625 0
3.759915 7.081410 0.954415 0
3.794884 7.075939 0.954211 0
3.838159 7.078988 0.953997 0
3.884294 7.084696 0.953778 0
4.008298 7.087081 0.953135 1
4.047455 7.082255 0.952908 0
4.121165 7.116239 0.952655 0
4.145339 7.097804 0.952451 0
4.177972 7.087732 0.952236 0
4.224847 7.091553 0.952000 1
4.271822 7.095120 0.951763 0
4.330366 7.109591 0.951508 0
4.377580 7.112610 0.951266 0
4.422004 7.112605 0.951025 0
4.469401 7.115122 0.950779 0
4.516893 7.117383 0.950530 0
4.561563 7.116648 0.950284 0
4.626781 7.134776 0.950004 1
4.670592 7.134651 0.949763 1
4.715547 7.133139 0.949510 1
4.742854 7.115196 0.949283 1
4.802702 7.126707 0.949002 1
4.944335 7.124632 0.948208 1
5.022695 7.150776 0.947885 1
5.086658 7.120258 0.947393 1
5.201849 7.176683 0.946995 1
5.226436 7.154251 0.946757 1
5.281404 7.157659 0.946463 1
5.312051 7.140094 0.946211 1
5.379422 7.153258 0.945888 1
5.413178 7.137848 0.945628 1
5.508538 7.173295 0.945244 1
5.544448 7.161199 0.944985 1
5.603123 7.165324 0.944668 1
5.658811 7.166596 0.944354 1
5.747791 7.196489 0.943979 1
5.813148 7.204516 0.943640 1
10.923429 10.994888 0.931525 116
10.660500 10.720278 0.931778 44
11.018368 10.924155 0.930642 21
10.888836 10.757607 0.930620 42
11.568132 11.125772 0.928370 11
11.569576 11.056978 0.928036 9
11.611346 11.007331 0.927555 27
11.688173 10.990634 0.927022 27
11.710058 10.933521 0.926619 18
11.841970 10.955994 0.925945 11
12.981298 11.542414 0.921994 7
12.429021 11.006272 0.922688 14
12.810946 11.199585 0.921343 9
12.914919 11.118732 0.920320 92
13.135124 11.035145 0.918575 30
13.268471 11.051183 0.917846 12
13.492395 11.125680 0.916858 12
13.628436 11.129523 0.916049 20
13.532666 10.990447 0.915932 20
14.077653 11.267056 0.914002 5
14.096550 11.200280 0.913547 5
14.319996 11.183464 0.912090 15
14.630685 11.297560 0.910763 11
14.910385 11.308804 0.909095 108
14.947065 11.093505 0.907749 8
15.259269 11.194615 0.906338 8
15.427477 11.216546 0.905405 8
15.469975 11.159824 0.904841 5
16.050470 11.330670 0.902116 6
16.823326 11.687402 0.899170 10
16.219732 11.259773 0.900677 9
16.928980 11.491480 0.897457 109
16.945675 11.328652 0.896473 6
17.129324 11.342690 0.895387 10
17.193525 11.291151 0.894700 10
18.261831 11.770344 0.890537 8
18.685438 11.816360 0.888095 12
18.705355 11.735004 0.887520 12
18.035221 11.298064 0.889381 7
13.521082 8.702623 0.903828 56
13.492778 8.624669 0.903572 42
13.483408 8.553091 0.903228 49
13.473727 8.481672 0.902887 54
13.467340 8.412147 0.902534 54
13.465551 8.341787 0.902144 54
13.460911 8.276924 0.901804 49
13.468138 8.214570 0.901400 45
13.479997 8.151244 0.900959 31
13.468552 8.080604 0.900626 45
13.473778 8.021111 0.900248 47
13.482425 7.963309 0.899856 47
13.490825 7.895804 0.899408 47
13.500203 7.835353 0.898994 49
13.504501 7.776012 0.898618 54
13.508576 7.716719 0.898243 49
13.529450 7.658398 0.897762 49
13.548951 7.602722 0.897305 49
13.571938 7.548547 0.896833 56
13.602114 7.497378 0.896329 18
13.868486 7.353822 0.893710 18
14.004702 7.347173 0.892769 18
14.151811 7.334190 0.891715 13
14.311751 7.331655 0.890639 7
14.478227 7.333828 0.889547 7
14.649736 7.333495 0.888404 7
14.842784 7.343459 0.887181 7
15.063414 7.359056 0.885807 7
15.288105 7.374578 0.884405 5
15.499201 7.380060 0.883029 7
15.705688 7.385800 0.881685 7
15.918840 7.395995 0.880322 7
16.137142 7.403023 0.878904 7
16.370808 7.413896 0.877406 8
16.626320 7.434318 0.875820 5
16.921131 7.462797 0.874020 2
43.051430 16.236614 0.753863 26
22.993265 9.156920 0.843905 5
23.006310 8.867936 0.841960 36
23.020836 8.781530 0.841303 31
23.032587 8.689575 0.840628 31
23.047827 8.598798 0.839934 31
23.073484 8.416068 0.838567 5
23.099249 8.328642 0.837818 5
23.128551 8.242238 0.837050 5
23.165249 8.157913 0.836244 5
23.228615 8.081007 0.835303 5
23.260918 7.995183 0.834513 5
38.295296 10.842536 0.750763 34
38.321659 10.700088 0.749608 34
38.339733 10.555728 0.748495 34
38.390095 10.411600 0.747158 51
38.436703 10.281333 0.745940 34
38.503994 10.148216 0.744556 34
38.581802 10.002331 0.743009 51
38.577839 9.853073 0.741998 34
58.677700 14.026040 0.632362 33
58.783199 13.838136 0.630319 33
41.707203 8.975272 0.714142 58
56.274803 11.429264 0.630618 61
92.368782 16.543482 0.416679 49
92.496216 16.209106 0.413362 49
51.988045 8.344544 0.637961 30
112.660324 14.603083 0.260751 63
63.287846 6.897200 0.547954 39
23.834146 2.519388 0.790846 5
23.555769 2.413523 0.791969 5
23.556583 2.324241 0.791259 5
23.557274 2.145714 0.789840 10
23.533173 2.055468 0.789292 5
23.512581 1.970003 0.788755 5
23.523836 1.881363 0.787968 5
23.533426 1.703549 0.786474 35
23.515762 1.614068 0.785878 25
23.533777 1.525476 0.785036 15
23.535486 1.436485 0.784304 25
23.540884 1.347545 0.783545 15
23.607227 1.076257 0.780866 5
23.702740 0.812323 0.778026 25
23.722002 0.727020 0.777187 10
40.638897 0.405078 0.655536 37
40.652584 0.256112 0.654205 37
40.657753 0.107209 0.652930 37
40.678394 -0.042126 0.651541 18
40.690517 -0.191395 0.650208 37
40.706116 -0.340886 0.648847 37
40.729183 -0.490777 0.647426 38
40.739731 -0.640387 0.646093 19
28.760969 -1.145612 0.725957 22
28.761301 -1.253416 0.725026 82
28.737322 -1.359416 0.724279 22
28.736902 -1.467191 0.723349 22
28.736103 -1.574991 0.722419 22
28.750866 -1.684204 0.721365 15
28.753288 -1.792469 0.720405 15
28.775240 -1.902657 0.719288 15
21.546799 -1.470942 0.773717 4
21.128464 -1.508653 0.776314 4
20.686308 -1.540808 0.779124 3
20.043159 -1.702505 0.782187 10
20.026169 -1.774456 0.781664 10
20.024809 -1.848372 0.781013 10
20.014763 -1.925094 0.780396 10
20.012375 -2.002861 0.779714 10
20.013136 -2.085034 0.778969 10
20.002264 -2.161714 0.778354 10
19.995646 -2.235106 0.777736 10
19.996115 -2.313509 0.777023 10
20.004211 -2.393173 0.776243 11
20.015968 -2.473556 0.775430 11
20.019535 -2.552790 0.774683 11
20.030077 -2.637229 0.773838 11
20.044888 -2.718618 0.772989 11
20.095535 -2.802412 0.771868 7
20.098591 -2.878291 0.771149 7
20.087507 -2.963666 0.770439 7
20.105749 -3.042507 0.769584 7
-28.631685 1.032898 0.837918 5
-28.627377 1.125976 0.838699 5
-28.614744 1.218955 0.839517 5
-28.665783 1.312620 0.840045 5
-28.680494 1.406084 0.840737 5
-28.710876 1.499960 0.841358 5
-28.716934 1.593511 0.842086 5
-28.914598 1.692111 0.841974 5
-29.667650 1.808515 0.839455 5
-52.891109 3.019637 0.742621 30
-52.751850 3.369334 0.746040 30
-52.867085 3.552844 0.746965 30
-53.036560 4.106832 0.750555 30
-53.420551 4.310596 0.750394 30
-54.805412 4.585225 0.746201 30
-118.087723 9.277451 0.493196 63
-118.022202 9.680058 0.496628 63
-118.194550 10.101063 0.499106 14
-110.336311 9.865813 0.533212 2
-109.781670 10.578588 0.541241 63
-109.699760 10.950465 0.544471 63
-109.968765 11.336663 0.546201 2
-176.374802 18.927616 0.301169 63
-179.206085 19.812965 0.294989 63
-135.487762 17.058489 0.473271 63
-135.264160 17.503819 0.477628 63
-134.892258 17.929073 0.482498 63
-134.784744 18.386740 0.486400 63
-135.128403 18.928432 0.488869 63
-149.237671 21.326475 0.442643 63
-86.367607 15.344916 0.683250 58
-54.703861 10.348777 0.789870 10
-44.786339 9.037006 0.825067 20
-44.954422 9.224063 0.825644 20
-40.707649 8.558067 0.839961 14
-39.250362 8.401890 0.845385 13
-38.640114 8.413779 0.848201 12
-37.861782 8.386792 0.851493 12
-31.292950 7.145580 0.872133 6
-30.151939 7.106765 0.876953 6
-29.619791 7.087412 0.879190 6
-29.001156 7.050089 0.881685 11
-28.933041 7.133780 0.882567 5
-27.441004 6.981345 0.888142 10
-26.929726 6.953180 0.890216 10
-26.457832 6.930946 0.892154 9
-26.009708 6.911231 0.894002 9
-25.558146 6.887490 0.895836 9
-25.145819 6.870504 0.897541 8
-24.753271 6.855698 0.899172 12
-24.314671 6.826099 0.900904 8
-23.926826 6.806821 0.902481 11
-23.527805 6.781796 0.904066 11
-23.835514 6.946369 0.903816 11
-21.145098 6.640654 0.913551 5
-20.995564 6.886654 0.915805 5
-20.683250 6.933471 0.917458 2
-20.788256 7.180922 0.918593 85
-20.695892 7.368716 0.920184 2
-20.775629 7.469239 0.920478 2
-20.752899 7.534876 0.920989 2
-20.729940 7.600433 0.921498 2
-20.706755 7.665910 0.922007 2
-20.800007 7.773311 0.922282 2
-20.709200 7.963249 0.923845 2
-20.733421 8.046947 0.924259 2
-20.775982 8.138002 0.924639 2
-20.726036 8.190327 0.925170 2
-20.663494 8.241327 0.925745 2
-20.652967 8.312404 0.926222 2
-20.649612 8.386439 0.926686 2
-20.729448 8.722842 0.928380 94
-20.742966 8.805213 0.928817 96
-24.608965 10.693233 0.924059 4
-24.185102 10.695828 0.925818 9
-23.951477 10.680760 0.926687 8
-15.796745 7.145062 0.939378 1
-15.512448 7.075351 0.940133 1
-15.356323 7.061524 0.940689 1
-15.218650 7.055002 0.941211 1
-15.073923 7.044240 0.941736 1
-14.987447 7.059570 0.942175 1
-14.817768 7.035227 0.942721 1
-14.742380 7.054353 0.943135 1
-14.605682 7.043664 0.943624 1
-14.494429 7.044274 0.944074 1
-14.372540 7.038925 0.944532 1
-14.284204 7.046531 0.944929 1
-14.145781 7.028754 0.945381 1
-14.055593 7.039379 0.945799 1
-13.898697 7.013098 0.946276 1
-13.825180 7.025450 0.946636 1
-13.722187 7.024832 0.947040 1
-13.604081 7.018247 0.947469 1
-13.501416 7.016273 0.947862 1
-13.413065 7.021110 0.948236 1
-13.290545 7.004666 0.948625 1
-13.203528 7.006349 0.948974 1
-13.138111 7.026667 0.949340 1
-13.011585 7.008257 0.949732 1
-12.941424 7.019844 0.950067 1
-12.829324 7.007763 0.950435 1
-12.752370 7.014472 0.950768 1
-12.704444 7.034536 0.951060 1
-12.586911 7.014894 0.951406 1
-12.544980 7.040041 0.951701 1
-12.506469 7.066966 0.951991 1
-12.443686 7.079633 0.952297 1
-12.409628 7.106281 0.952567 1
-12.322759 7.104098 0.952885 1
