# .PCD v.7 - Point Cloud Data file format
VERSION .7
FIELDS x y z intensity
SIZE 4 4 4 1
TYPE F F F U
COUNT 1 1 1 1
WIDTH 1547
HEIGHT 1
VIEWPOINT 0 0 0 1 0 0 0
POINTS 1547
DATA ascii
-4.295991 6.086632 0.710943 75
-4.275779 6.087073 0.711341 75
-4.256340 6.091480 0.711563 75
-4.234381 6.092561 0.711964 75
-4.214225 6.092764 0.712359 75
-4.193203 6.093278 0.712757 75
-4.172904 6.097761 0.712978 75
-4.155068 6.105453 0.713019 102
-4.139664 6.116380 0.712881 104
-4.126416 6.135005 0.712389 107
-4.102300 6.127781 0.713138 107
-4.085258 6.134856 0.713175 108
-4.063370 6.135211 0.713570 108
-4.043906 6.138817 0.713785 108
-4.018497 6.127512 0.714708 108
-3.999085 6.130950 0.714922 108
-3.978214 6.130596 0.715312 108
-3.958818 6.133883 0.715525 108
-3.937452 6.129293 0.716089 108
-3.916664 6.128695 0.716478 108
-3.894495 6.124273 0.717042 108
-3.875173 6.127249 0.717252 108
-3.855854 6.130153 0.717462 108
-3.829213 6.110134 0.718731 75
-3.809979 6.112867 0.718939 105
-3.782684 6.092950 0.720208 75
-3.771523 6.118120 0.719354 105
-3.743076 6.094230 0.720798 75
-3.725255 6.100422 0.720827 75
-3.703539 6.095207 0.721386 75
-3.683158 6.093688 0.721767 75
-3.665340 6.099671 0.721794 75
-3.646249 6.101797 0.721998 75
-3.627164 6.103851 0.722201 75
-3.607752 6.101743 0.722578 75
-3.589906 6.107463 0.722603 75
-3.570841 6.109308 0.722805 101
-3.552969 6.114899 0.722829 102
-3.535077 6.120427 0.722852 102
-3.519485 6.133541 0.722522 104
-3.501281 6.134855 0.722720 104
-3.485586 6.147866 0.722389 105
-3.466460 6.149323 0.722587 105
-3.447135 6.146610 0.722959 107
-3.429327 6.155868 0.722804 108
-3.410213 6.157117 0.723000 108
-3.392010 6.158045 0.723195 108
-3.371862 6.155302 0.723567 109
-3.353830 6.160198 0.723585 108
-3.334630 6.157067 0.723954 108
-3.315690 6.162069 0.723972 108
-3.295636 6.159030 0.724342 108
-3.277592 6.163660 0.724358 108
-3.258559 6.164351 0.724549 108
-3.238578 6.161092 0.724917 108
-3.221430 6.165303 0.724930 108
-3.201499 6.161902 0.725297 109
-3.184365 6.170092 0.725134 108
-3.163566 6.162657 0.725675 108
-3.142824 6.159241 0.726041 108
-3.124780 6.163337 0.726052 108
-3.108490 6.171072 0.725887 108
-3.089606 6.167042 0.726249 108
-3.070697 6.167046 0.726435 108
-3.050153 6.159160 0.726974 108
-3.032017 6.167032 0.726807 108
-3.008370 6.143331 0.728049 75
-2.995984 6.170289 0.726999 107
-2.977903 6.173872 0.727006 108
-2.950733 6.130306 0.729128 75
-2.932049 6.129806 0.729310 75
-2.912651 6.125308 0.729668 75
-2.895442 6.132533 0.729497 75
-2.877493 6.135766 0.729502 75
-2.857469 6.127126 0.730034 75
-2.842235 6.145982 0.729333 75
-2.820938 6.129323 0.730217 75
-2.803000 6.132296 0.730220 75
-2.785685 6.139152 0.730045 75
-2.767373 6.133965 0.730399 75
-2.749419 6.136751 0.730400 75
-2.733232 6.151330 0.729872 75
-2.710593 6.122364 0.731281 75
-2.694373 6.136820 0.730752 54
-2.762587 6.910038 0.696564 8
-2.740879 6.904879 0.696914 9
-2.721778 6.911398 0.696735 9
-2.592133 6.182581 0.729328 6
-2.574480 6.188723 0.729147 4
-2.555426 6.182895 0.729495 2
-2.535979 6.173026 0.730018 3
-2.517463 6.171031 0.730189 2
-2.498968 6.168969 0.730358 3
-2.480494 6.166842 0.730528 4
-2.462427 6.168626 0.730520 3
-2.444355 6.170348 0.730512 3
-2.426276 6.172006 0.730504 3
-2.408751 6.169541 0.730672 3
-2.391007 6.175057 0.730486 3
-2.373229 6.180513 0.730299 2
-2.355116 6.181922 0.730289 3
-2.301532 6.197735 0.729725 25
-2.285587 6.234790 0.728125 9
-2.268452 6.255840 0.727230 12
-2.250296 6.260874 0.727040 11
-2.232315 6.269836 0.726673 5
-2.229835 6.582043 0.712902 4
-2.203531 6.431250 0.719588 6
-2.184050 6.420087 0.720101 13
-2.165855 6.440802 0.719202 14
-2.145740 6.409536 0.720595 13
-2.126091 6.386185 0.721636 12
-2.104754 6.294855 0.725676 6
-2.085673 6.271357 0.726716 13
-2.066919 6.255781 0.727402 13
-2.048209 6.236144 0.728265 12
-2.029264 6.188469 0.730363 18
-1.992909 6.176836 0.730851 75
-1.957612 6.188927 0.730279 2
-1.939456 6.192882 0.730080 2
-1.921242 6.200769 0.729704 6
-1.903017 6.204597 0.729504 3
-1.884995 6.192379 0.730010 3
-1.866843 6.192084 0.729985 9
-1.848863 6.183736 0.730313 13
-1.830343 6.199295 0.729581 6
-1.812054 6.202804 0.729378 2
-1.793994 6.198261 0.729528 3
-1.775539 6.205636 0.729147 2
-1.757186 6.208952 0.728943 2
-1.738470 6.220189 0.728384 2
-1.720222 6.219383 0.728355 2
-1.646196 6.927892 0.696812 7
-1.625255 6.930749 0.696601 7
-1.607468 6.897694 0.697983 7
-1.630949 6.198503 0.728912 10
-1.596848 6.164186 0.730264 75
-1.579405 6.166938 0.730056 75
-1.560441 6.165507 0.730021 75
-1.542063 6.168064 0.729810 75
-1.523998 6.166572 0.729776 75
-1.504192 6.184922 0.728855 105
-1.487884 6.163400 0.729705 75
-1.466065 6.201502 0.727898 109
-1.447493 6.203722 0.727684 108
-1.428899 6.205876 0.727470 107
-1.410703 6.203990 0.727432 109
-1.392081 6.206012 0.727216 108
-1.374794 6.204099 0.727180 109
-1.356604 6.202024 0.727140 108
-1.337475 6.207821 0.726746 109
-1.321156 6.197794 0.727062 109
-1.302488 6.199496 0.726844 109
-1.282376 6.204976 0.726446 109
-1.263655 6.206539 0.726226 109
-1.244373 6.211994 0.725829 109
-1.227269 6.201549 0.726141 109
-1.210800 6.187093 0.726630 75
-1.191243 6.200392 0.725878 109
-1.170366 6.209392 0.725298 109
-1.152159 6.206603 0.725253 109
-1.133962 6.203750 0.725208 109
-1.113858 6.212668 0.724628 109
-1.094987 6.213624 0.724404 109
-1.076345 6.218606 0.724003 109
-1.057427 6.219427 0.723777 109
-1.039879 6.212308 0.723907 109
-1.020248 6.216929 0.723502 109
-1.002207 6.217714 0.723277 109
-0.982505 6.222194 0.722871 109
-0.963507 6.222675 0.722642 109
-0.944493 6.223086 0.722413 109
-0.926240 6.219509 0.722362 109
-0.906422 6.223703 0.721953 109
-0.885760 6.231736 0.721366 109
-0.867576 6.232056 0.721137 109
-0.848378 6.228016 0.721080 109
-0.828422 6.231915 0.720669 109
-0.809282 6.231835 0.720436 109
-0.790999 6.227786 0.720380 108
-0.771876 6.231674 0.719970 107
-0.753594 6.227494 0.719913 107
-0.736237 6.219359 0.720035 105
-0.718923 6.211167 0.720156 104
-0.701650 6.202918 0.720276 102
-0.683469 6.198493 0.720218 75
-0.665303 6.194004 0.720159 101
-0.646175 6.193326 0.719920 75
-0.627035 6.192579 0.719682 75
-0.607885 6.191761 0.719442 75
-0.587706 6.194736 0.719023 75
-0.569554 6.189914 0.718961 75
-0.550235 6.192987 0.718544 75
-0.521504 6.226566 0.716691 75
-0.508601 6.202265 0.717523 75
-0.481741 6.227932 0.716026 108
-0.463474 6.222739 0.715961 109
-0.441888 6.228997 0.715358 109
-0.422492 6.227499 0.715112 109
-0.401949 6.229760 0.714687 109
-0.380219 6.235767 0.714082 109
-0.361925 6.230220 0.714014 108
-0.341029 6.236346 0.713411 109
-0.320350 6.238290 0.712983 109
-0.297228 6.247774 0.712195 108
-0.278893 6.241937 0.712125 109
-0.259347 6.239837 0.711874 108
-0.237306 6.245259 0.711264 109
-0.216464 6.246799 0.710832 108
-0.194319 6.252045 0.710220 108
-0.172116 6.257200 0.709607 108
-0.155047 6.247147 0.709713 108
-0.135404 6.244589 0.709459 107
-0.114433 6.245727 0.709024 105
-0.097443 6.235487 0.709128 104
-0.080502 6.225191 0.709233 102
-0.061797 6.222685 0.708980 102
-0.044927 6.212275 0.709083 75
-0.025328 6.209304 0.708825 75
-0.004325 6.210002 0.708387 75
0.018121 6.214355 0.707767 75
0.036338 6.207417 0.707688 75
0.058853 6.211597 0.707067 75
0.077060 6.204517 0.706986 75
0.101109 6.212241 0.706183 75
0.135597 6.245843 0.704113 108
0.153923 6.238496 0.704031 108
0.174319 6.238859 0.703590 75
0.199292 6.250235 0.702606 108
0.220080 6.245975 0.702337 108
0.246125 6.256761 0.701346 108
0.266044 6.252707 0.701080 108
0.289101 6.255928 0.700450 108
0.312871 6.263118 0.699642 108
0.336959 6.265743 0.699006 108
0.358568 6.265008 0.698555 108
0.376041 6.257290 0.698471 107
0.394405 6.249103 0.698381 104
0.412740 6.240851 0.698291 103
0.431046 6.232536 0.698200 75
0.452665 6.231417 0.697746 75
0.472621 6.226586 0.697473 75
0.494270 6.225298 0.697017 75
0.515939 6.223922 0.696560 75
0.541071 6.229671 0.695739 75
0.562805 6.228108 0.695281 75
0.584558 6.226458 0.694823 75
0.611608 6.235482 0.693817 75
0.648460 6.266327 0.691722 108
0.673987 6.271492 0.690896 108
0.697786 6.272974 0.690251 108
0.719819 6.270790 0.689787 108
0.747331 6.279187 0.688776 108
0.773101 6.283906 0.687946 108
0.798937 6.288509 0.687114 107
0.809056 6.265178 0.687748 104
0.830263 6.263030 0.687286 103
0.845799 6.245717 0.687543 75
0.872613 6.249469 0.686704 75
0.893843 6.247069 0.686240 75
0.918924 6.251598 0.685409 75
0.939195 6.245014 0.685121 75
0.966199 6.248318 0.684277 75
0.992349 6.252010 0.683438 75
1.017641 6.256103 0.682604 75
1.045890 6.263033 0.681579 75
1.082188 6.283688 0.679820 107
1.111580 6.289787 0.678787 107
1.139205 6.296824 0.677765 108
1.162857 6.296848 0.677108 107
1.185430 6.292787 0.676628 105
1.204836 6.281222 0.676510 103
1.222135 6.266164 0.676574 75
1.246751 6.265267 0.675909 75
1.268392 6.261418 0.675432 75
1.295159 6.263717 0.674581 75
1.317760 6.259107 0.674097 75
1.346736 6.264560 0.673059 75
1.373656 6.266497 0.672205 75
1.406145 6.279008 0.670803 75
1.428892 6.273952 0.670315 75
1.456904 6.274917 0.669451 75
1.486228 6.279696 0.668407 75
1.516895 6.288282 0.667184 103
1.548583 6.296111 0.665954 103
1.564858 6.280505 0.666015 75
1.587749 6.274803 0.665522 75
1.614199 6.276249 0.664664 75
1.641618 6.276948 0.663799 75
1.671348 6.280816 0.662747 75
1.703421 6.287826 0.661510 75
1.726450 6.281562 0.661011 75
1.758662 6.288284 0.659771 75
1.788659 6.291583 0.658715 75
1.818724 6.294737 0.657657 75
1.839538 6.284760 0.657340 71
1.865011 6.281178 0.656652 69
1.892856 6.280714 0.655777 74
1.927836 6.289783 0.654343 75
1.953426 6.285820 0.653651 75
1.983808 6.288152 0.652586 75
2.010933 6.287833 0.651713 75
2.042912 6.293771 0.650467 75
2.075901 6.298850 0.649212 81
2.108974 6.303763 0.647956 81
2.137249 6.302183 0.647071 81
2.160660 6.294158 0.646558 77
2.184065 6.286035 0.646044 69
2.217356 6.290365 0.644782 80
2.255697 6.300786 0.643146 81
2.289170 6.304762 0.641882 81
2.312698 6.296121 0.641364 81
2.353836 6.309103 0.639536 81
2.380876 6.302538 0.638821 81
2.419696 6.312034 0.637176 81
2.447508 6.309788 0.636287 81
2.466040 6.294370 0.636137 78
2.493877 6.291900 0.635246 73
2.530411 6.297672 0.633783 80
2.564449 6.300213 0.632506 81
2.585550 6.287419 0.632166 81
2.625829 6.294904 0.630503 23
2.756618 6.371741 0.623437 2
2.775365 6.355243 0.623279 2
2.807326 6.353612 0.622180 2
2.836669 6.348846 0.621268 2
2.879412 6.358779 0.619413 3
2.967974 6.380894 0.615508 20
2.973221 6.348960 0.616287 17
2.994603 6.334637 0.615934 13
3.032305 6.337753 0.614448 6
3.064614 6.334849 0.613338 7
3.094218 6.328883 0.612415 11
3.156924 6.357478 0.609223 1
3.203288 6.368406 0.607163 2
3.222020 6.350349 0.606992 1
3.293750 6.313766 0.605348 14
3.357352 6.340739 0.602142 9
3.440991 6.387101 0.597605 15
3.473967 6.382287 0.596479 4
3.506975 6.377306 0.595351 3
3.551437 6.383340 0.593462 3
3.593141 6.386343 0.591761 2
3.652184 6.405768 0.588917 2
3.772010 6.482899 0.582076 3
3.808504 6.479382 0.580746 2
3.859562 6.489398 0.578463 7
3.852490 6.444443 0.579987 3
3.807362 6.328755 0.584955 57
3.861249 6.341036 0.582478 76
3.897587 6.336844 0.581143 70
3.936925 6.335147 0.579616 80
4.032747 6.384027 0.574456 90
4.868207 7.007819 0.524121 0
4.910205 7.002365 0.522560 0
4.408212 6.409876 0.558508 2
4.485658 6.398672 0.555600 16
4.988862 6.617253 0.529144 0
5.005336 6.590459 0.529114 0
5.018585 6.561125 0.529275 0
5.008833 6.515611 0.530798 0
5.024295 6.411706 0.532648 23
5.087334 6.382236 0.530655 72
5.145220 6.385363 0.528098 64
5.225557 6.404969 0.524183 16
13.435721 12.424468 0.030105 4
11.495283 10.623623 0.155456 3
11.610219 10.634457 0.150170 3
11.956919 10.738996 0.132600 7
12.017081 10.708602 0.130602 16
12.011437 10.632520 0.132497 5
12.043313 10.586134 0.132078 5
13.441057 11.465174 0.051119 13
12.303944 10.543217 0.121359 31
12.365462 10.515771 0.119174 16
9.854838 8.669154 0.270178 1
9.804331 8.578057 0.274307 1
9.800441 8.517560 0.275700 1
9.782784 8.448614 0.277877 1
9.791828 8.396926 0.278489 1
9.749845 8.313489 0.282043 1
9.754950 8.259928 0.282854 1
9.749617 8.200137 0.284254 1
9.754237 8.146720 0.285066 1
9.751796 8.089217 0.286272 1
9.768407 8.046220 0.286318 1
9.799808 8.009331 0.285558 1
9.800154 7.953988 0.286569 1
9.820927 7.910870 0.286399 1
9.772506 7.827459 0.290171 1
9.778988 7.776464 0.290791 1
9.795654 7.731470 0.290820 1
9.812150 7.686442 0.290850 1
9.830793 7.645402 0.290700 1
9.837654 7.592385 0.291303 1
9.829171 7.533712 0.292716 1
9.850787 7.494580 0.292369 1
9.862883 7.447567 0.292596 1
9.885331 7.406257 0.292230 1
9.904117 7.362978 0.292061 1
9.926270 7.321524 0.291694 1
9.983605 7.298652 0.289343 1
10.030307 7.269897 0.287585 1
10.066317 7.235368 0.286420 1
10.101149 7.202769 0.285273 1
10.151205 7.175165 0.283310 1
10.197651 7.145482 0.281545 1
10.270101 7.125960 0.278365 1
10.373697 7.124148 0.273409 4
10.411866 7.092049 0.272052 4
10.547920 7.104974 0.265292 1
10.712976 7.130959 0.256930 3
10.867558 7.150677 0.249157 4
10.917822 7.119597 0.247166 3
11.104251 7.155288 0.237600 3
11.342801 7.211189 0.225206 1
11.527526 7.240302 0.215799 1
11.654525 7.241527 0.209583 1
11.792603 7.246905 0.202759 1
11.905391 7.239902 0.197330 1
12.070455 7.252543 0.189067 1
12.234702 7.266536 0.180816 1
12.391897 7.276252 0.172958 1
12.515251 7.273162 0.166920 1
12.687548 7.287287 0.158242 1
12.845415 7.294024 0.150359 1
12.981419 7.290422 0.143673 1
13.110203 7.282868 0.137383 1
13.261266 7.283650 0.129877 1
13.429576 7.230938 0.122121 1
17.863535 8.784363 -0.116541 2
17.880123 8.631416 -0.115722 5
17.909058 8.567004 -0.116495 5
17.972729 8.511703 -0.119120 2
17.841646 8.383389 -0.111220 2
17.795158 8.209313 -0.107148 25
17.816450 8.138950 -0.107542 23
17.818684 8.061802 -0.106921 11
17.777973 7.973521 -0.104037 5
17.794657 7.901939 -0.104225 5
17.848835 7.843388 -0.106447 2
17.804569 7.750925 -0.103383 2
17.650156 7.621741 -0.094414 2
17.684534 7.480912 -0.094984 2
17.657675 7.396177 -0.092924 5
17.717903 7.339926 -0.095553 2
17.572453 7.217801 -0.087166 2
17.563560 7.139978 -0.086118 5
17.553305 7.065699 -0.085040 5
17.536180 6.985804 -0.083581 5
17.587540 6.926998 -0.085801 2
17.425440 6.730269 -0.076121 5
17.414656 6.653598 -0.075062 5
17.415085 6.580394 -0.074617 5
17.472872 6.523666 -0.077246 2
17.438198 6.440669 -0.074954 2
17.415161 6.223188 -0.072523 25
17.365265 5.989598 -0.068725 2
17.209799 5.806856 -0.059776 21
17.161194 5.585860 -0.056296 2
17.095457 5.499765 -0.052526 2
17.079931 5.425968 -0.051437 2
17.091375 5.358584 -0.051794 2
17.094040 5.292742 -0.051710 2
17.081617 5.220139 -0.050825 2
17.065741 5.143501 -0.049759 2
17.017603 5.063648 -0.047006 2
16.972353 4.988310 -0.044428 2
16.958786 4.916516 -0.043535 2
16.918222 4.835982 -0.041215 2
16.837496 4.751249 -0.036787 2
16.842642 4.684069 -0.036926 2
16.804403 4.608578 -0.034777 2
16.777641 4.535627 -0.033249 2
16.707397 4.454888 -0.029429 2
16.706968 4.390816 -0.029326 2
16.687237 4.320016 -0.028208 2
16.666674 4.252645 -0.027061 2
16.650915 4.179628 -0.026175 2
16.642210 4.111337 -0.025678 2
16.652964 4.046382 -0.026224 2
16.596443 3.970621 -0.023218 2
16.575136 3.900869 -0.022089 2
16.537283 3.832107 -0.020095 2
16.527792 3.761329 -0.019617 2
16.529421 3.695619 -0.019739 2
16.546633 3.632190 -0.020699 2
16.543846 3.565919 -0.020611 2
16.473532 3.490572 -0.016957 2
16.489614 3.430476 -0.017888 2
16.442528 3.358919 -0.015486 2
16.430840 3.292185 -0.014973 2
16.399082 3.223150 -0.013407 2
16.390871 3.157175 -0.013101 2
16.338768 3.086284 -0.010478 2
16.306246 3.017987 -0.008905 2
16.293327 2.952077 -0.008383 2
16.307983 2.889173 -0.009336 2
16.278704 2.821800 -0.007969 2
16.241224 2.753884 -0.006177 2
16.266832 2.695375 -0.007735 2
16.244799 2.629232 -0.006785 2
16.242422 2.564985 -0.006891 2
16.192051 2.496809 -0.004458 2
16.240973 2.436918 -0.007312 2
16.162243 2.367018 -0.003392 2
16.186831 2.305193 -0.004976 2
16.171360 2.240465 -0.004442 2
16.151670 2.175599 -0.003694 2
16.175409 2.116769 -0.005252 2
16.151108 2.054981 -0.004264 2
16.106829 1.989106 -0.002238 2
16.074278 1.924173 -0.000847 2
16.081390 1.861407 -0.001579 2
16.016459 1.795385 0.001517 2
15.971242 1.730650 0.003554 2
15.965708 1.667750 0.003463 2
15.967937 1.605172 0.002947 2
15.953978 1.542094 0.003284 2
15.959761 1.479666 0.002556 2
15.945361 1.416729 0.002894 2
15.914766 1.353573 0.004088 2
15.848005 1.290031 0.007208 2
15.840969 1.224652 0.007099 2
15.777747 1.161892 0.010011 2
15.774199 1.103044 0.009742 2
15.754488 1.041080 0.010304 2
15.718585 0.982350 0.011750 2
15.706441 0.920685 0.011887 2
15.650146 0.859431 0.014385 2
15.621598 0.798264 0.015383 2
15.592793 0.734231 0.016359 2
15.591765 0.672960 0.015857 2
15.566632 0.615268 0.016671 2
15.557204 0.554288 0.016601 2
15.507639 0.494501 0.018683 2
15.501783 0.433656 0.018400 2
15.443825 0.374681 0.020918 2
15.425460 0.311518 0.021260 2
15.434930 0.250324 0.020119 2
15.404427 0.193923 0.021159 2
-20.164101 1.048474 0.028708 2
-20.191774 1.112199 0.027799 2
-20.219225 1.176118 0.026892 2
-20.234468 1.240066 0.026598 2
-20.273455 1.304534 0.025081 2
-20.284252 1.368699 0.024992 2
-20.302814 1.433137 0.024497 2
-20.317156 1.497598 0.024206 2
-20.343348 1.559330 0.023278 2
-20.345268 1.623627 0.023599 2
-20.414825 1.690521 0.020464 2
-20.460192 1.756916 0.018552 2
-20.505320 1.823635 0.016642 2
-20.534245 1.889906 0.015547 2
-20.531017 1.954731 0.016074 2
-20.551497 2.020870 0.015386 6
-20.539913 2.150376 0.016643 12
-20.559536 2.278739 0.016255 2
-20.586826 2.345969 0.015165 2
-20.605906 2.412798 0.014480 2
-20.617041 2.475885 0.014174 2
-20.611498 2.544250 0.014728 2
-20.645784 2.612797 0.013239 2
-20.644012 2.678366 0.013565 2
-20.665874 2.746183 0.012683 2
-20.667610 2.812236 0.012808 2
-20.677061 2.879125 0.012531 2
-20.682640 2.942420 0.012429 2
-20.707514 3.011182 0.011349 2
-20.712284 3.077930 0.011274 2
-20.736660 3.147017 0.010196 2
-20.733009 3.213010 0.010523 2
-20.752922 3.281905 0.009647 2
-20.756727 3.348977 0.009574 2
-20.760292 3.416103 0.009501 2
-20.850744 3.494835 0.005024 2
-20.849831 3.561833 0.005153 2
-20.856592 3.629960 0.004883 2
-20.851715 3.693168 0.005186 2
-20.874296 3.760427 0.004091 2
-20.872438 3.827612 0.004221 2
-20.870344 3.894819 0.004351 2
-20.868010 3.962044 0.004481 2
-20.877798 4.027891 0.003986 2
-20.898104 4.102384 0.002947 2
-20.902357 4.174417 0.002706 2
-20.895657 4.237884 0.003009 2
-20.916292 4.306160 0.001920 2
-20.928225 4.376517 0.001255 2
-20.931437 4.448876 0.001015 2
-20.974264 4.525295 -0.001236 2
-20.974237 4.590553 -0.001329 2
-20.977272 4.659925 -0.001594 2
-21.007494 4.734756 -0.003246 2
-21.049177 4.812196 -0.005491 2
-21.046814 4.884525 -0.005528 2
-21.041643 4.949416 -0.005421 2
-21.055799 5.018437 -0.006303 2
-21.064371 5.093427 -0.006933 2
-21.061668 5.162640 -0.006997 2
-21.078217 5.236216 -0.008048 2
-21.047718 5.299399 -0.006729 2
-21.060608 5.368916 -0.007609 2
-21.122276 5.457027 -0.010998 2
-21.118258 5.526644 -0.011060 2
-21.125641 5.599090 -0.011712 2
-21.117226 5.667851 -0.011577 2
-21.136536 5.739992 -0.012846 2
-21.081961 5.939524 -0.011067 19
-21.056868 6.004207 -0.010148 7
-21.152594 6.172805 -0.015766 7
-21.039007 6.285285 -0.010795 21
-20.997358 6.345353 -0.009097 23
-20.994892 6.412827 -0.009384 19
-20.929813 6.465935 -0.006516 4
-21.063995 6.576969 -0.013815 4
-20.963961 6.619783 -0.009190 19
-20.955702 6.689523 -0.009256 14
-20.943365 6.758113 -0.009127 11
-20.924160 6.821026 -0.008634 7
-20.915434 7.036274 -0.009810 19
-20.891504 7.097866 -0.009125 14
-20.889086 7.170106 -0.009582 11
-20.840872 7.227364 -0.007705 7
-20.872620 7.384605 -0.010564 2
-20.846432 7.449285 -0.009856 2
-20.842676 7.521695 -0.010313 2
-17.991970 6.787418 0.133844 1
-17.915373 6.822763 0.137181 5
-17.891191 6.877032 0.137806 3
-17.889284 6.939590 0.137270 3
-17.849752 6.988097 0.138666 3
-17.803665 7.030788 0.140426 1
-17.752682 7.074559 0.142397 3
-17.712755 7.122397 0.143788 3
-17.847437 7.238761 0.136114 1
-17.940655 7.339911 0.130568 3
-17.933249 7.401603 0.130227 1
-17.929308 7.464822 0.129694 3
-17.928818 7.529605 0.128969 1
-17.931761 7.595991 0.128052 1
-17.916002 7.654777 0.128096 1
-17.933161 7.727509 0.126411 2
-17.946327 7.798875 0.124919 2
-17.932301 7.862154 0.124793 2
-17.946096 7.930989 0.123281 4
-17.963270 8.001595 0.121578 4
-17.927761 8.052560 0.122581 4
-17.917627 8.114765 0.122241 4
-17.845333 8.149077 0.125156 2
-17.849482 8.284797 0.123134 6
-17.834822 8.345251 0.122984 6
-17.827171 8.409076 0.122452 4
-17.822882 8.474642 0.121728 4
-13.995878 6.873118 0.321012 4
-13.849867 6.853243 0.327998 4
-13.754225 6.857335 0.332311 4
-13.712264 6.887712 0.333765 2
-13.655977 6.910650 0.335978 5
-13.524945 6.895111 0.342180 2
-13.408375 6.886047 0.347616 5
-13.059907 6.854414 0.363888 1
-13.018229 6.881847 0.365318 1
-12.900087 6.865549 0.370902 1
-12.824341 6.871358 0.374207 1
-12.750130 6.882409 0.377347 1
-12.631513 6.866072 0.382930 1
-12.548075 6.868374 0.386615 1
-12.503102 6.891633 0.388216 1
-12.277622 6.860363 0.398780 1
-12.198165 6.862543 0.402260 1
-12.136113 6.874241 0.404792 1
-12.067202 6.881553 0.407699 1
-11.963914 6.868214 0.412487 1
-11.885933 6.866747 0.415939 1
-11.820772 6.874737 0.418647 1
-11.699872 6.851092 0.424376 1
-11.658873 6.872619 0.425759 1
-11.556478 6.856419 0.430525 1
-11.492759 6.860968 0.433206 1
-11.428090 6.866812 0.435897 1
-11.356723 6.868038 0.438960 1
-11.282084 6.866707 0.442207 3
-11.207567 6.864927 0.445451 1
-11.123083 6.856236 0.449254 1
-11.045487 6.851358 0.452679 1
-10.974738 6.850367 0.455724 1
-10.913628 6.899946 0.457312 7
-11.718638 6.841035 0.490006 1
-11.643441 6.841987 0.492900 1
-11.582010 6.850801 0.495130 1
-11.455922 6.819530 0.500490 1
-11.418535 6.842125 0.501560 1
-11.360760 6.851841 0.503617 1
-11.255656 6.831455 0.507974 1
-11.187951 6.833929 0.510518 1
-11.124733 6.836551 0.512882 1
-11.034700 6.821535 0.516557 1
-10.970692 6.824932 0.518927 1
-10.930200 6.843243 0.520144 1
-10.869653 6.848167 0.522344 1
-10.762537 6.821838 0.526837 1
-10.712223 6.832555 0.528538 1
-10.678524 6.854146 0.529419 1
-10.628238 6.864361 0.531116 1
-10.505372 6.824717 0.536411 1
-10.448746 6.829591 0.538429 1
-10.405329 6.843247 0.539791 1
-10.368474 6.861248 0.540825 1
-10.252304 6.908044 0.544231 9
-10.107275 6.849717 0.550648 4
-10.025290 6.833564 0.553952 4
-9.976822 6.839074 0.555613 4
-9.930605 6.848084 0.557119 4
-9.858726 6.837818 0.559926 11
-9.806238 6.841458 0.561753 13
-9.763409 6.852005 0.563090 2
-9.695104 6.843031 0.565725 2
-9.636494 6.840921 0.567869 4
-9.619205 6.870112 0.567901 2
-9.545919 6.853923 0.570843 1
-9.487574 6.850901 0.572981 1
-9.460792 6.872206 0.573495 1
-9.421407 6.883486 0.574656 1
-9.394546 6.904516 0.575168 1
-9.358272 6.917933 0.576165 1
-9.343766 6.948740 0.576027 1
-9.310527 6.964392 0.576860 1
-9.298918 6.997606 0.576560 1
-9.287166 7.030812 0.576259 1
-9.250671 7.043583 0.577250 1
-9.255099 7.088231 0.576133 1
-9.227665 7.108508 0.576638 1
-9.200178 7.128668 0.577142 1
-9.187836 7.161687 0.576839 1
-9.166261 7.186877 0.577020 1
-9.171788 7.235539 0.575750 1
-9.137907 7.250165 0.576573 1
-9.113020 7.272542 0.576913 1
-9.109020 7.313358 0.576126 1
-9.080342 7.465096 0.573613 1
-9.061790 7.491368 0.573620 1
-9.065512 7.540497 0.572352 1
-9.039686 7.562539 0.572687 1
-9.063426 7.630881 0.570299 1
-9.034393 7.650154 0.570794 1
-9.048820 7.710553 0.568887 1
-9.030566 7.787573 0.567635 1
-9.026908 7.831670 0.566690 1
-9.060232 7.912095 0.563668 4
-9.064559 7.964835 0.562244 1
-9.064145 8.010829 0.561132 1
-9.062270 8.058137 0.560029 3
-9.077091 8.122492 0.557969 1
-9.077482 8.172841 0.556707 1
-9.083215 8.228977 0.555127 1
-9.155683 8.353848 0.549726 1
-9.143864 8.393259 0.549104 1
-9.195643 8.498874 0.544822 1
-10.699402 10.251533 0.453639 25
-10.631508 10.244065 0.455914 19
-10.565385 10.234735 0.458177 16
-10.495096 10.223623 0.460606 20
-10.430395 10.218023 0.462714 24
-10.365838 10.212084 0.464820 26
-10.306789 10.211734 0.466607 34
-10.247847 10.211084 0.468390 32
-10.189010 10.210135 0.470172 34
-10.124979 10.202907 0.472268 36
-10.069020 10.204344 0.473887 38
-10.007892 10.199485 0.475820 40
-9.953741 10.198954 0.477424 40
-9.898077 10.199552 0.479036 42
-9.842505 10.199872 0.480646 44
-9.787029 10.199918 0.482254 42
-9.721338 10.187470 0.484491 44
-9.668665 10.189994 0.485937 42
-9.616068 10.192264 0.487380 42
-9.563550 10.194278 0.488822 43
-9.513646 10.199127 0.490103 45
-9.453705 10.191345 0.492014 46
-9.401450 10.192581 0.493449 39
-9.341770 10.184214 0.495355 37
-9.294698 10.191170 0.496471 37
-9.247666 10.197909 0.497586 39
-9.194875 10.193742 0.499162 37
-9.144650 10.192477 0.500580 37
-9.088012 10.185907 0.502318 31
-9.038820 10.188557 0.503582 31
-8.996976 10.200503 0.504374 28
-8.947888 10.202717 0.505635 26
-8.898871 10.204700 0.506894 26
-8.849925 10.206453 0.508152 24
-8.801052 10.207978 0.509407 22
-8.756994 10.215709 0.510348 24
-8.708246 10.216793 0.511600 24
-8.659574 10.217649 0.512850 28
-8.613315 10.221521 0.513942 31
-8.563174 10.223084 0.515197 36
-8.514722 10.223261 0.516442 42
-8.465657 10.218809 0.517835 45
-8.417377 10.218534 0.519076 49
-8.358449 10.206022 0.520949 50
-8.314255 10.207442 0.522024 47
-8.274635 10.215267 0.522784 50
-8.224440 10.210802 0.524175 52
-8.178821 10.212727 0.525252 54
-8.131042 10.211123 0.526483 54
-8.077321 10.203708 0.528032 56
-8.029740 10.201640 0.529260 52
-7.986625 10.206042 0.530174 47
-7.950080 10.220315 0.530619 33
-5.263350 6.117385 0.722061 13
-5.187693 6.075630 0.725163 81
-5.161408 6.073336 0.725856 106
-5.139416 6.077700 0.726238 106
-5.111113 6.071781 0.727085 103
-5.089173 6.075940 0.727465 106
-5.067243 6.080007 0.727844 104
-5.045322 6.083983 0.728222 102
-5.019294 6.081017 0.728910 102
-4.993325 6.077931 0.729598 103
-4.975553 6.088487 0.729662 103
-4.952566 6.088116 0.730190 106
-4.928725 6.088168 0.730719 106
-4.904921 6.088115 0.731248 106
-4.877178 6.081022 0.732087 106
-4.853472 6.080748 0.732614 106
-4.832654 6.083351 0.732982 106
-4.807947 6.078897 0.733660 106
-4.783466 6.078814 0.734188 106
-4.757097 6.075118 0.734870 106
-4.735508 6.077832 0.735238 106
-4.715837 6.083972 0.735450 106
-4.694267 6.086515 0.735817 106
-4.675480 6.092025 0.736026 106
-4.652954 6.090397 0.736543 106
-4.631433 6.092683 0.736908 107
-4.611771 6.098428 0.737117 107
-4.593930 6.107652 0.737171 109
-4.574240 6.113253 0.737379 108
-4.541023 6.094264 0.738672 106
-4.518713 6.092075 0.739185 106
-4.497337 6.093816 0.739545 106
-4.475088 6.095909 0.739907 106
-4.453749 6.097473 0.740266 106
-4.426354 6.084127 0.741240 106
-4.405995 6.085071 0.741595 106
-4.384768 6.086358 0.741952 106
-4.363561 6.087559 0.742308 106
-4.342375 6.088674 0.742664 106
-4.315285 6.079234 0.743484 106
-4.295846 6.083790 0.743684 106
-4.274752 6.084633 0.744037 106
-4.257851 6.092280 0.744079 106
-4.236776 6.092968 0.744432 106
-4.215725 6.093572 0.744783 106
-4.195587 6.093700 0.745132 106
-4.175283 6.098192 0.745330 106
-4.155868 6.102220 0.745525 106
-4.137344 6.105794 0.745718 107
-4.117928 6.109679 0.745912 108
-4.098511 6.113491 0.746106 109
-4.085200 6.132005 0.745683 110
-4.074814 6.157887 0.744952 112
-4.047763 6.143010 0.745914 112
-4.030671 6.149903 0.745950 112
-4.008226 6.145955 0.746448 112
-3.987860 6.149706 0.746640 112
-3.949557 6.104600 0.748829 106
-3.931698 6.111513 0.748864 106
-3.909015 6.103082 0.749512 106
-3.889751 6.106113 0.749699 106
-3.869092 6.105328 0.750040 106
-3.855385 6.123209 0.749611 106
-3.827862 6.103511 0.750719 106
-3.805933 6.098722 0.751211 106
-3.787642 6.101050 0.751394 106
-3.769356 6.103313 0.751577 106
-3.751503 6.109597 0.751606 106
-3.729707 6.104486 0.752096 106
-3.707968 6.099286 0.752585 106
-3.688849 6.101569 0.752767 106
-3.669735 6.103781 0.752948 106
-3.651880 6.109716 0.752975 106
-3.632765 6.111791 0.753155 106
-3.613320 6.109701 0.753486 106
-3.594231 6.111632 0.753665 106
-3.575455 6.117586 0.753690 106
-3.556365 6.119377 0.753868 106
-3.539353 6.124641 0.753890 106
-3.518208 6.122745 0.754221 106
-3.501184 6.127882 0.754243 106
-3.483247 6.133230 0.754265 106
-3.464169 6.134678 0.754439 107
-3.446208 6.139896 0.754460 108
-3.427135 6.141208 0.754634 108
-3.408070 6.142448 0.754807 109
-3.398788 6.182388 0.753448 112
-3.381568 6.187129 0.753466 112
-3.364332 6.191814 0.753483 112
-3.338974 6.169645 0.754573 112
-3.310743 6.135766 0.756122 106
-3.302793 6.179144 0.754607 112
-3.284678 6.183799 0.754623 112
-3.264598 6.180637 0.754945 112
-3.234948 6.138600 0.756797 106
-3.215081 6.135252 0.757118 106
-3.197119 6.139600 0.757131 106
-3.178222 6.139997 0.757298 106
-3.161151 6.148109 0.757157 106
-3.139573 6.136685 0.757782 106
-3.120728 6.136871 0.757946 106
-3.102761 6.140891 0.757957 106
-3.084827 6.140746 0.758120 106
-3.066008 6.140732 0.758283 106
-3.046377 6.136738 0.758599 106
-3.027600 6.136585 0.758761 106
-3.008837 6.136363 0.758922 106
-2.990088 6.136072 0.759083 106
-2.972896 6.143557 0.758937 106
-2.952635 6.135286 0.759403 106
-2.935419 6.142646 0.759256 106
-2.916703 6.142089 0.759415 106
-2.897288 6.137531 0.759726 106
-2.879516 6.136675 0.759884 106
-2.861760 6.135758 0.760041 106
-2.845827 6.150692 0.759585 106
-2.825826 6.141927 0.760047 106
-2.806547 6.137028 0.760356 106
-2.788581 6.139951 0.760358 106
-2.769364 6.134914 0.760665 106
-2.751406 6.137707 0.760666 106
-2.735219 6.152296 0.760208 103
-2.713722 6.131240 0.761126 106
-2.696344 6.137796 0.760972 58
-2.765335 6.907074 0.731444 3
-2.744158 6.905886 0.731594 4
-2.721976 6.896694 0.732050 5
-2.575526 6.189861 0.759576 3
-2.558746 6.203890 0.759112 1
-2.538338 6.186085 0.759872 1
-2.519775 6.184097 0.760019 1
-2.499990 6.170116 0.760625 3
-2.482815 6.171878 0.760618 4
-2.464342 6.169692 0.760764 4
-2.446265 6.171420 0.760756 3
-2.428541 6.177066 0.760595 3
-2.410439 6.178668 0.760586 3
-2.392330 6.180209 0.760576 3
-2.374217 6.181685 0.760566 1
-2.356402 6.187084 0.760403 2
-2.338845 6.196408 0.760085 3
-2.282336 6.168172 0.761274 106
-2.267313 6.221138 0.759270 20
-2.232540 6.239073 0.758630 9
-2.214609 6.247977 0.758309 10
-2.196440 6.252826 0.758141 10
-2.178239 6.257612 0.757971 10
-2.159705 6.254346 0.758108 10
-2.141197 6.251016 0.758244 16
-2.122838 6.251615 0.758227 13
-2.104258 6.244160 0.758515 8
-2.085252 6.216659 0.759569 25
-2.066604 6.197083 0.760317 45
-2.047755 6.157457 0.761830 106
-2.029885 6.169721 0.761350 106
-1.993917 6.198060 0.760236 1
-1.975768 6.206140 0.759908 1
-1.957572 6.194171 0.760346 2
-1.939460 6.182139 0.760783 4
-1.921253 6.194026 0.760300 3
-1.904045 6.189871 0.760431 3
-1.868041 6.173366 0.760996 13
-1.850102 6.208998 0.759591 4
-1.831989 6.204586 0.759719 1
-1.813570 6.212097 0.759386 1
-1.795475 6.207558 0.759513 1
-1.776990 6.214941 0.759179 1
-1.757693 6.218228 0.758996 1
-1.740195 6.221521 0.758815 1
-1.689594 6.931460 0.731446 5
-1.668023 6.926436 0.731565 5
-1.647731 6.917397 0.731838 5
-1.627860 6.920318 0.731651 6
-1.611205 6.851292 0.734229 6
-1.615406 6.170713 0.760294 56
-1.597330 6.169478 0.760261 106
-1.580455 6.164259 0.760384 106
-1.562095 6.166888 0.760197 106
-1.544033 6.165466 0.760163 106
-1.524739 6.167889 0.759973 106
-1.507577 6.166417 0.759940 106
-1.489155 6.168786 0.759751 106
-1.471087 6.167110 0.759715 106
-1.452245 6.173327 0.759371 106
-1.433758 6.175498 0.759180 106
-1.415181 6.169559 0.759295 106
-1.396678 6.171599 0.759103 106
-1.378601 6.169600 0.759064 106
-1.360975 6.171613 0.758873 106
-1.341952 6.177428 0.758525 106
-1.324828 6.167304 0.758794 106
-1.306266 6.169020 0.758599 106
-1.288074 6.174750 0.758252 106
-1.269459 6.176335 0.758056 106
-1.250283 6.181812 0.757705 106
-1.233281 6.171386 0.757971 106
-1.212361 6.188599 0.757156 106
-1.194808 6.182002 0.757266 106
-1.176099 6.183251 0.757068 106
-1.158888 6.180622 0.757025 106
-1.140781 6.177793 0.756980 106
-1.115674 6.218306 0.755234 112
-1.101992 6.187721 0.756269 106
-1.077213 6.224107 0.754676 112
-1.056919 6.232810 0.754164 112
-1.037938 6.233561 0.753961 112
-1.018941 6.234244 0.753757 112
-0.999208 6.238790 0.753398 112
-0.980165 6.239332 0.753193 112
-0.961107 6.239806 0.752988 112
-0.942794 6.236287 0.752937 112
-0.922945 6.240545 0.752575 112
-0.903054 6.244730 0.752213 112
-0.885526 6.237092 0.752315 112
-0.862330 6.256786 0.751331 112
-0.843959 6.252922 0.751277 112
-0.824759 6.252900 0.751067 112
-0.813309 6.221776 0.752101 109
-0.796841 6.214042 0.752204 108
-0.776826 6.213642 0.751990 108
-0.760412 6.205793 0.752091 108
-0.741310 6.205465 0.751879 107
-0.721286 6.204852 0.751664 106
-0.703069 6.204600 0.751453 106
-0.683931 6.204063 0.751239 106
-0.664836 6.199350 0.751177 106
-0.644711 6.202548 0.750807 106
-0.626448 6.202029 0.750594 106
-0.608269 6.197341 0.750533 106
-0.588072 6.200321 0.750161 106
-0.570808 6.195742 0.750102 106
-0.550699 6.194473 0.749881 106
-0.520908 6.231919 0.748104 23
-0.506912 6.211460 0.748664 56
-0.490696 6.202765 0.748759 106
-0.472515 6.197604 0.748694 106
-0.451222 6.199795 0.748314 106
-0.431711 6.202433 0.747940 106
-0.411256 6.204729 0.747561 106
-0.387553 6.214326 0.746867 106
-0.370498 6.204981 0.746955 106
-0.350864 6.207320 0.746578 106
-0.319290 6.247740 0.744637 112
-0.297342 6.253415 0.744099 112
-0.274117 6.262806 0.743403 112
-0.257272 6.248986 0.743641 112
-0.232386 6.266101 0.742635 112
-0.213986 6.260037 0.742562 112
-0.194690 6.253602 0.742486 112
-0.175050 6.251192 0.742256 110
-0.158000 6.241148 0.742339 110
-0.141913 6.231367 0.742425 108
-0.124548 6.225308 0.742354 108
-0.103621 6.226403 0.741965 106
-0.084012 6.223653 0.741733 106
-0.064849 6.216741 0.741653 106
-0.045247 6.213846 0.741419 106
-0.023778 6.218712 0.740874 106
-0.004144 6.215664 0.740639 106
0.016907 6.216281 0.740246 106
0.035131 6.209348 0.740167 106
0.056211 6.209808 0.739773 106
0.078772 6.213908 0.739220 106
0.101386 6.217913 0.738667 106
0.124052 6.221825 0.738113 106
0.142295 6.214517 0.738031 106
0.172552 6.236768 0.736687 103
0.189329 6.225594 0.736761 106
0.210646 6.225443 0.736362 106
0.235075 6.232581 0.735646 106
0.252442 6.225272 0.735565 106
0.278539 6.235898 0.734690 106
0.328460 6.301465 0.731444 115
0.333305 6.264523 0.732624 110
0.348482 6.249165 0.732852 109
0.369355 6.244322 0.732600 108
0.389307 6.239807 0.732353 106
0.409986 6.239272 0.731951 106
0.431602 6.238241 0.731544 106
0.453241 6.237122 0.731136 106
0.473985 6.236341 0.730732 106
0.493971 6.231432 0.730481 106
0.518281 6.233243 0.729908 106
0.542638 6.234945 0.729334 106
0.566943 6.241023 0.728609 106
0.587825 6.239805 0.728201 106
0.611401 6.241648 0.727629 106
0.635936 6.242937 0.727051 106
0.661382 6.248150 0.726319 106
0.689568 6.260854 0.725272 106
0.707944 6.251573 0.725173 106
0.731746 6.252903 0.724597 104
0.755591 6.254130 0.724019 102
0.781321 6.258801 0.723281 53
0.804340 6.260299 0.722707 102
0.824582 6.254150 0.722446 103
0.847613 6.250960 0.722019 104
0.874447 6.254710 0.721273 106
0.896614 6.251809 0.720850 106
0.917877 6.249319 0.720431 106
0.941085 6.250245 0.719852 106
0.970052 6.257040 0.718942 106
0.992323 6.253751 0.718515 106
1.021555 6.264808 0.717453 106
1.047857 6.268258 0.716705 106
1.070238 6.264657 0.716276 106
1.094633 6.264422 0.715686 105
1.123093 6.270985 0.714774 102
1.145555 6.267079 0.714342 101
1.170066 6.266519 0.713749 79
1.188458 6.255559 0.713637 78
1.216207 6.262207 0.712727 78
1.240806 6.261336 0.712131 81
1.267525 6.263766 0.711374 102
1.294299 6.266074 0.710616 103
1.314799 6.258076 0.710339 103
1.343769 6.263547 0.709418 103
1.372818 6.268880 0.708495 104
1.401944 6.274074 0.707572 80
1.431146 6.279129 0.706647 103
1.456087 6.277329 0.706043 102
1.481057 6.275421 0.705439 102
1.508247 6.276743 0.704672 79
1.531080 6.271273 0.704227 78
1.556132 6.269033 0.703619 74
1.578984 6.263364 0.703173 73
1.605397 6.264843 0.702408 78
1.636357 6.272813 0.701319 79
1.666070 6.276707 0.700384 78
1.693583 6.277169 0.699610 81
1.718859 6.274223 0.698996 78
1.751044 6.280981 0.697895 79
1.781014 6.284314 0.696956 79
1.811053 6.287503 0.696014 78
1.841159 6.290546 0.695072 76
1.864311 6.283724 0.694615 74
1.887461 6.276805 0.694158 74
1.915336 6.276235 0.693375 68
1.943254 6.275535 0.692590 71
1.971213 6.274704 0.691805 73
2.001611 6.276941 0.690855 76
2.033557 6.282917 0.689749 78
2.066510 6.288035 0.688634 78
2.099547 6.292988 0.687517 84
2.130227 6.294611 0.686562 82
2.158516 6.292926 0.685769 82
2.187768 6.290384 0.684968 78
2.213658 6.285290 0.684336 75
2.243609 6.287073 0.683384 70
2.272046 6.284854 0.682586 70
2.300519 6.282502 0.681788 70
2.341612 6.295537 0.680169 66
2.372736 6.295967 0.679204 77
2.408993 6.302418 0.677910 78
2.435149 6.296368 0.677270 80
2.468997 6.299407 0.676137 78
2.500349 6.299214 0.675166 75
2.531753 6.298867 0.674194 70
2.558024 6.292281 0.673550 70
2.579099 6.279510 0.673233 80
2.626272 6.296896 0.671271 28
2.743918 6.358740 0.665864 1
2.789063 6.372255 0.664059 1
2.807813 6.355644 0.663899 1
2.837165 6.350882 0.663080 2
2.877243 6.357854 0.661599 2
2.960415 6.374105 0.658467 11
2.989995 6.368659 0.657641 4
3.081057 6.316436 0.655985 20
3.105124 6.304593 0.655486 11
3.176215 6.341664 0.652167 8
3.202255 6.333225 0.651507 6
3.243161 6.338088 0.650008 3
3.292554 6.351295 0.648009 9
3.325261 6.347152 0.647004 4
3.391803 6.376868 0.644002 9
3.438831 6.386407 0.642162 7
3.477480 6.387236 0.640818 2
3.504816 6.376638 0.640140 2
3.549280 6.382689 0.638460 2
3.599584 6.394067 0.636444 2
3.678789 6.432914 0.632757 1
3.784298 6.496162 0.627563 2
3.824528 6.459680 0.627029 5
3.810581 6.410369 0.628689 6
3.816943 6.339067 0.630144 55
3.859105 6.340509 0.628615 56
3.900413 6.342744 0.627094 56
3.936813 6.338364 0.625897 50
4.024677 6.378217 0.621835 53
4.874131 7.016786 0.576711 1
4.916162 7.011322 0.575312 1
4.970107 6.973617 0.574192 1
4.986866 6.948000 0.574148 1
4.474384 6.390673 0.605194 16
4.524829 6.392634 0.603288 26
4.579646 6.401673 0.601061 9
5.023898 6.685613 0.578465 1
5.003348 6.628505 0.580441 1
5.012655 6.597868 0.580737 1
5.016561 6.561025 0.581360 1
5.030657 6.530452 0.581464 1
5.013740 6.403041 0.584721 28
5.017691 6.365250 0.585337 45
5.080842 6.374849 0.582732 48
5.143203 6.385312 0.580136 47
5.203463 6.391763 0.577696 12
13.451124 12.439062 0.140918 7
12.146489 11.025792 0.218772 3
11.954618 10.812690 0.230287 3
11.999844 10.699333 0.230605 12
12.054961 10.668883 0.228985 6
13.469770 11.566624 0.156632 11
13.481971 11.492019 0.157494 15
13.529936 11.449697 0.156344 11
9.966534 8.862944 0.344408 2
9.858861 8.735728 0.350941 2
9.855658 8.674815 0.352121 2
9.759479 8.551292 0.358112 2
9.795879 8.516802 0.357226 2
9.780286 8.452051 0.358947 2
9.765681 8.385441 0.360652 2
9.716881 8.297824 0.364088 2
9.708352 8.235936 0.365452 2
9.716544 8.184679 0.365952 2
9.727931 8.135537 0.366280 2
9.728868 8.080186 0.367128 2
9.739832 8.031097 0.367456 2
9.764320 7.990214 0.367091 2
9.702709 7.898328 0.371065 2
9.726735 7.857574 0.370702 2
9.733356 7.806674 0.371207 2
9.752421 7.765858 0.371035 2
9.760946 7.719021 0.371385 2
9.775093 7.670085 0.371524 2
9.787883 7.623186 0.371682 2
9.800488 7.576278 0.371841 2
9.829233 7.541124 0.371145 2
9.841512 7.494144 0.371303 4
9.857113 7.449075 0.371286 4
9.883083 7.409690 0.370745 2
9.892433 7.358673 0.371060 2
9.934629 7.330611 0.369661 2
9.967271 7.294654 0.368768 2
10.010425 7.264112 0.367348 2
10.042872 7.227816 0.366452 2
10.071660 7.189540 0.365731 2
10.128797 7.165683 0.363604 2
10.244029 7.168261 0.358645 2
10.276218 7.130999 0.357742 2
10.624865 7.147316 0.342559 19
10.746940 7.152171 0.337238 30
10.945815 7.134953 0.328850 4
11.086429 7.146139 0.322628 4
11.280495 7.184119 0.313768 2
11.442327 7.205748 0.306489 2
11.566674 7.203287 0.301105 2
11.737383 7.223898 0.293434 2
11.886540 7.233538 0.286816 2
12.035930 7.242211 0.280190 2
12.192856 7.253150 0.273202 2
12.390285 7.280718 0.264252 2
12.531997 7.285638 0.257977 2
12.643055 7.270370 0.253249 2
12.807151 7.283005 0.245893 2
12.939455 7.278031 0.240107 2
13.076685 7.271126 0.234112 2
13.197104 7.262484 0.228869 2
13.521903 7.270679 0.214393 9
13.632706 7.252340 0.209640 9
13.791840 7.252495 0.202560 3
19.793318 9.033154 -0.080901 5
19.671120 8.902261 -0.074381 5
19.664757 8.814468 -0.073418 5
19.695671 8.740281 -0.074250 5
19.598251 8.620640 -0.068970 5
19.443691 8.481971 -0.060985 5
19.476509 8.325891 -0.061375 44
19.475458 8.242053 -0.060758 26
19.496822 8.165915 -0.061223 16
19.491358 8.080939 -0.060424 10
19.533716 8.015971 -0.061940 5
19.352594 7.796563 -0.052350 5
19.280926 7.692065 -0.048467 5
19.273642 7.608365 -0.047655 5
19.285130 7.530677 -0.047748 5
19.338385 7.465775 -0.049835 5
19.177130 7.336234 -0.041766 5
19.183800 7.257869 -0.041673 5
19.123333 7.080162 -0.038031 5
19.190546 7.019674 -0.040843 5
18.973083 6.803921 -0.029876 10
18.973951 6.725534 -0.029590 10
19.014091 6.653975 -0.031156 10
19.068457 6.589981 -0.033423 5
18.986473 6.333903 -0.028723 30
18.975765 6.179663 -0.027741 5
18.870394 6.072583 -0.022535 4
18.768360 5.898449 -0.017324 14
18.677410 5.653036 -0.012525 4
18.248871 4.674361 0.008634 4
18.186848 4.590439 0.011558 4
18.171713 4.515266 0.012263 4
18.124195 4.438344 0.014482 4
18.108500 4.363577 0.015190 4
18.085217 4.284167 0.016243 4
18.076839 4.211003 0.016583 4
17.605724 2.895506 0.035962 4
17.526972 2.750594 0.039151 4
17.475704 2.336298 0.039724 8
17.500193 2.269755 0.038217 4
16.188606 -1.044997 0.070329 3
16.130140 -1.099211 0.072375 3
16.090973 -1.158569 0.073425 3
-21.419926 1.048182 0.077795 4
-21.451597 1.116310 0.076904 4
-21.455057 1.184382 0.077280 4
-21.478260 1.252748 0.076753 4
-21.497282 1.317801 0.076379 4
-21.508028 1.386233 0.076395 4
-21.598433 1.456643 0.072802 4
-21.608784 1.522083 0.072793 4
-21.626802 1.591271 0.072452 4
-21.632597 1.660184 0.072652 4
-21.681946 1.734235 0.070900 4
-21.687380 1.799953 0.071074 4
-21.788248 1.873428 0.066960 4
-21.808853 1.947245 0.066474 4
-21.793621 2.012438 0.067549 4
-21.774084 2.150164 0.069213 33
-21.765951 2.219067 0.069955 12
-21.816736 2.361425 0.068393 4
-21.827797 2.431881 0.068239 4
-21.846838 2.499566 0.067701 4
-21.845457 2.569285 0.068085 4
-21.843544 2.642483 0.068497 4
-21.921284 2.719115 0.065312 4
-21.939344 2.787442 0.064778 4
-21.933298 2.853680 0.065314 4
-21.938629 2.924538 0.065343 4
-21.955637 2.996652 0.064839 4
-21.952511 3.066844 0.065225 4
-21.953485 3.133977 0.065404 4
-21.993567 3.209027 0.063835 4
-21.961506 3.279706 0.065493 4
-21.937132 3.351117 0.066793 4
-21.988720 3.424577 0.064667 4
-22.055901 3.500387 0.061835 4
-22.054968 3.571532 0.062045 4
-22.061245 3.647254 0.061929 4
-22.071672 3.720086 0.061609 4
-22.098156 3.791714 0.060553 4
-22.088280 3.861986 0.061118 4
-22.097927 3.935114 0.060799 4
-22.166590 4.017226 0.057834 4
-22.148027 4.086524 0.058752 4
-22.152912 4.159447 0.058611 4
-22.158098 4.228916 0.058443 4
-22.170357 4.303274 0.057951 4
-22.190224 4.379076 0.057108 4
-22.194052 4.452363 0.056970 4
-22.197617 4.525716 0.056831 4
-22.196980 4.598435 0.056868 4
-22.278645 4.686213 0.053221 4
-22.269575 4.757838 0.053612 4
-22.287737 4.834643 0.052775 4
-22.262447 4.903302 0.053865 4
-22.280062 4.980301 0.053030 4
-22.293465 5.056686 0.052370 4
-22.306583 5.133214 0.051710 4
-22.312323 5.204709 0.051373 4
-22.348347 5.286432 0.049668 4
-22.363749 5.367830 0.048866 4
-22.368668 5.439718 0.048531 4
-22.349136 5.510059 0.049270 4
-22.376143 5.590861 0.047918 4
-22.367777 5.663876 0.048135 4
-22.370825 5.739606 0.047829 4
-22.463041 5.836559 0.043525 4
-22.393818 5.971047 0.046219 37
-22.360815 6.038498 0.047477 13
-22.411228 6.198932 0.044760 4
-22.308702 6.324340 0.048827 27
-22.293848 6.396358 0.049214 32
-22.295126 6.468951 0.048880 33
-22.256628 6.534628 0.050303 13
-22.368122 6.641700 0.044989 9
-22.266722 6.766529 0.048867 19
-22.261822 6.841799 0.048734 14
-22.214445 6.904782 0.050496 9
-22.141071 7.109537 0.052644 9
-21.149263 6.881995 0.096843 4
-21.090443 6.937073 0.099084 4
-21.144779 7.031150 0.096200 4
-21.100756 7.090793 0.097752 4
-22.194883 7.513510 0.048020 4
-22.198610 7.592773 0.047372 4
-22.091427 7.713635 0.051210 9
-22.067862 7.783860 0.051758 9
-22.044050 7.854002 0.052304 14
-21.982225 7.911004 0.054557 9
-18.468418 6.760976 0.213001 6
-17.967403 6.774607 0.234278 3
-17.853292 6.796160 0.238969 3
-17.784212 6.833600 0.241611 3
-17.782459 6.895784 0.241189 3
-17.623421 6.898783 0.247906 3
-17.618698 6.956380 0.247628 3
-17.582880 7.005254 0.248730 3
-17.546909 7.053950 0.249830 3
-17.531317 7.170217 0.249462 3
-17.535635 7.234939 0.248695 6
-17.623781 7.337004 0.244056 3
-17.675524 7.421912 0.241093 3
-17.689932 7.491992 0.239824 6
-17.692976 7.557632 0.239064 6
-17.673660 7.614058 0.239317 3
-17.681047 7.678642 0.238366 6
-17.664968 7.736628 0.238450 3
-17.670675 7.804124 0.237522 6
-17.646816 7.858918 0.237942 3
-17.608145 7.907165 0.239035 3
-17.525532 7.935684 0.242146 3
-17.487856 7.980696 0.243214 3
-17.481573 8.043118 0.242788 3
-17.459272 8.101621 0.243054 3
-17.488773 8.180865 0.240948 3
-17.564978 8.282397 0.236663 3
-17.579210 8.355570 0.235233 3
-14.501461 6.955098 0.377451 2
-14.308667 6.913681 0.385810 2
-14.169221 6.899289 0.391664 2
-13.869578 6.857209 0.404354 6
-13.820411 6.884512 0.406007 17
-13.799780 6.925873 0.406321 6
-13.362857 6.859522 0.424787 4
-13.285563 6.869823 0.427755 6
-13.068590 6.853491 0.436662 2
-12.998681 6.865937 0.439285 2
-12.941877 6.887444 0.441253 2
-12.840410 6.881968 0.445365 2
-12.754174 6.881633 0.448794 2
-12.618014 6.855683 0.454557 2
-12.574055 6.877420 0.455984 2
-12.501132 6.885170 0.458751 2
-12.364598 6.858966 0.464511 1
-12.288478 6.863635 0.467435 1
-12.208985 6.865857 0.470520 1
-12.133063 6.869596 0.473436 1
-12.043427 6.864829 0.477010 1
-11.929827 6.845340 0.481737 1
-11.871511 6.857707 0.483815 1
-12.930632 6.863605 0.514682 4
-12.783444 6.833493 0.520117 4
-12.505875 6.824643 0.529801 1
-12.422618 6.826363 0.532644 1
-12.370836 6.845210 0.534201 1
-12.249504 6.824332 0.538604 1
-12.184992 6.832636 0.540710 1
-12.124002 6.842571 0.542671 1
-12.013636 6.825834 0.546633 1
-11.951814 6.836663 0.548600 1
-11.878689 6.842770 0.551003 1
-11.755140 6.816049 0.555518 1
-11.697042 6.827591 0.557333 1
-11.645825 6.842935 0.558862 1
-11.523941 6.812655 0.563349 1
-11.469498 6.825095 0.565013 1
-11.415085 6.837225 0.566675 1
-11.292852 6.806759 0.571160 1
-11.252192 6.826541 0.572250 1
-11.196978 6.839170 0.573915 1
-11.153950 6.854717 0.575129 1
-11.043659 6.826824 0.579162 1
-10.988666 6.838343 0.580818 1
-10.931385 6.845785 0.582600 1
-10.825081 6.818402 0.586479 1
-10.777014 6.833186 0.587845 1
-10.726655 6.843946 0.589337 1
-10.676328 6.854425 0.590827 1
-10.569784 6.826492 0.594701 1
-10.527283 6.839231 0.595894 1
-10.466280 6.843396 0.597807 1
-10.423834 6.855630 0.598996 1
-10.299448 6.810449 0.603684 1
-10.259470 6.825725 0.604737 1
-10.246802 6.905864 0.603914 4
-10.227150 6.933309 0.604115 10
-10.044480 6.844890 0.611308 4
-9.968084 6.834416 0.613897 2
-9.918657 6.841021 0.615356 2
-9.860665 6.838836 0.617222 2
-9.801756 6.837699 0.619094 4
-9.755736 6.845827 0.620407 7
-9.722507 6.863353 0.621162 1
-9.664839 6.859989 0.623018 0
-9.603084 6.855207 0.625020 0
-9.537271 6.848945 0.627168 0
-9.516785 6.875356 0.627360 0
-9.487799 6.892981 0.627957 0
-9.460883 6.914264 0.628425 0
-9.421398 6.925476 0.629445 0
-9.313091 7.008809 0.631299 55
-9.313026 7.090623 0.629854 5
-9.294765 7.118814 0.629900 4
-9.318913 7.226728 0.627232 9
-9.300148 7.254970 0.627278 2
-9.204039 7.305215 0.629201 17
-9.172948 7.322548 0.629794 2
-9.135835 7.334445 0.630660 1
-9.104698 7.351478 0.631250 2
-9.103293 7.395058 0.630466 1
-9.090926 7.426744 0.630223 2
-9.100965 7.481174 0.628890 2
-9.093017 7.519555 0.628381 1
-9.080803 7.556492 0.628018 1
-9.081284 7.603069 0.627098 1
-9.085607 7.651216 0.626033 1
-9.088519 7.700707 0.624977 0
-9.073765 7.733798 0.624742 2
-9.077465 7.880210 0.621713 0
-9.084869 7.935707 0.620387 0
-9.116019 8.012494 0.617961 2
-9.122752 8.068337 0.616636 1
-9.123514 8.118674 0.615584 1
-9.149570 8.245175 0.612257 2
-9.233567 8.381351 0.607126 1
-9.322289 8.523920 0.601728 1
-10.821244 10.249799 0.524739 35
-10.761342 10.251692 0.526309 39
-10.701535 10.253281 0.527878 41
-10.632505 10.241383 0.529975 44
-10.578382 10.248187 0.531268 38
-10.513461 10.242985 0.533100 35
