# .PCD v.7 - Point Cloud Data file format
VERSION .7
FIELDS x y z intensity
SIZE 4 4 4 1
TYPE F F F U
COUNT 1 1 1 1
WIDTH 1598
HEIGHT 1
VIEWPOINT 0 0 0 1 0 0 0
POINTS 1598
DATA ascii
2.054568 -0.872088 0.020236 1
2.058863 -0.882155 0.018520 1
2.057301 -0.885881 0.018470 1
2.041755 -0.892462 0.020751 1
2.034987 -0.898312 0.021461 1
2.035557 -0.906862 0.020553 1
2.043113 -0.918922 0.018017 1
2.047026 -0.929469 0.016290 1
2.029410 -0.930522 0.019433 1
2.022536 -0.936267 0.020140 1
2.022786 -0.945203 0.019223 1
2.051505 -0.967160 0.011807 1
2.008945 -0.956562 0.020636 1
2.012829 -0.966773 0.018909 1
2.002311 -0.970737 0.020427 1
1.998872 -0.977989 0.020320 1
2.009545 -0.991976 0.016958 1
1.995621 -0.993794 0.019294 1
1.995624 -1.002733 0.018371 1
1.988557 -1.008238 0.019074 1
2.002361 -1.024480 0.014887 1
1.984715 -1.024740 0.018031 1
1.988267 -1.035089 0.016296 1
1.970816 -1.034848 0.019446 1
1.956510 -1.036995 0.021771 1
1.970240 -1.053065 0.017583 1
1.978624 -1.062401 0.015075 1
1.941957 -1.056412 0.022244 1
1.945142 -1.067116 0.020498 1
1.962095 -1.085231 0.015488 1
1.951360 -1.088630 0.017002 1
1.961276 -1.103174 0.013620 1
1.943634 -1.102762 0.016766 1
1.946592 -1.113591 0.015013 1
1.932388 -1.114937 0.017343 1
1.925031 -1.120029 0.018040 1
1.928088 -1.130514 0.016291 1
1.914084 -1.131343 0.018628 1
1.920070 -1.144483 0.016047 1
1.922802 -1.155370 0.014289 1
1.918719 -1.162343 0.014166 1
1.904692 -1.163000 0.016502 1
1.900377 -1.170254 0.016371 1
1.892881 -1.175140 0.017065 1
1.875314 -1.173927 0.020215 1
1.887900 -1.190894 0.015995 1
1.893712 -1.203876 0.013411 1
1.879462 -1.204581 0.015741 1
1.875421 -1.211062 0.015620 1
1.848127 -1.202990 0.021236 1
1.859266 -1.214679 0.017893 1
1.862735 -1.231100 0.015239 1
1.845201 -1.229417 0.018391 1
1.850728 -1.242487 0.015800 1
1.832995 -1.241005 0.018946 1
1.835162 -1.251956 0.017173 1
1.830742 -1.258623 0.017041 1
1.829782 -1.267110 0.016094 1
1.831588 -1.278450 0.014311 1
1.817344 -1.278529 0.016643 1
1.819304 -1.289539 0.014864 1
1.818210 -1.298033 0.013914 1
1.813630 -1.304640 0.013778 1
1.786534 -1.295581 0.019403 1
1.807606 -1.320052 0.012682 1
1.799751 -1.324364 0.013368 1
1.795079 -1.330906 0.013230 1
1.780839 -1.330592 0.015563 1
1.782493 -1.341650 0.013777 1
1.781164 -1.350110 0.012820 1
1.773244 -1.354275 0.013505 1
1.784217 -1.372340 0.009241 1
1.751101 -1.357820 0.016524 1
1.761981 -1.375918 0.012257 1
1.756428 -1.376775 0.013012 1
1.761607 -1.395821 0.009495 1
1.760041 -1.404287 0.008532 1
1.739832 -1.398434 0.012526 1
1.722529 -1.395175 0.015688 1
1.729949 -1.411082 0.012238 1
1.721899 -1.414960 0.012920 1
1.741453 -1.440670 0.006157 1
1.702724 -1.420161 0.015111 1
2.115277 -1.768057 0.003370 1
2.109055 -1.775697 0.003190 1
2.112270 -1.790415 0.000944 1
2.102612 -1.795920 0.001443 1
2.084164 -1.793454 0.004027 1
2.074830 -1.798459 0.004536 1
2.068501 -1.805958 0.004353 1
2.071484 -1.820699 0.002101 1
2.086384 -1.845704 -0.002924 1
2.049681 -1.827949 0.003809 1
2.045907 -1.838307 0.002921 1
2.039764 -1.845335 0.002744 1
2.039521 -1.857537 0.001179 1
2.053656 -1.883165 -0.003867 1
2.017596 -1.864409 0.002885 1
2.016577 -1.877329 0.001298 1
2.012899 -1.887262 0.000413 1
1.992014 -1.880938 0.003708 1
1.982823 -1.885129 0.004223 1
1.984886 -1.900310 0.001946 1
1.983980 -1.912850 0.000363 1
1.988431 -1.931143 -0.002624 1
1.993118 -1.949133 -0.005604 1
1.989352 -1.953102 -0.005712 1
1.979730 -1.963173 -0.005987 1
1.950097 -1.948515 -0.000606 1
1.948909 -1.961052 -0.002197 1
1.936370 -1.962615 -0.000998 1
1.924189 -1.963765 0.000211 1
1.914481 -1.967970 0.000713 1
1.907563 -1.974908 0.000516 1
1.911756 -1.992964 -0.002477 1
1.890878 -1.985915 0.000820 1
1.881133 -1.989965 0.001321 1
1.882401 -2.005230 -0.000977 1
1.872608 -2.009231 -0.000477 1
1.857340 -2.007521 0.001424 1
1.877894 -2.042349 -0.005771 1
1.871075 -2.048817 -0.005964 1
1.839518 -2.029854 0.000141 1
1.826992 -2.030789 0.001342 1
1.825227 -2.043180 -0.000263 1
1.826074 -2.058472 -0.002571 1
1.845500 -2.094082 -0.009798 1
1.825228 -2.085908 -0.006483 1
1.785783 -2.057865 0.001734 1
1.801904 -2.091012 -0.004808 1
1.797866 -2.094614 -0.004922 1
1.774847 -2.088705 -0.001684 1
1.782768 -2.113194 -0.006124 1
1.762002 -2.105182 -0.002822 1
1.752392 -2.108295 -0.002315 1
1.765949 -2.138184 -0.008151 1
1.743054 -2.126671 -0.004131 1
1.748349 -2.147995 -0.007868 1
1.728089 -2.139321 -0.004551 1
1.710444 -2.133547 -0.001938 1
1.707993 -2.145818 -0.003560 1
1.695809 -2.145660 -0.002348 1
1.680392 -2.143018 -0.000449 1
1.687423 -2.167743 -0.004913 1
1.674851 -2.167769 -0.003711 1
1.674641 -2.183071 -0.006047 1
1.659983 -2.179639 -0.004126 1
1.655158 -2.188469 -0.005037 1
1.642214 -2.188616 -0.003845 1
1.639378 -2.200803 -0.005477 1
1.638892 -2.216106 -0.007820 1
1.614669 -2.199962 -0.003059 1
1.633270 -2.240230 -0.011083 1
1.608725 -2.224249 -0.006331 1
1.621461 -2.249150 -0.011411 1
1.604885 -2.251708 -0.010319 1
1.591104 -2.249667 -0.008761 1
1.594897 -2.271305 -0.012537 1
1.586921 -2.277124 -0.012758 1
1.569660 -2.270186 -0.010132 1
1.545552 -2.253585 -0.005367 1
1.542624 -2.265347 -0.007001 1
1.534272 -2.271266 -0.007232 1
1.503580 -2.244732 -0.000321 1
1.536386 -2.308230 -0.013382 1
1.526438 -2.310335 -0.012881 1
1.520566 -2.319153 -0.013819 1
1.490152 -2.292263 -0.006900 1
1.490968 -2.310728 -0.009981 1
1.482855 -2.316184 -0.010205 1
1.474724 -2.321613 -0.010429 1
1.470937 -2.333563 -0.012085 1
1.454472 -2.325551 -0.009436 1
1.451037 -2.337193 -0.011082 1
1.434239 -2.329322 -0.008442 1
1.434609 -2.347799 -0.011534 1
1.430618 -2.359682 -0.013196 1
1.422336 -2.364928 -0.013423 1
1.413972 -2.360894 -0.012102 1
1.399444 -2.365330 -0.011725 1
1.399457 -2.383831 -0.014827 1
1.360083 -2.338745 -0.004274 1
1.368317 -2.370588 -0.010253 1
1.368171 -2.389065 -0.013359 1
1.351659 -2.380615 -0.010709 1
1.343722 -2.385337 -0.010927 1
1.342964 -2.404059 -0.014049 1
1.330534 -2.402218 -0.012839 1
1.318134 -2.400320 -0.011627 1
1.306185 -2.398123 -0.010403 1
1.305615 -2.416576 -0.013520 1
1.293658 -2.414312 -0.012296 1
1.285186 -2.419079 -0.012528 1
1.272844 -2.416956 -0.011314 1
1.264362 -2.421651 -0.011545 1
1.269180 -2.450421 -0.016841 1
1.251130 -2.437851 -0.013457 1
1.242576 -2.442470 -0.013690 1
1.228407 -2.436669 -0.011750 1
1.238397 -2.475904 -0.019230 1
1.202081 -2.428339 -0.008591 1
1.208198 -2.460645 -0.014625 1
1.203883 -2.462883 -0.014743 1
1.176900 -2.441375 -0.009276 1
1.181787 -2.471990 -0.014956 1
1.167769 -2.465846 -0.013011 1
1.164425 -2.480712 -0.015427 1
1.148694 -2.470952 -0.012754 1
1.133046 -2.461112 -0.010079 1
1.138270 -2.493568 -0.016137 1
1.129522 -2.497792 -0.016374 1
1.131005 -2.523244 -0.020983 1
1.112420 -2.505941 -0.016837 1
1.099017 -2.499207 -0.014875 1
1.086468 -2.496377 -0.013665 1
1.077710 -2.500421 -0.013902 1
1.077170 -2.522292 -0.017790 1
1.068321 -2.526303 -0.018030 1
1.036762 -2.480122 -0.008035 1
1.037714 -2.505524 -0.012658 1
1.032117 -2.516585 -0.014359 1
1.035958 -2.549235 -0.020453 1
1.011305 -2.517052 -0.013371 1
1.002476 -2.520833 -0.013609 1
0.987890 -2.509936 -0.010903 1
0.985664 -2.527933 -0.014061 1
0.996514 -2.566014 -0.021516 1
0.976524 -2.557255 -0.018955 1
0.949604 -2.517277 -0.010384 1
0.949673 -2.542693 -0.015030 1
0.921639 -2.498853 -0.005714 1
0.943485 -2.579006 -0.021393 1
0.917101 -2.538670 -0.012807 1
0.913925 -2.556769 -0.015990 1
0.905406 -2.560039 -0.016219 1
0.887022 -2.537584 -0.011291 1
0.902534 -2.605257 -0.024428 1
0.865754 -2.535047 -0.009925 1
0.861893 -2.553226 -0.013126 1
0.858361 -2.571246 -0.016319 1
0.843972 -2.559714 -0.013606 1
0.843428 -2.584947 -0.018267 1
0.827774 -2.569623 -0.014814 1
0.814848 -2.561639 -0.012837 1
0.809740 -2.575872 -0.015297 1
0.799879 -2.575079 -0.014786 1
0.798447 -2.600450 -0.019470 1
0.781807 -2.581134 -0.015269 1
0.770274 -2.576654 -0.014028 1
0.761238 -2.579594 -0.014269 1
0.756716 -2.581052 -0.014390 1
0.746740 -2.596606 -0.016979 1
0.729317 -2.573238 -0.012023 1
0.724994 -2.591037 -0.015235 1
0.705449 -2.560027 -0.008788 1
0.701067 -2.577776 -0.012001 1
0.696571 -2.595524 -0.015218 1
0.683432 -2.583009 -0.012471 1
0.675485 -2.589415 -0.013456 1
0.670793 -2.607120 -0.016678 1
0.659484 -2.602157 -0.015430 1
0.661066 -2.642522 -0.023130 1
0.641226 -2.607231 -0.015915 1
0.628952 -2.598354 -0.013918 1
0.625455 -2.619638 -0.017882 1
0.614691 -2.614361 -0.016619 1
0.607536 -2.624355 -0.018357 1
0.590394 -2.596309 -0.012619 1
0.574964 -2.575903 -0.008383 1
0.568828 -2.589588 -0.010868 1
0.561652 -2.599450 -0.012606 1
0.555354 -2.613108 -0.015095 1
0.544341 -2.607660 -0.013838 1
0.539307 -2.624991 -0.017068 1
0.530176 -2.606946 -0.013439 1
0.522665 -2.636881 -0.019056 1
0.515166 -2.646617 -0.020802 1
0.497752 -2.610229 -0.013522 1
0.486908 -2.604545 -0.012260 1
0.479442 -2.614174 -0.014005 1
0.485032 -2.685257 -0.027790 1
0.461105 -2.617992 -0.014489 1
0.448756 -2.604462 -0.011719 1
0.443982 -2.625440 -0.015714 1
0.436232 -2.636963 -0.017854 1
0.424730 -2.627170 -0.015835 1
0.417737 -2.640477 -0.018341 1
0.406304 -2.630605 -0.016320 1
0.391385 -2.601370 -0.010521 1
0.387617 -2.629964 -0.016037 1
0.379769 -2.639303 -0.017792 1
0.375895 -2.671839 -0.024085 1
0.355330 -2.607575 -0.011468 1
0.346189 -2.609067 -0.011709 1
0.338937 -2.622156 -0.014221 1
0.329127 -2.619712 -0.013704 1
0.319192 -2.613282 -0.012417 1
0.313452 -2.633992 -0.016437 1
0.308250 -2.630785 -0.015800 1
0.306287 -2.714379 -0.032102 1
0.296773 -2.715697 -0.032352 1
0.280259 -2.666410 -0.022724 1
0.266778 -2.640455 -0.017660 1
0.254970 -2.622169 -0.014100 1
0.250249 -2.658369 -0.021188 1
0.240914 -2.655541 -0.020658 1
0.227844 -2.625443 -0.014809 1
0.215445 -2.599189 -0.009716 1
0.207220 -2.607996 -0.011479 1
0.200685 -2.628439 -0.015519 1
0.195220 -2.664530 -0.022626 1
0.185075 -2.657650 -0.021343 1
0.174203 -2.642919 -0.018531 1
0.163814 -2.632053 -0.016481 1
0.154588 -2.632876 -0.016721 1
0.149985 2.557314 0.015835 1
0.158103 2.548681 0.017549 1
0.166164 2.540023 0.019262 2
0.176625 2.554793 0.016517 2
0.185056 2.553936 0.016732 1
0.191746 2.533473 0.020669 1
0.201895 2.544232 0.018669 1
0.208878 2.527629 0.021860 1
0.217657 2.526613 0.022084 1
0.225398 2.513814 0.024541 1
0.236653 2.532233 0.021063 1
0.247522 2.546708 0.018327 1
0.255925 2.545616 0.018542 1
0.260346 2.545031 0.018654 1
0.269815 2.519940 0.023414 1
0.282437 2.541986 0.019217 1
0.288923 2.525165 0.022395 1
0.300090 2.539412 0.019667 1
0.304008 2.507012 0.025791 1
0.317725 2.536715 0.020115 1
0.326535 2.535320 0.020339 1
0.336647 2.541648 0.019090 1
0.347031 2.551886 0.017095 1
0.347492 2.499971 0.026896 1
0.360337 2.521693 0.022704 1
0.372632 2.539488 0.019250 1
0.380290 2.534116 0.020198 1
0.384689 2.509325 0.024827 1
0.400127 2.542440 0.018442 1
0.402111 2.506037 0.025269 1
0.413910 2.519768 0.022556 1
0.427385 2.541153 0.018379 1
0.437011 2.543226 0.017870 1
0.436885 2.499096 0.026149 1
0.450530 2.520351 0.021976 1
0.459282 2.518493 0.022198 1
0.469737 2.524282 0.020956 1
0.475844 2.530997 0.019604 1
0.483737 2.505069 0.024321 1
0.496471 2.522344 0.020878 1
0.503885 2.516600 0.021818 1
0.512140 2.510629 0.022779 1
0.524098 2.519912 0.020822 1
0.527674 2.498817 0.024677 1
0.536877 2.500611 0.024156 1
0.546968 2.502153 0.023657 1
0.552694 2.488536 0.026060 1
0.569339 2.516752 0.020456 1
0.571995 2.491677 0.025040 1
0.581674 2.493191 0.024530 1
0.593451 2.502255 0.022568 1
0.601086 2.496109 0.023512 1
0.612518 2.505204 0.021541 1
0.618411 2.491311 0.023947 1
0.628154 2.492646 0.023439 1
0.640798 2.505393 0.020745 1
0.644590 2.487911 0.023851 1
0.654791 2.489016 0.023354 1
0.659282 2.471262 0.026478 1
0.665544 2.461156 0.028140 1
0.679948 2.477324 0.024737 2
0.683071 2.472245 0.025568 2
0.697140 2.471977 0.025167 1
0.705293 2.469394 0.025371 1
0.712215 2.463046 0.026297 1
0.721193 2.460135 0.026521 1
0.733911 2.468382 0.024581 1
0.742052 2.465678 0.024784 1
0.755284 2.477836 0.022104 1
0.759161 2.459897 0.025211 1
0.765523 2.449389 0.026875 1
0.776656 2.453848 0.025647 1
0.784748 2.451002 0.025849 1
0.794597 2.451677 0.025342 1
0.797695 2.433839 0.028429 1
0.810241 2.441840 0.026484 1
0.816916 2.435197 0.027402 1
0.824399 2.428222 0.028341 1
0.832828 2.425059 0.028550 1
0.841245 2.421866 0.028759 1
0.844943 2.407807 0.031109 1
0.868147 2.441022 0.024160 1
0.872253 2.426738 0.026519 1
0.874384 2.408970 0.029582 1
0.883807 2.409446 0.029063 2
0.887990 2.407765 0.029167 2
0.911901 2.427786 0.024493 1
0.915770 2.413426 0.026845 1
0.916486 2.391818 0.030625 1
0.930965 2.402814 0.027974 1
0.935775 2.392226 0.029597 1
0.947215 2.395894 0.028375 1
0.958694 2.399511 0.027154 1
0.957456 2.374288 0.031637 1
0.972122 2.385033 0.028991 1
0.980399 2.381355 0.029195 1
0.993144 2.388580 0.027252 1
0.996915 2.373912 0.029602 1
1.010123 2.380859 0.027671 1
1.006700 2.352094 0.032852 1
1.021178 2.362723 0.030200 1
1.034458 2.369534 0.028270 1
1.039268 2.358543 0.029893 1
1.047453 2.354631 0.030094 1
1.060405 2.361496 0.028156 1
1.056808 2.332601 0.033332 1
1.070167 2.339199 0.031404 1
1.087121 2.352767 0.028060 1
1.088166 2.334641 0.031093 1
1.090432 2.329095 0.031901 1
1.106653 2.331902 0.030419 2
1.119283 2.336488 0.028848 2
1.140185 2.356705 0.024097 1
1.130364 2.317424 0.031375 1
1.138404 2.313194 0.031572 1
1.152024 2.319338 0.029649 1
1.161545 2.318710 0.029130 1
1.169590 2.314371 0.029326 1
1.168116 2.292763 0.033049 1
1.180851 2.297005 0.031481 1
1.210951 2.332102 0.023570 1
1.195805 2.286450 0.032221 1
1.201788 2.278570 0.033119 1
1.215573 2.284335 0.031199 1
1.231386 2.293441 0.028578 1
1.233389 2.278654 0.030881 1
1.235306 2.263882 0.033183 1
1.249182 2.269448 0.031265 1
1.252622 2.258275 0.032852 1
1.260455 2.253618 0.033042 1
1.274007 2.259270 0.031117 1
1.271575 2.237739 0.034815 1
1.289663 2.249781 0.031496 1
1.303923 2.264138 0.028085 1
1.307341 2.243521 0.031173 1
1.307107 2.225106 0.034173 1
1.338062 2.256820 0.026657 1
1.333145 2.231968 0.031046 1
1.336614 2.220413 0.032632 1
1.344314 2.215463 0.032818 1
1.349838 2.207193 0.033703 1
1.361833 2.208771 0.032490 1
1.377834 2.217104 0.029871 1
1.392100 2.221826 0.027962 1
1.386582 2.197098 0.032335 1
1.407492 2.211514 0.028332 1
1.392895 2.173828 0.035491 1
1.409384 2.181647 0.032884 1
1.414699 2.173211 0.033763 1
1.424871 2.170952 0.033256 1
1.432399 2.165695 0.033437 1
1.471876 2.205346 0.023872 1
1.460788 2.174580 0.029613 1
1.449886 2.143646 0.035358 1
1.461950 2.144673 0.034145 1
1.504677 2.186681 0.023907 1
1.491207 2.152620 0.030341 1
1.476552 2.124284 0.035996 1
1.488849 2.120092 0.035539 1
1.513167 2.136355 0.030866 1
1.513425 2.121378 0.033124 1
1.520779 2.115813 0.033299 1
1.539765 2.126107 0.029999 1
1.525767 2.092155 0.036420 1
1.543087 2.098679 0.033831 1
1.557308 2.102580 0.031918 1
1.564232 2.097148 0.032083 1
1.576416 2.097563 0.030871 1
1.588624 2.097919 0.029661 1
1.578900 2.070368 0.034682 1
1.601379 2.082598 0.030714 1
1.600733 2.067888 0.032949 1
1.612564 2.068383 0.031729 1
1.602080 2.041281 0.036732 1
1.606621 2.032388 0.037589 1
1.621292 2.035526 0.035686 1
1.651325 2.056592 0.029646 1
1.650761 2.041569 0.031882 1
1.660055 2.038811 0.031352 1
1.649032 2.011912 0.036341 1
1.684541 2.038495 0.028929 1
1.685476 2.032456 0.029701 1
1.683305 2.008154 0.033399 1
1.685011 1.996120 0.034939 1
1.699487 1.999053 0.033030 1
1.716996 2.004519 0.030443 1
1.734564 2.009888 0.027857 1
1.728197 1.989043 0.031455 1
1.737764 1.985621 0.030930 1
1.736584 1.970623 0.033150 1
1.748802 1.970028 0.031938 1
1.771863 1.980829 0.027981 1
1.762428 1.957231 0.032256 1
1.761029 1.942260 0.034471 1
1.764685 1.933317 0.035306 1
1.796428 1.951993 0.029303 1
1.792166 1.934172 0.032201 1
1.809927 1.938866 0.029618 1
1.802432 1.918604 0.033189 1
1.828569 1.931554 0.028553 1
1.818492 1.908214 0.032813 1
1.819492 1.896046 0.034334 1
1.845753 1.908732 0.029701 1
1.838247 1.888258 0.033271 1
1.853283 1.889781 0.031373 1
1.845208 1.875467 0.034181 1
1.865695 1.876936 0.031660 1
1.858214 1.856247 0.035230 1
1.884732 1.868387 0.030602 1
1.905924 1.874637 0.027349 1
1.897967 1.854300 0.030908 1
1.912761 1.855754 0.029003 1
1.910143 1.841160 0.031188 1
1.925266 1.842166 0.029291 1
1.922866 1.827241 0.031480 1
1.937995 1.828142 0.029583 1
1.973763 1.847306 0.022922 1
1.945033 1.808455 0.031240 1
1.963143 1.811785 0.028663 1
1.942359 1.781697 0.034918 1
1.986955 1.808535 0.026215 1
2.005484 1.811236 0.023647 1
2.012065 1.803592 0.023797 1
1.970185 1.755517 0.034805 1
2.000391 1.768662 0.029512 1
2.012255 1.766818 0.028287 1
2.005931 1.749809 0.031133 1
2.003160 1.734642 0.033312 1
2.012512 1.729501 0.032777 1
2.021918 1.730465 0.031495 1
2.029994 1.720554 0.031678 1
2.027011 1.705427 0.033852 1
2.073024 1.729968 0.025179 1
2.079008 1.722453 0.025314 1
2.059851 1.695832 0.030858 1
2.050453 1.675882 0.034380 1
2.096803 1.699781 0.025715 1
2.102682 1.692183 0.025847 1
2.098835 1.677778 0.028000 1
2.092060 1.660658 0.030834 1
2.110413 1.662546 0.028259 1
2.106679 1.647831 0.030415 1
2.156451 1.673426 0.021079 1
2.098985 1.618538 0.034720 1
2.126877 1.627196 0.030119 1
2.132503 1.619493 0.030244 1
2.144224 1.616761 0.029013 1
2.148208 1.607852 0.029475 1
2.165025 1.608053 0.027237 1
2.151235 1.586606 0.031406 1
2.166416 1.585590 0.029505 1
2.171896 1.577749 0.029626 1
2.187094 1.576594 0.027725 1
2.189822 1.572640 0.027785 1
2.178380 1.547476 0.032005 1
2.203357 1.552798 0.028083 1
2.182224 1.527707 0.033579 1
2.233512 1.550313 0.024275 1
2.245456 1.546573 0.023047 1
2.267307 1.549236 0.019801 1
2.229642 1.513168 0.028658 1
2.234869 1.505107 0.028772 1
2.273307 1.518241 0.022165 1
2.245238 1.488930 0.028998 1
2.223672 1.464030 0.034483 1
2.275570 1.485201 0.025191 1
2.260580 1.464531 0.029330 1
2.265637 1.456362 0.029440 1
2.270665 1.448176 0.029548 1
2.275665 1.439972 0.029656 1
2.314455 1.452032 0.023055 1
2.285579 1.423512 0.029869 1
2.290493 1.415256 0.029974 1
2.295378 1.406984 0.030079 1
2.300234 1.398694 0.030183 1
2.332150 1.406561 0.024920 1
2.329917 1.394647 0.026358 1
2.311770 1.378729 0.030428 1
2.319131 1.365785 0.030585 1
2.323843 1.357412 0.030684 1
2.328526 1.349023 0.030784 1
2.322809 1.334923 0.032889 1
2.337574 1.332618 0.030974 1
2.342399 1.323759 0.031076 1
2.346964 1.315305 0.031172 1
2.351500 1.306836 0.031267 1
2.356006 1.298351 0.031361 1
2.405927 1.313585 0.022765 1
2.364708 1.281760 0.031542 1
2.369347 1.272802 0.031639 1
2.419424 1.287514 0.023046 1
2.378091 1.255692 0.031820 1
2.417689 1.264762 0.025232 1
2.386503 1.238951 0.031993 1
2.390559 1.230775 0.032077 1
2.395011 1.221722 0.032168 1
2.434942 1.229810 0.025586 1
2.439179 1.221035 0.025672 1
2.496832 1.237608 0.015753 1
2.411665 1.187089 0.032508 1
2.417583 1.174477 0.032627 11
2.470661 1.181862 0.024093 1
2.463954 1.168077 0.026174 1
2.460780 1.155968 0.027587 1
2.482776 1.155121 0.024336 1
2.439642 1.125932 0.033070 1
2.508571 1.145569 0.021160 1
2.512513 1.136538 0.021238 1
2.451173 1.099516 0.033299 1
2.454955 1.090685 0.033374 1
2.458707 1.081839 0.033447 1
2.553455 1.110891 0.016884 1
2.469775 1.055226 0.033664 1
2.473403 1.046330 0.033734 1
2.546391 1.065726 0.021164 1
2.550237 1.056105 0.021239 1
2.484098 1.019565 0.033940 1
2.487602 1.010618 0.034008 1
2.527893 1.015806 0.027427 1
2.494514 0.992689 0.034139 1
2.542224 1.000375 0.026230 1
2.501301 0.974712 0.034267 1
2.534258 0.976613 0.029016 1
2.561864 0.981552 0.024398 1
2.574328 0.970398 0.023164 1
2.585090 0.963788 0.021897 1
2.539876 0.937894 0.030587 1
2.557991 0.933952 0.027991 1
2.561195 0.924749 0.028049 1
2.575566 0.919355 0.026116 1
2.560030 0.903788 0.029491 1
2.570613 0.897073 0.028220 1
2.607251 0.899406 0.022301 1
2.632836 0.897365 0.018376 1
2.579591 0.869763 0.028381 1
2.641964 0.868944 0.018538 1
2.599735 0.845408 0.026547 1
2.583630 0.830740 0.029910 1
2.605491 0.826702 0.026647 1
2.589424 0.811680 0.030010 1
2.618683 0.810191 0.025417 1
2.632677 0.804563 0.023473 1
2.567198 0.775446 0.035448 1
2.619175 0.780235 0.026878 1
2.669965 0.774502 0.019014 1
2.576206 0.743546 0.035598 1
2.579878 0.730107 0.035657 1
2.582494 0.720364 0.035699 1
2.630743 0.723077 0.027791 1
2.659946 0.720530 0.023195 1
2.685341 0.716814 0.019260 1
2.687787 0.707168 0.019298 1
2.644244 0.686151 0.027280 1
2.719286 0.694876 0.014735 1
2.598796 0.656107 0.035952 1
2.631740 0.654029 0.030690 1
2.649335 0.648150 0.028075 1
2.678567 0.644321 0.023476 1
2.657777 0.629016 0.027480 1
2.640554 0.615673 0.030817 1
2.611710 0.599925 0.036139 1
2.652420 0.598341 0.029552 1
2.646732 0.587182 0.030902 1
2.656451 0.579273 0.029606 1
2.677744 0.573664 0.026324 1
2.671858 0.562978 0.027671 1
2.681413 0.555383 0.026371 1
2.656274 0.540037 0.031026 1
2.665945 0.531482 0.029726 1
2.666939 0.526215 0.029738 1
2.657691 0.511156 0.031750 1
2.678922 0.504598 0.028464 1
2.661198 0.491575 0.031789 1
2.690075 0.486680 0.027178 1
2.660593 0.471794 0.032485 1
2.677754 0.464794 0.029857 1
2.655874 0.451895 0.033838 1
2.680777 0.446033 0.029886 1
2.670580 0.434605 0.031883 1
2.675942 0.425598 0.031234 1
2.724209 0.422857 0.023312 1
2.663146 0.404132 0.033901 1
2.687943 0.397838 0.029945 1
2.689275 0.388184 0.029954 1
2.667109 0.375416 0.033928 1
2.691838 0.368864 0.029969 1
2.653926 0.354285 0.036587 1
2.702099 0.350481 0.028659 1
2.703208 0.341263 0.028664 1
2.696504 0.330655 0.029990 1
2.697602 0.320972 0.029993 1
2.682977 0.309590 0.032639 1
2.699696 0.301595 0.029996 1
2.711972 0.297958 0.028013 1
2.736992 0.285649 0.024047 1
2.702584 0.272503 0.029995 1
2.695577 0.262572 0.031315 1
2.696437 0.252892 0.031312 1
2.712948 0.245012 0.028663 1
2.717679 0.235589 0.027998 1
2.738111 0.227344 0.024686 1
2.742819 0.217313 0.024018 1
2.715973 0.205550 0.028638 1
2.708761 0.195279 0.029952 1
2.709356 0.186040 0.029943 1
2.709949 0.176313 0.029933 1
2.718385 0.167025 0.028600 1
2.703179 0.155955 0.031232 1
2.727309 0.147403 0.027252 1
2.696239 0.136186 0.032528 1
2.704522 0.127320 0.031192 1
2.700968 0.117458 0.031837 1
2.740730 0.109633 0.025209 1
2.748942 0.100048 0.023869 1
2.705857 0.088959 0.031126 1
2.741617 0.079631 0.025154 1
2.733951 0.069626 0.026456 1
2.714336 0.063851 0.029752 1
2.722463 0.049346 0.028397 1
2.754131 0.040400 0.023084 1
2.734488 0.030867 0.026369 1
2.699037 0.020430 0.032297 1
2.726667 0.010747 0.027641 1
2.714813 0.000999 0.029600 1
2.722650 -0.008798 0.028250 1
2.734397 -0.018691 0.026237 1
2.722442 -0.028342 0.028193 1
2.706519 -0.037357 0.030812 1
2.706342 -0.046588 0.030783 1
2.674573 -0.055554 0.036047 1
2.697984 -0.065802 0.032044 1
2.748957 -0.077060 0.023406 1
2.705264 -0.085443 0.030654 1
2.720659 -0.096235 0.027969 1
2.739974 -0.106813 0.024623 1
2.704077 -0.115057 0.030546 1
2.727285 -0.125415 0.026537 1
2.718912 -0.134796 0.027823 1
2.742018 -0.145855 0.023810 1
2.717825 -0.154311 0.027744 1
2.701481 -0.163088 0.030353 1
2.724794 -0.169443 0.026358 1
2.723809 -0.184110 0.026294 1
2.727045 -0.194170 0.025587 1
2.706644 -0.202462 0.028856 1
2.713746 -0.212802 0.027486 1
2.705126 -0.221403 0.028767 1
2.723948 -0.232809 0.025406 1
2.730937 -0.243289 0.024032 1
2.714275 -0.252110 0.026633 1
2.693708 -0.259947 0.029898 1
2.720219 -0.272377 0.025206 1
2.699646 -0.279614 0.028473 1
2.718224 -0.291409 0.025105 1
2.697548 -0.298991 0.028368 1
2.727745 -0.312749 0.023005 1
2.726597 -0.322536 0.022949 1
2.733247 -0.333272 0.021566 1
2.700776 -0.338676 0.026821 1
2.683888 -0.346359 0.029418 1
2.682624 -0.355994 0.029361 1
2.681326 -0.365624 0.029302 1
2.679994 -0.375250 0.029242 1
2.686508 -0.385502 0.027857 1
2.692984 -0.395802 0.026470 1
2.684465 -0.399484 0.027767 1
2.740764 -0.422880 0.017708 1
2.737586 -0.443030 0.017573 1
2.677596 -0.443287 0.027475 1
2.676074 -0.452419 0.027412 1
2.682215 -0.463353 0.026015 1
2.684428 -0.473659 0.025282 1
2.702136 -0.486749 0.021887 1
2.700382 -0.496446 0.021817 1
2.725742 -0.511161 0.017089 1
2.696771 -0.515821 0.021673 1
2.683295 -0.523264 0.023596 1
2.654412 -0.527111 0.028184 1
2.660253 -0.538184 0.026779 1
2.666050 -0.549304 0.025372 1
2.675665 -0.561268 0.023299 1
2.662071 -0.568439 0.025219 1
2.646532 -0.575109 0.027473 1
2.671448 -0.590479 0.022732 1
2.657779 -0.597514 0.024651 1
2.655638 -0.607055 0.024570 1
2.684113 -0.624097 0.019153 1
2.720298 -0.642652 0.012405 1
2.699837 -0.643523 0.015691 1
2.694374 -0.666275 0.015491 11
2.691993 -0.675943 0.015404 1
2.689578 -0.685603 0.015316 1
2.629790 -0.680693 0.025237 1
2.703743 -0.709817 0.011801 1
2.643974 -0.704558 0.021723 1
2.696042 -0.738891 0.011526 1
2.624916 -0.729899 0.023455 1
2.633718 -0.742475 0.021359 1
2.627274 -0.750868 0.021934 1
2.639774 -0.764609 0.019167 1
2.637050 -0.774086 0.019072 1
2.615499 -0.777570 0.022323 1
2.601243 -0.784084 0.024228 1
2.609787 -0.796815 0.022125 1
2.652246 -0.819895 0.014000 1
2.626851 -0.822011 0.017919 1
2.627546 -0.833083 0.017145 1
2.602009 -0.835427 0.021060 1
2.572731 -0.836410 0.025645 1
2.573660 -0.846399 0.024880 1
2.613434 -0.864373 0.017462 1
2.593830 -0.873513 0.019985 1
2.577632 -0.878469 0.022226 1
2.574668 -0.887266 0.022126 1
2.571516 -0.896516 0.022021 1
2.568333 -0.905754 0.021914 1
2.613527 -0.931847 0.013088 1
2.562032 -0.923738 0.021705 1
2.543893 -0.927653 0.024280 1
2.555442 -0.942137 0.021486 1
2.563047 -0.955825 0.019356 1
2.559657 -0.965033 0.019245 1
2.545317 -0.969648 0.021152 1
2.549434 -0.981110 0.019702 1
2.523836 -0.981877 0.023619 1
2.535081 -0.996596 0.020817 1
2.527694 -1.004737 0.021369 1
2.509447 -1.008070 0.023943 1
2.509541 -1.018543 0.023154 1
2.538885 -1.040735 0.016983 1
2.516916 -1.042478 0.020228 1
2.494968 -1.044081 0.023474 1
2.494916 -1.054553 0.022682 1
2.491369 -1.063076 0.022568 1
2.496767 -1.070596 0.021161 1
2.483808 -1.080978 0.022326 1
2.469107 -1.085256 0.024225 1
2.498035 -1.107762 0.018042 1
2.504957 -1.121470 0.015895 1
2.482945 -1.122533 0.019141 1
2.471767 -1.128259 0.020364 1
2.474970 -1.140375 0.018888 1
2.463753 -1.146023 0.020110 1
2.466871 -1.158161 0.018632 1
2.455614 -1.163731 0.019854 1
2.476729 -1.183760 0.015002 1
2.454698 -1.184291 0.018249 1
2.443385 -1.189745 0.019470 1
2.432064 -1.195135 0.020690 1
2.442257 -1.210294 0.017860 1
2.437979 -1.219079 0.017726 1
2.426592 -1.224377 0.018945 1
2.429114 -1.237042 0.017450 1
2.417689 -1.242259 0.018668 1
2.413520 -1.250524 0.018539 1
2.416354 -1.262344 0.017054 1
2.404653 -1.267878 0.018264 1
2.400175 -1.276532 0.018126 1
2.397698 -1.281285 0.018050 1
2.380658 -1.288291 0.019881 1
2.395266 -1.307013 0.016011 1
2.383697 -1.311918 0.017226 1
2.344363 -1.301798 0.023871 1
2.374403 -1.329062 0.016941 1
2.362797 -1.333822 0.018156 1
2.382241 -1.355672 0.013256 1
2.353350 -1.350820 0.017867 1
2.362331 -1.367014 0.015003 1
2.344026 -1.367329 0.017583 1
2.363411 -1.389017 0.012683 1
2.344597 -1.390091 0.015248 1
2.349922 -1.404465 0.013057 1
2.324548 -1.400994 0.016991 1
2.326646 -1.412949 0.015487 1
2.331580 -1.427785 0.013286 1
2.316397 -1.430110 0.015178 1
2.287727 -1.424204 0.019797 1
2.272600 -1.426307 0.021691 1
2.291095 -1.448913 0.016765 1
2.296046 -1.463382 0.014565 1
2.297837 -1.475406 0.013053 1
2.292896 -1.483272 0.012904 1
2.293621 -1.489504 0.012143 1
2.289058 -1.504009 0.011224 1
2.273803 -1.505875 0.013115 1
2.278425 -1.520488 0.010906 1
2.262890 -1.522655 0.012789 1
2.234460 -1.515675 0.017418 2
2.225831 -1.521559 0.017943 2
2.227297 -1.533556 0.016422 9
2.216713 -1.538695 0.017281 9
2.203130 -1.541171 0.018832 12
2.192814 -1.545791 0.019699 12
2.190889 -1.555539 0.018860 12
2.188649 -1.565687 0.018012 12
2.179899 -1.571332 0.018535 12
2.171138 -1.576936 0.019057 12
2.165582 -1.584773 0.018893 12
2.159999 -1.592591 0.018728 12
2.162393 -1.606132 0.016846 12
2.155139 -1.612784 0.017023 12
2.141778 -1.614380 0.018582 12
2.136092 -1.622114 0.018415 12
2.138303 -1.635681 0.016528 12
2.132542 -1.643403 0.016359 12
2.128332 -1.652286 0.015845 12
2.117553 -1.650211 0.017481 12
2.099416 -1.654524 0.019291 11
2.093882 -1.661731 0.019129 11
2.080522 -1.662907 0.020690 4
2.094898 -1.686133 0.016038 4
2.092065 -1.696130 0.015175 1
2.089190 -1.706128 0.014311 1
2.107879 -1.733265 0.008615 1
2.129483 -1.763011 0.002224 1
2.767007 -2.313091 -0.014086 10
2.759286 -2.322505 -0.014310 1
2.692617 -2.401237 -0.016238 1
2.684604 -2.410404 -0.016469 1
2.676560 -2.419545 -0.016701 1
2.706635 -2.463251 -0.024176 1
2.633731 -2.467208 -0.017933 10
2.616803 -2.485593 -0.018418 10
2.608073 -2.494977 -0.018668 1
2.598872 -2.504796 -0.018932 1
2.662160 -2.582006 -0.033147 1
2.637030 -2.568209 -0.029379 1
2.546058 -2.559799 -0.020440 10
2.537520 -2.568479 -0.020683 1
2.510370 -2.595702 -0.021456 10
2.473379 -2.576582 -0.016102 1
2.492113 -2.613692 -0.021975 1
2.473730 -2.631554 -0.022497 10
2.446855 -2.657225 -0.023258 1
2.437528 -2.666014 -0.023522 1
2.428170 -2.674771 -0.023787 1
2.418781 -2.683494 -0.024052 1
2.390908 -2.709037 -0.024839 1
2.370908 -2.727044 -0.025403 1
2.342589 -2.752091 -0.026200 10
2.239874 -2.709990 -0.013095 10
2.294497 -2.793460 -0.027551 1
2.284696 -2.801716 -0.027826 1
2.234760 -2.842883 -0.029224 1
2.162527 -2.773982 -0.015261 1
2.143522 -2.789154 -0.015792 10
2.195703 -2.874069 -0.030315 1
2.185116 -2.882374 -0.030610 1
2.097027 -2.790400 -0.012615 1
2.087237 -2.797968 -0.012888 1
2.155208 -2.905499 -0.031443 1
2.020825 -2.852803 -0.015373 1
2.083300 -2.959130 -0.033442 1
1.998458 -2.864170 -0.015355 1
1.976833 -2.855341 -0.012761 1
1.978844 -2.878223 -0.015898 1
1.984296 -2.908320 -0.020218 1
1.974095 -2.915494 -0.020500 1
1.936621 -2.883724 -0.013874 1
1.920233 -2.880634 -0.012411 1
1.887643 -2.855009 -0.006927 1
1.920136 -2.923888 -0.018161 1
1.912108 -2.934110 -0.019021 1
1.886317 -2.918067 -0.015263 1
1.876083 -2.924899 -0.015546 1
1.859251 -2.921807 -0.014095 1
1.827712 -2.895176 -0.008580 1
1.872304 -2.984233 -0.023310 1
1.807891 -2.908069 -0.009126 1
1.840619 -2.981134 -0.020991 1
1.808818 -2.954479 -0.015483 1
1.798457 -2.961040 -0.015768 1
1.825027 -3.014464 -0.024611 1
1.796564 -3.004246 -0.021564 1
1.773502 -2.990592 -0.018368 1
1.756787 -2.986922 -0.016913 1
1.746314 -2.993302 -0.017200 1
1.735818 -2.999644 -0.017488 1
1.735504 -3.022904 -0.020686 1
1.694992 -2.977934 -0.012226 1
1.684028 -2.984406 -0.012526 1
1.689605 -3.017825 -0.017477 1
1.683011 -3.030807 -0.018934 1
1.661025 -3.016073 -0.015707 1
1.656360 -3.032413 -0.017748 1
1.656053 -3.055334 -0.020946 1
1.641448 -3.054471 -0.020069 1
1.626871 -3.053543 -0.019192 1
1.608476 -3.045634 -0.017142 1
1.597798 -3.051496 -0.017434 1
1.592795 -3.067735 -0.019483 1
1.582040 -3.073542 -0.019776 1
1.571265 -3.079311 -0.020070 1
1.560471 -3.085042 -0.020364 1
1.547806 -3.087238 -0.020071 1
1.540659 -3.099895 -0.021540 1
1.520578 -3.074654 -0.016986 1
1.519451 -3.110827 -0.022117 1
1.506745 -3.112854 -0.021825 1
1.483311 -3.093658 -0.017998 1
1.484903 -3.123828 -0.022418 1
1.461604 -3.104469 -0.018587 1
1.450722 -3.109818 -0.018882 1
1.439821 -3.115128 -0.019178 1
1.428902 -3.120400 -0.019474 1
1.417965 -3.125635 -0.019770 1
1.407557 -3.130572 -0.020052 1
1.402207 -3.146204 -0.022109 1
1.385594 -3.140853 -0.020646 1
1.366259 -3.127994 -0.017983 1
1.360254 -3.143792 -0.020057 1
1.352516 -3.155986 -0.021541 1
1.351220 -3.182586 -0.025399 1
1.323916 -3.151438 -0.019764 1
1.308064 -3.145456 -0.018280 1
1.308168 -3.175623 -0.022738 1
1.297039 -3.180435 -0.023038 1
1.279635 -3.170677 -0.020958 1
1.267527 -3.171517 -0.020647 1
1.258509 -3.179598 -0.021528 1
1.259075 -3.196506 -0.024061 1
1.237162 -3.192721 -0.022739 1
1.230478 -3.208263 -0.024831 1
1.219235 -3.212804 -0.025133 1
1.202073 -3.202627 -0.023046 1
1.190850 -3.207069 -0.023348 1
1.173811 -3.196754 -0.021257 1
1.165484 -3.208466 -0.022755 1
1.150528 -3.201498 -0.021245 1
1.145522 -3.220324 -0.023927 1
1.135638 -3.228267 -0.024830 1
1.129874 -3.247291 -0.027532 1
1.117926 -3.251688 -0.027852 1
1.090207 -3.211277 -0.020951 1
1.082997 -3.226482 -0.023055 1
1.070922 -3.226586 -0.022741 1
1.063582 -3.241750 -0.024849 1
1.050915 -3.241977 -0.024551 1
1.034371 -3.230947 -0.022445 1
1.019765 -3.223392 -0.020925 1
1.016095 -3.249665 -0.024844 1
1.003451 -3.249709 -0.024545 1
0.992065 -3.253457 -0.024849 1
0.988054 -3.279711 -0.028777 1
0.972512 -3.251486 -0.024097 1
0.951804 -3.245634 -0.022739 1
0.939241 -3.245432 -0.022437 1
0.929049 -3.252731 -0.023346 1
0.929309 -3.294001 -0.029707 1
0.909702 -3.271015 -0.025771 1
0.897103 -3.270650 -0.025470 1
0.882837 -3.262490 -0.023939 1
0.871408 -3.265818 -0.024243 1
0.855566 -3.253915 -0.022118 1
0.852861 -3.287558 -0.027283 1
0.839196 -3.283170 -0.026373 1
0.834056 -3.309197 -0.030329 1
0.815135 -3.285667 -0.026375 1
0.801097 -3.277158 -0.024838 1
0.790191 -3.280049 -0.025127 1
0.775675 -3.271585 -0.023602 1
0.771179 -3.301320 -0.028178 1
0.760998 -3.312063 -0.029721 1
0.743590 -3.291967 -0.026362 1
0.727287 -3.275628 -0.023611 1
0.715812 -3.278412 -0.023915 1
0.709892 -3.304212 -0.027891 1
0.699811 -3.310646 -0.028794 1
0.687658 -3.285065 -0.024660 1
0.674833 -3.308278 -0.028181 1
0.660621 -3.299315 -0.026647 1
0.650504 -3.305598 -0.027551 2
0.638925 -3.308114 -0.027857 2
0.626503 -3.306726 -0.027548 1
0.613278 -3.301426 -0.026624 1
0.608174 -3.334765 -0.031851 1
0.595700 -3.333261 -0.031543 1
0.581483 -3.319973 -0.029372 1
0.566972 -3.310729 -0.027845 1
0.555376 -3.312954 -0.028150 1
0.540812 -3.299609 -0.025988 1
0.528528 -3.297858 -0.025675 1
0.520541 -3.319385 -0.029067 1
0.505297 -3.298008 -0.025649 1
0.492372 -3.292234 -0.024716 1
0.486223 -3.325352 -0.029969 1
0.471280 -3.307813 -0.027180 1
0.462923 -3.329197 -0.030581 1
0.446839 -3.303752 -0.026549 1
0.435268 -3.305558 -0.026852 1
0.426085 -3.318951 -0.029003 1
0.415042 -3.320598 -0.029292 1
0.409228 -3.321450 -0.029445 1
0.391777 -3.323946 -0.029902 1
0.379584 -3.321646 -0.029585 1
0.369564 -3.334960 -0.031757 1
0.356253 -3.328738 -0.030832 1
0.346635 -3.345900 -0.033630 1
0.331444 -3.319916 -0.029573 1
0.320398 -3.321250 -0.029861 1
0.305012 -3.291229 -0.025173 1
0.297586 -3.327862 -0.031094 1
0.284164 -3.313442 -0.028899 1
0.273140 -3.314618 -0.029187 1
0.262362 -3.323675 -0.030741 1
0.250321 -3.320906 -0.030419 1
0.239079 -3.325957 -0.031349 1
0.228180 -3.334903 -0.032906 1
0.213618 -3.304472 -0.028195 1
0.208753 3.212516 0.006894 1
0.226017 3.274466 -0.002513 1
0.237402 3.273389 -0.002222 1
0.240206 3.189682 0.010776 1
0.259591 3.271173 -0.001655 1
0.270965 3.269979 -0.001364 1
0.293698 3.267471 -0.000783 10
0.300295 3.226903 0.005541 1
0.316981 3.264735 -0.000189 1
0.328331 3.263340 0.000101 1
0.331389 3.199181 0.010027 1
0.339831 3.182134 0.012704 1
0.350741 3.220578 0.006828 1
0.366973 3.218372 0.007241 1
0.375289 3.193244 0.011146 1
0.385218 3.183823 0.012630 1
0.399282 3.201735 0.009910 1
0.418380 3.250843 0.002395 1
0.429681 3.249094 0.002682 1
0.432655 3.196570 0.010759 1
0.452265 3.245478 0.003256 1
0.462983 3.243705 0.003529 1
0.474823 3.241704 0.003829 1
0.476369 3.185248 0.012485 1
0.497354 3.237773 0.004401 1
0.500837 3.196962 0.010644 1
0.519295 3.233789 0.004958 1
0.523056 3.192849 0.011207 1
0.541770 3.229548 0.005527 1
0.552997 3.227368 0.005811 1
0.564215 3.225149 0.006095 1
0.575426 3.222891 0.006379 1
0.586629 3.220594 0.006663 1
0.589532 3.179581 0.012890 1
0.609010 3.215883 0.007229 1
0.620188 3.213469 0.007511 1
0.625774 3.212247 0.007652 1
0.642519 3.208523 0.008075 1
0.653114 3.206119 0.008343 1
0.663701 3.203681 0.008610 1
0.675393 3.200944 0.008905 1
0.687074 3.198165 0.009199 1
0.697635 3.195613 0.009465 1
0.708186 3.193027 0.009731 1
0.719839 3.190127 0.010025 1
0.730926 3.187326 0.010304 1
0.742004 3.184486 0.010583 1
0.753072 3.181608 0.010861 1
0.764130 3.178691 0.011139 1
0.775177 3.175735 0.011417 1
0.799947 3.222308 0.004041 1
0.810586 3.219382 0.004308 1
0.808257 3.166637 0.012248 1
0.819262 3.163527 0.012524 1
0.844121 3.209913 0.005150 1
0.831171 3.127157 0.017744 1
0.851663 3.154130 0.013336 1
0.878110 3.199926 0.006002 1
0.874121 3.147403 0.013899 1
0.885059 3.144064 0.014173 1
0.890524 3.142380 0.014310 1
0.918917 3.174971 0.008869 1
0.917256 3.133990 0.014978 1
0.927603 3.130675 0.015237 1
0.939025 3.126972 0.015522 1
0.950434 3.123226 0.015807 1
0.969612 3.146045 0.011981 1
0.971044 3.116343 0.016322 1
0.982414 3.112480 0.016605 1
1.006835 3.145931 0.011064 1
1.004571 3.104819 0.017158 1
1.014820 3.101214 0.017413 1
1.059218 3.190434 0.003145 1
1.049937 3.130689 0.012138 1
1.064927 3.137874 0.010666 1
1.065604 3.108113 0.014988 1
1.086720 3.129826 0.011208 1
1.114510 3.170123 0.004521 1
1.089963 3.073612 0.019282 1
1.135977 3.161941 0.005054 1
1.119996 3.087490 0.016339 1
1.121957 3.061223 0.020077 1
1.142373 3.082944 0.016279 1
1.151064 3.075215 0.017109 1
1.184069 3.091734 0.013624 1
1.190235 3.076356 0.015621 1
1.200923 3.071913 0.015885 1
1.223999 3.096570 0.011538 1
1.226407 3.074054 0.014671 1
1.216609 3.022277 0.022420 1
1.242987 3.054002 0.016925 1
1.277603 3.103683 0.008560 1
1.248059 3.008563 0.023197 1
1.299152 3.094151 0.009092 1
1.320827 3.114799 0.005325 1
1.309078 3.059284 0.013639 1
1.340380 3.044850 0.014410 1
1.362858 3.064910 0.010662 1
1.392345 3.099127 0.004628 1
1.372058 3.029842 0.015189 1
1.406374 3.074826 0.007430 1
1.361590 2.955730 0.025992 1
1.394766 2.996777 0.018819 1
1.426471 3.034089 0.012224 1
1.426288 3.007626 0.015906 1
1.480755 3.037675 0.009255 10
1.467444 2.986614 0.016914 1
1.478335 2.980933 0.017181 1
1.546366 3.083830 -0.000196 1
1.497150 2.966514 0.018255 1
1.497516 2.943866 0.021335 1
1.521015 2.962682 0.017610 1
1.540847 2.974432 0.015023 1
1.539653 2.947992 0.018679 1
1.561487 2.963066 0.015527 1
1.593170 2.995270 0.009544 1
1.641516 3.031638 0.002125 10
1.592624 2.922759 0.019356 1
1.626685 2.957976 0.012816 1
1.647208 2.946011 0.013315 10
1.642733 2.916468 0.017504 1
1.703851 2.995306 0.003641 1
1.650156 2.884370 0.021367 1
1.682861 2.915509 0.015408 1
1.739645 2.973649 0.004509 10
1.725754 2.917075 0.012765 1
1.776201 2.950915 0.005394 1
1.786447 2.944430 0.005642 1
1.796671 2.937909 0.005889 1
1.806872 2.931352 0.006135 1
1.817050 2.924760 0.006381 1
1.836831 2.911803 0.006858 1
1.802894 2.839271 0.018310 1
1.826033 2.852396 0.015187 1
1.835936 2.845737 0.015425 1
1.848052 2.842311 0.015103 1
1.887143 2.877967 0.008069 1
1.897134 2.871094 0.008309 1
1.907599 2.863841 0.008561 1
1.917541 2.856897 0.008799 1
1.927459 2.849919 0.009037 1
1.897680 2.788493 0.018748 1
1.946728 2.836212 0.009499 1
1.956573 2.829132 0.009735 1
1.966884 2.821661 0.009982 1
1.953180 2.782623 0.015785 1
1.982054 2.810563 0.010345 1
1.957283 2.750059 0.019562 1
2.005425 2.793218 0.010903 1
1.967249 2.722808 0.022252 1
2.024789 2.778615 0.011365 1
2.033951 2.771631 0.011584 1
1.983390 2.685597 0.025701 1
2.054122 2.756085 0.012064 1
2.063210 2.749004 0.012281 1
2.072273 2.741893 0.012496 1
2.081789 2.734375 0.012722 1
2.071437 2.702111 0.017378 1
2.101213 2.718860 0.013184 1
2.111119 2.710859 0.013419 1
2.120056 2.703589 0.013630 1
2.128968 2.696290 0.013842 1
2.138324 2.688574 0.014063 1
2.147653 2.680826 0.014284 1
2.156955 2.673045 0.014504 1
2.166230 2.665232 0.014723 1
2.175477 2.657387 0.014941 1
2.184237 2.649904 0.015148 1
2.193430 2.641995 0.015365 1
2.202596 2.634055 0.015581 1
2.221300 2.617678 0.016021 1
2.230381 2.609640 0.016235 1
2.238981 2.601975 0.016437 1
2.248008 2.593876 0.016649 1
2.257005 2.585746 0.016860 1
2.265975 2.577584 0.017071 1
2.274916 2.569390 0.017280 1
2.283828 2.561166 0.017489 1
2.292711 2.552911 0.017697 1
2.301566 2.544624 0.017904 1
2.310392 2.536307 0.018110 1
2.319188 2.527959 0.018316 1
2.308277 2.500022 0.022342 1
2.336694 2.511171 0.018724 1
2.345402 2.502731 0.018927 1
2.354081 2.494261 0.019129 1
2.362299 2.486187 0.019320 1
2.370921 2.477658 0.019520 1
2.379512 2.469098 0.019720 1
2.388074 2.460510 0.019919 1
2.396605 2.451891 0.020117 1
2.413578 2.434564 0.020510 1
2.417802 2.430214 0.020607 1
2.429590 2.417994 0.020880 1
2.438391 2.408792 0.021083 1
2.455477 2.390732 0.021478 10
2.463765 2.381879 0.021668 1
2.471610 2.373441 0.021849 1
2.479426 2.364977 0.022029 1
2.487624 2.356040 0.022217 1
2.495790 2.347074 0.022405 1
2.503926 2.338080 0.022591 1
2.512029 2.329057 0.022777 1
2.520504 2.319553 0.022971 1
2.528543 2.310473 0.023155 1
2.536151 2.301821 0.023329 1
2.543730 2.293143 0.023502 1
2.552073 2.283523 0.023693 1
2.560381 2.273872 0.023882 1
2.568260 2.264653 0.024061 1
2.576107 2.255406 0.024240 1
2.583532 2.246597 0.024409 1
2.590927 2.237762 0.024577 1
2.599067 2.227970 0.024761 1
2.607171 2.218147 0.024945 1
2.611402 2.212990 0.025041 1
2.621744 2.200298 0.025275 1
2.629746 2.190392 0.025456 1
2.655940 2.195741 0.022391 1
2.644889 2.171444 0.025797 1
2.652035 2.162406 0.025958 1
2.659898 2.152390 0.026135 1
2.667353 2.142824 0.026303 1
2.674774 2.133232 0.026469 1
2.720749 2.138381 0.021411 10
2.696472 2.104786 0.026955 1
2.703760 2.095092 0.027118 1
2.718236 2.075629 0.027441 10
2.732575 2.056066 0.027761 10
2.739338 2.046738 0.027911 1
2.746424 2.036896 0.028068 1
2.753475 2.027028 0.028225 1
2.783179 2.033111 0.024626 1
2.767474 2.007220 0.028534 1
2.774422 1.997279 0.028688 1
2.781335 1.987314 0.028840 1
2.784778 1.982322 0.028916 1
2.877064 2.022949 0.015758 1
2.801864 1.957275 0.029292 1
2.808299 1.947718 0.029433 1
2.815039 1.937635 0.029581 1
2.854851 1.949331 0.024381 1
2.828413 1.917399 0.029874 1
2.835047 1.907246 0.030019 1
2.841645 1.897070 0.030162 1
2.908342 1.925284 0.020692 1
2.854735 1.876649 0.030447 1
2.945116 1.919173 0.017245 1
2.880486 1.835536 0.031005 10
2.886834 1.825202 0.031142 1
2.937240 1.841523 0.024350 1
2.943608 1.830991 0.024486 1
2.905661 1.794067 0.031547 1
2.956234 1.809861 0.024757 1
2.979593 1.809287 0.022230 1
3.040490 1.758963 0.019290 10
2.965751 1.689422 0.032825 10
2.977389 1.668140 0.033070 10
3.093543 1.660747 0.020403 1
3.147080 1.307234 0.036510 1
3.340820 1.356565 0.010347 1
3.350125 1.332677 0.010525 1
3.484954 0.907752 0.012896 10
3.511073 0.796703 0.013280 1
3.531717 0.695604 0.013549 1
3.533024 0.688676 0.013564 1
3.536175 0.671661 0.013601 1
3.547251 0.607883 0.013720 10
3.423921 0.575694 0.030480 1
3.480713 0.572105 0.023175 1
3.427775 0.551242 0.030516 1
3.555129 0.557867 0.013793 1
3.557015 0.545188 0.013809 1
3.460715 0.518449 0.026899 1
3.434971 0.502259 0.030573 1
3.562405 0.507113 0.013848 1
3.442243 0.478253 0.030072 1
3.570426 0.444171 0.013891 1
3.473423 0.420104 0.026970 1
3.476190 0.395311 0.026977 10
3.576773 0.386839 0.013904 10
3.579911 0.354946 0.013902 10
3.512069 0.311956 0.023304 1
3.514080 0.286896 0.023290 1
3.487380 0.271709 0.026942 1
3.515960 0.261196 0.023271 1
3.588819 0.241215 0.013834 1
3.518342 0.224190 0.023236 1
3.491347 0.210092 0.026883 1
3.591058 0.202183 0.013790 1
3.520405 0.185907 0.023189 1
3.522012 0.148860 0.023134 10
3.494706 0.135951 0.026776 1
3.594591 0.113808 0.013650 1
3.523865 0.086037 0.023017 1
3.524002 0.079124 0.023003 1
3.596002 0.023451 0.013450 10
3.595655 -0.040639 0.013273 1
3.594942 -0.077805 0.013157 10
3.594231 -0.103432 0.013072 10
3.593317 -0.129694 0.012980 10
3.592243 -0.155308 0.012885 10
3.588412 -0.225062 0.012603 10
3.584249 -0.282594 0.012345 10
3.576046 -0.371301 0.011901 1
3.505504 -0.799168 0.008958 1
3.502511 -0.812290 0.008846 1
3.498004 -0.831640 0.008679 10
3.493993 -0.848473 0.008532 1
3.490971 -0.860930 0.008421 1
3.484797 -0.885811 0.008196 10
3.481645 -0.898235 0.008082 1
3.478450 -0.910649 0.007967 1
3.468604 -0.947820 0.007616 1
3.362932 -0.958128 0.020507 10
3.401479 -0.982048 0.014555 1
3.451331 -1.009538 0.007008 1
3.444121 -1.034138 0.006757 10
3.345496 -1.018006 0.019900 1
3.425346 -1.095415 0.006112 1
3.368573 -1.090797 0.013420 1
3.349806 -1.097355 0.015422 1
3.415756 -1.125319 0.005786 1
3.349516 -1.123729 0.014093 1
3.405708 -1.155747 0.005446 1
3.401820 -1.167286 0.005316 1
3.303881 -1.147428 0.018486 1
3.356033 -1.178611 0.010362 1
3.389292 -1.203641 0.004897 1
3.380945 -1.227201 0.004619 10
3.309470 -1.215068 0.014072 1
3.371997 -1.251906 0.004324 1
3.367568 -1.263934 0.004178 1
3.289016 -1.247690 0.014710 1
3.307088 -1.267213 0.011370 1
3.280372 -1.270568 0.014426 1
3.266540 -1.306231 0.013976 1
3.335631 -1.347093 0.003135 1
3.330870 -1.358993 0.002981 1
3.234189 -1.333737 0.016197 1
3.229475 -1.345285 0.016045 1
3.279692 -1.379483 0.007864 1
3.238466 -1.375371 0.013069 1
3.309182 -1.411746 0.002282 1
3.301687 -1.429452 0.002042 1
3.245630 -1.419375 0.009383 1
3.240869 -1.430382 0.009232 1
3.235818 -1.441952 0.009071 1
3.223473 -1.450308 0.009982 1
3.225595 -1.465039 0.008746 1
3.271047 -1.499288 0.001068 1
3.218822 -1.489690 0.007881 1
3.181123 -1.486343 0.012549 1
3.197470 -1.507673 0.009160 1
3.169061 -1.507644 0.012495 3
3.161947 -1.518120 0.012596 3
3.151219 -1.526867 0.013235 11
3.135105 -1.532992 0.014681 11
3.129968 -1.543634 0.014520 11
3.128087 -1.556551 0.013812 11
3.126154 -1.569474 0.013102 11
3.123892 -1.582962 0.012382 11
3.109447 -1.589692 0.013556 12
3.107661 -1.602031 0.012852 12
3.105829 -1.614377 0.012146 12
3.101614 -1.626934 0.011692 12
3.102919 -1.641659 0.010435 11
3.087432 -1.641362 0.012226 11
3.084291 -1.660122 0.011157 3
3.055683 -1.659070 0.014489 3
3.070802 -1.681212 0.011066 1
3.152077 -1.739235 -0.002634 1
3.086765 -1.718293 0.006374 1
3.139781 -1.761727 -0.003011 1
3.133574 -1.772941 -0.003201 1
3.127329 -1.784134 -0.003391 1
3.165954 -1.820553 -0.010626 1
3.108996 -1.816467 -0.003950 1
3.089363 -1.850271 -0.004545 10
3.083174 -1.860757 -0.004733 1
3.076294 -1.872323 -0.004941 1
3.069702 -1.883315 -0.005140 1
3.063071 -1.894284 -0.005340 1
3.056403 -1.905229 -0.005541 1
3.049696 -1.916151 -0.005743 1
3.042951 -1.927050 -0.005945 1
3.120599 -1.989759 -0.019752 1
3.026608 -1.953110 -0.006436 10
3.059728 -1.997010 -0.013833 1
3.002385 -1.990866 -0.007161 1
3.038176 -2.030277 -0.014476 1
2.987984 -2.012842 -0.007590 1
2.980902 -2.023524 -0.007801 1
2.974140 -2.033650 -0.008002 1
2.966627 -2.044815 -0.008226 1
3.002083 -2.084310 -0.015550 1
2.975114 -2.081639 -0.012485 1
2.977955 -2.098477 -0.014333 1
2.937998 -2.086568 -0.009075 1
2.930659 -2.097075 -0.009292 1
2.955702 -2.130339 -0.014991 1
2.938508 -2.134039 -0.013567 1
2.908423 -2.128443 -0.009949 1
2.900938 -2.138847 -0.010169 1
2.893417 -2.149225 -0.010391 1
2.886238 -2.159059 -0.010602 1
2.878646 -2.169385 -0.010825 1
2.871019 -2.179685 -0.011049 1
2.855656 -2.200204 -0.011500 1
2.840151 -2.220615 -0.011954 1
2.832736 -2.230273 -0.012171 1
2.825289 -2.239905 -0.012388 1
2.817415 -2.250018 -0.012618 1
2.793584 -2.280191 -0.013313 1
2.785570 -2.290193 -0.013546 1
3.892954 -3.232932 -0.035129 25
3.882178 -3.246072 -0.035442 1
3.835748 -3.301685 -0.036787 1
3.824744 -3.314635 -0.037105 1
3.813696 -3.327548 -0.037425 1
3.801436 -3.341778 -0.037779 1
3.735039 -3.309032 -0.030631 1
3.777940 -3.368757 -0.038456 1
3.766714 -3.381514 -0.038780 1
3.756340 -3.396222 -0.039330 1
3.705829 -3.375153 -0.034241 1
3.657885 -3.357085 -0.029580 1
3.719857 -3.436816 -0.040379 1
3.696912 -3.461907 -0.041037 1
3.629236 -3.423780 -0.033421 1
3.672580 -3.488153 -0.041735 1
3.647450 -3.514879 -0.042454 1
3.568460 -3.453648 -0.032144 1
3.623369 -3.540133 -0.043142 1
3.539313 -3.484049 -0.032976 1
3.527094 -3.496644 -0.033325 1
3.585988 -3.578663 -0.044209 1
3.523000 -3.540598 -0.036959 1
3.490792 -3.533550 -0.034359 1
3.510665 -3.653914 -0.046352 25
3.408956 -3.575315 -0.033170 1
3.396419 -3.587455 -0.033525 1
3.403146 -3.619612 -0.036849 1
3.366225 -3.654633 -0.037895 25
3.421382 -3.739197 -0.048882 1
3.408273 -3.751378 -0.049253 1
3.184139 -3.685910 -0.030490 1
3.144606 -3.720400 -0.031602 25
2.905381 -3.914167 -0.038290 25
2.884793 -3.929719 -0.038863 25
2.781348 -4.005351 -0.041733 1
2.668118 -4.083539 -0.044863 1
2.363189 -4.272167 -0.053236 25
1.596612 -4.411524 -0.048780 1
1.549445 -4.429073 -0.050045 25
1.519090 -4.442175 -0.051107 25
1.504318 -4.447438 -0.051503 1
1.442711 -4.468792 -0.053150 1
1.395727 -4.484442 -0.054405 25
1.357822 -4.421574 -0.046442 1
1.348583 -4.499598 -0.055663 1
1.301282 -4.514260 -0.056923 25
1.207027 -4.541869 -0.059431 25
1.175218 -4.550709 -0.060276 25
1.087776 -4.471267 -0.050136 25
1.072127 -4.475299 -0.050551 1
1.080234 -4.575692 -0.062795 1
0.977943 -4.498347 -0.053045 1
0.946444 -4.505590 -0.053878 1
0.802015 -4.434703 -0.045233 1
0.785719 -4.437890 -0.045662 1
0.789026 -4.538348 -0.058030 1
0.773145 -4.541337 -0.058449 1
0.723533 -4.449482 -0.047299 25
