# .PCD v.7 - Point Cloud Data file format
VERSION .7
FIELDS x y z intensity
SIZE 4 4 4 1
TYPE F F F U
COUNT 1 1 1 1
WIDTH 1511
HEIGHT 1
VIEWPOINT 0 0 0 1 0 0 0
POINTS 1511
DATA ascii
3.691693 11.211579 0.969059 42
3.808999 11.334027 0.968967 37
3.880507 11.381092 0.968824 86
3.906882 11.343243 0.968598 51
3.933247 11.309836 0.968385 33
3.969233 11.289204 0.968171 45
3.998907 11.253566 0.967936 45
4.107643 11.361495 0.967828 60
4.147872 11.347143 0.967615 48
4.134933 11.243239 0.967336 26
4.336991 11.495301 0.967297 33
4.372728 11.389590 0.966805 8
4.440646 11.423086 0.966625 11
32.871140 56.885708 0.993184 39
36.216568 61.780552 0.994819 49
41.583790 69.792648 0.997958 62
36.923939 61.957726 0.992339 50
36.152504 60.290577 0.990184 47
37.694336 62.218616 0.989842 51
5.216537 11.824820 0.964578 18
5.239106 11.780998 0.964331 28
5.271912 11.744582 0.964062 28
5.307163 11.715962 0.963807 6
5.411332 11.707813 0.963311 30
5.501494 11.762229 0.963089 12
5.534815 11.567951 0.962268 31
5.622817 11.613351 0.962022 19
5.757932 11.723216 0.961781 18
5.844627 11.764238 0.961524 19
5.877954 11.735067 0.961267 37
5.875654 11.657437 0.961005 22
45.851254 64.671547 0.961150 62
46.333824 64.848831 0.959504 63
46.789124 64.985344 0.957835 63
47.264462 65.120377 0.956061 63
47.642143 65.147530 0.954357 62
48.069767 65.235947 0.952631 62
48.483799 65.303268 0.950887 62
48.955940 65.440674 0.949112 61
47.514427 63.168552 0.947788 62
49.997471 65.823418 0.945470 60
50.437004 65.906235 0.943636 60
50.712521 65.806633 0.941924 60
49.295971 63.637875 0.940836 62
51.999527 66.474586 0.938089 59
52.222664 66.279686 0.936265 59
52.509228 66.160751 0.934404 59
52.119068 65.214104 0.932788 60
54.005238 67.008537 0.930162 57
28.640800 36.568474 0.941720 25
54.175041 65.820145 0.924809 58
54.248512 65.448952 0.923023 58
54.459969 65.237335 0.921144 58
54.622932 64.971092 0.919296 58
54.835274 64.761246 0.917408 58
55.535076 65.117584 0.915222 58
55.970329 65.151047 0.913128 57
56.379608 65.152657 0.911037 57
57.081333 65.470795 0.908674 56
57.382351 65.324539 0.906549 56
57.677330 65.193207 0.904507 56
58.029495 65.121948 0.902399 56
58.680576 65.388611 0.900071 55
59.083893 65.365211 0.897876 55
59.554268 65.386909 0.895503 55
60.225128 65.635925 0.892983 54
60.675671 65.673615 0.890765 54
60.965298 65.520454 0.888620 54
61.703026 65.822708 0.885944 53
62.198936 65.873146 0.883520 53
60.460617 63.676044 0.883802 55
63.117649 65.912376 0.878790 52
63.463264 65.825745 0.876588 52
63.922863 65.804329 0.874038 52
65.213074 66.590897 0.870358 50
65.820679 66.723610 0.867636 50
10.182326 12.606283 0.942789 6
10.249773 12.593511 0.942369 6
10.365837 12.622201 0.941859 11
10.485168 12.652958 0.941337 6
10.821548 12.884672 0.940479 16
11.028919 12.913714 0.939464 9
11.049767 12.849441 0.939074 4
11.114391 12.742286 0.938256 23
11.602955 13.096120 0.937074 27
11.196115 12.650727 0.937405 9
11.818423 13.027362 0.935573 2
76.994255 68.546707 0.813771 63
14.405046 14.698442 0.928382 40
14.449719 14.638679 0.927861 40
14.518848 14.599146 0.927289 33
14.609553 14.577051 0.926672 13
83.360176 69.962166 0.783894 63
15.807158 15.047772 0.921933 7
16.605700 15.475215 0.919279 8
17.038778 15.706715 0.917836 13
17.505402 15.959748 0.916296 13
18.059858 16.275238 0.914533 9
11.269049 11.017529 0.929614 6
11.229774 10.843537 0.929025 34
11.231958 10.773611 0.928681 23
11.233815 10.703789 0.928339 29
11.251493 10.645875 0.927958 53
11.233315 10.562117 0.927666 46
11.240678 10.497305 0.927311 51
11.254259 10.437212 0.926941 48
11.267581 10.377140 0.926571 46
11.293725 10.326303 0.926169 46
11.301666 10.266254 0.925829 51
11.324106 10.213063 0.925435 51
11.349631 10.162099 0.925032 55
11.368358 10.106552 0.924647 61
11.396788 10.057727 0.924235 68
11.418406 10.004344 0.923840 63
11.453113 9.959814 0.923409 68
11.467675 9.901881 0.923033 65
11.505381 9.859358 0.922591 63
11.539604 9.814490 0.922158 63
11.566967 9.765139 0.921743 57
11.600877 9.720035 0.921308 53
11.644750 9.681260 0.920844 53
11.688516 9.642285 0.920378 46
11.732176 9.603111 0.919910 46
11.782515 9.567974 0.919421 40
11.849778 9.543120 0.918879 23
11.964746 9.547222 0.918191 14
12.115978 9.575987 0.917405 6
12.349674 9.653562 0.916361 4
12.681573 9.784812 0.914986 2
12.952709 9.876989 0.913784 7
13.224664 9.967380 0.912566 4
13.493978 10.053955 0.911343 4
13.853969 10.191059 0.909819 2
14.249745 10.345753 0.908163 5
14.487110 10.406373 0.906999 2
14.902482 10.566187 0.905245 2
36.993053 22.931940 0.832555 22
36.329109 22.382236 0.833786 20
35.574345 21.788971 0.835351 19
34.840454 21.214725 0.836884 17
34.141731 20.675137 0.838380 16
33.548740 20.191309 0.839506 15
32.840015 19.651373 0.841057 14
32.244511 19.178598 0.842254 13
31.784128 18.782976 0.843012 13
31.275326 18.366697 0.843962 12
30.788895 17.967079 0.844858 12
29.199482 16.868134 0.848921 10
28.597786 16.427402 0.850318 20
28.111425 16.050177 0.851329 29
27.999001 15.863301 0.851002 9
27.300642 15.389509 0.852828 8
26.419596 14.833097 0.855361 8
26.453335 14.726989 0.854543 8
25.628483 14.097281 0.856290 7
25.149321 13.753838 0.857429 6
24.657227 13.408829 0.858641 6
24.166695 13.069093 0.859871 6
23.652300 12.722939 0.861217 6
23.135817 12.380528 0.862596 5
22.642796 12.053351 0.863909 5
12.447309 7.348120 0.903026 4
12.495069 7.309007 0.902484 2
12.487671 7.245798 0.902160 2
19.453709 10.173446 0.873749 4
18.620441 9.731171 0.876602 3
17.880224 9.335152 0.879117 3
12.523335 6.966257 0.900265 14
12.529294 6.909615 0.899886 12
12.535034 6.853004 0.899508 12
12.697540 6.856317 0.898453 14
13.703396 7.195543 0.893846 27
13.773370 7.159815 0.893165 47
12.542909 6.447810 0.896988 2
18.214432 7.945535 0.868379 6
18.166651 7.850553 0.868100 10
18.182892 7.777703 0.867529 16
18.012915 7.642884 0.867816 9
18.084160 7.438096 0.866026 141
18.040907 7.270447 0.865238 22
18.089447 7.208890 0.864511 9
18.359623 7.215026 0.862720 13
18.847212 7.289006 0.859895 10
18.524155 7.113235 0.860940 6
19.961021 7.459485 0.853447 12
20.820652 7.626831 0.848701 8
21.517584 7.736622 0.844682 13
21.587166 7.667727 0.843752 9
22.977785 7.968138 0.836264 5
23.665173 8.064129 0.832213 10
24.568392 8.218887 0.827079 11
25.530849 8.383313 0.821602 18
25.504896 8.263370 0.820976 6
27.057524 8.571662 0.812424 6
30.662512 9.264662 0.792409 9
33.064575 9.750432 0.779231 11
33.308544 9.680760 0.777083 11
36.040188 10.213308 0.761956 14
79.295868 18.621855 0.522096 60
79.333435 18.333113 0.519821 60
68.748314 12.015895 0.548120 49
34.150429 5.470574 0.741145 12
34.189560 4.963785 0.737056 12
34.219116 4.839272 0.735906 12
34.315880 4.721558 0.734334 12
34.595909 4.363914 0.729640 24
34.746338 4.255079 0.727749 12
61.022305 5.707075 0.554652 35
60.989712 5.494772 0.553229 35
18.984993 2.044880 0.821172 3
18.972561 1.971015 0.820674 3
18.963707 1.901075 0.820181 3
18.946627 1.830882 0.819742 3
19.000193 1.679189 0.818153 3
19.038157 1.464048 0.816156 19
19.043610 1.394492 0.815556 22
19.052944 1.317634 0.814867 22
19.061956 1.244381 0.814209 22
19.070711 1.171070 0.813550 22
19.168812 0.655621 0.808621 3
19.199505 0.581254 0.807787 3
49.596024 -0.537132 0.584694 30
44.303493 -1.504706 0.613725 24
44.054893 -1.652418 0.614212 24
43.998863 -1.979293 0.611808 48
44.028664 -2.134390 0.610267 48
44.069332 -2.298603 0.608568 48
44.094063 -2.453904 0.607055 24
44.129604 -2.618384 0.605383 24
44.183830 -2.792838 0.603490 24
44.258701 -2.953313 0.601571 24
56.828472 -4.853588 0.496858 30
20.663774 -1.338587 0.781066 3
20.221968 -1.371391 0.783871 3
19.879610 -1.412071 0.785908 3
19.155149 -1.481699 0.790361 3
18.769135 -1.509892 0.792810 3
18.581654 -1.560058 0.793673 3
18.255661 -1.587687 0.795705 3
17.993170 -1.621488 0.797236 2
17.650936 -1.646355 0.799403 2
17.403870 -1.681987 0.800808 2
17.120682 -1.714211 0.802493 2
16.862226 -1.741281 0.804052 2
16.599365 -1.769319 0.805631 2
16.385984 -1.868641 0.806216 5
16.411440 -1.938328 0.805404 7
16.420841 -2.005654 0.804724 5
16.422104 -2.071767 0.804110 7
16.423677 -2.134717 0.803522 7
16.436298 -2.202971 0.802807 7
16.451466 -2.278476 0.802007 7
16.447813 -2.344149 0.801426 5
16.472052 -2.411705 0.800633 5
16.480322 -2.476502 0.799975 5
16.491674 -2.545365 0.799257 5
16.494921 -2.612816 0.798607 2
16.496637 -2.686775 0.797905 2
16.500019 -2.751135 0.797280 2
-20.139805 1.003376 0.876657 2
-20.155649 1.066900 0.877105 2
-20.179272 1.130597 0.877516 2
-20.266665 1.195177 0.877641 2
-20.281837 1.259311 0.878093 2
-20.312782 1.323844 0.878474 2
-20.455473 1.391024 0.878363 2
-20.665976 1.457651 0.877934 2
-21.531872 1.547663 0.874686 2
-40.795773 2.232232 0.791803 14
-40.835178 2.369341 0.792720 14
-40.966026 2.510324 0.793246 14
-40.988461 2.647654 0.794238 14
-40.954472 2.782587 0.795466 14
-41.047859 2.923628 0.796156 14
-41.763489 3.105295 0.794312 14
-41.776226 3.238399 0.795303 14
-104.446999 7.136325 0.538894 63
-103.850853 7.814745 0.546939 63
-104.065826 8.187230 0.548863 63
-104.012177 8.541522 0.551866 63
-104.264366 8.919327 0.553646 63
-106.018227 9.420763 0.549510 63
-107.223755 9.888377 0.547612 63
-134.650681 13.584216 0.450746 63
-147.339554 18.870932 0.432967 63
-130.053940 21.282173 0.529178 63
-71.301559 13.218960 0.735794 47
-71.016075 13.653851 0.740198 94
-70.943939 13.889668 0.742207 47
-70.886711 14.128133 0.744164 47
-52.558182 10.817681 0.802859 30
-52.217506 10.933680 0.805207 30
-52.394241 11.151707 0.805956 30
-54.082565 11.681331 0.802134 30
-54.005779 11.855026 0.803698 30
-52.304646 11.683421 0.810092 30
-53.185814 12.057595 0.808775 30
-40.426338 9.441487 0.847422 14
-39.475315 9.369912 0.851160 13
-38.866093 9.362411 0.853818 13
-38.002529 9.298891 0.857217 12
-38.047306 9.441978 0.858004 12
-38.033154 9.571593 0.858957 12
-38.037975 9.705909 0.859855 12
-38.050068 9.842269 0.860733 12
-38.026714 9.970120 0.861707 12
-38.088226 10.119477 0.862449 12
-38.199505 10.282288 0.863060 12
-38.046848 10.377508 0.864376 12
-38.168568 10.544233 0.864962 12
-38.173641 10.680902 0.865857 12
-38.332615 10.859623 0.866355 13
-48.699501 13.847977 0.840834 27
-43.202496 12.638290 0.856859 38
-43.646133 12.920856 0.856789 19
-43.867592 13.134732 0.857233 20
-42.905506 13.174180 0.861682 38
-42.464428 13.196989 0.863748 36
-40.638756 12.794205 0.869047 31
-40.410057 12.871277 0.870539 30
-39.043663 12.591008 0.874638 42
-38.797024 12.655169 0.876118 41
-38.800045 12.790679 0.876978 27
-38.686337 12.895761 0.878143 41
-38.838394 13.087469 0.878716 27
-36.988884 12.616343 0.883657 24
-35.503712 12.377449 0.888508 33
-34.945293 12.329307 0.890593 32
-34.843281 12.416305 0.891577 32
-34.497524 12.423600 0.893098 20
-33.633785 12.250673 0.895692 19
-20.992958 7.827778 0.921802 8
-20.823544 7.837623 0.922582 2
-20.515514 7.806552 0.923694 2
-20.585354 7.906089 0.924015 2
-21.064175 8.156060 0.923535 3
-19.842163 7.768973 0.926307 2
-18.891052 7.612004 0.929344 42
-18.828188 7.716736 0.930242 5
-20.803778 8.741927 0.928186 3
-20.552628 8.710794 0.929042 2
-20.486345 8.755396 0.929583 2
-20.630878 8.896554 0.929824 2
-20.645018 8.975715 0.930235 3
-18.633802 8.185083 0.933847 2
-18.652592 8.262412 0.934225 2
-18.498955 8.264269 0.934866 2
-19.513084 8.779877 0.933732 2
-19.485786 8.841099 0.934201 2
-19.640512 8.984627 0.934405 2
-18.705069 8.635689 0.936189 2
-18.587460 8.652240 0.936762 2
-18.741962 8.794569 0.936956 2
-18.624092 8.810615 0.937525 2
-18.554684 8.845292 0.938003 2
-18.621008 8.947993 0.938322 2
-18.672403 9.044305 0.938664 2
-18.888803 9.221534 0.938801 2
-18.773781 9.238294 0.939356 2
-23.225039 11.606750 0.934930 42
-22.921755 11.542312 0.935775 29
-22.836712 11.586417 0.936358 41
-22.694492 11.609979 0.937052 33
-22.787111 11.744746 0.937434 28
-22.156981 11.508817 0.938611 38
-22.375109 11.713174 0.938880 28
-22.132544 11.675769 0.939625 34
-21.962715 11.679873 0.940312 15
-21.735136 11.647156 0.941020 26
-21.520428 11.615296 0.941683 45
-21.290270 11.577822 0.942373 25
-21.207676 11.620090 0.942921 36
-20.911846 11.543206 0.943649 31
-20.782564 11.553138 0.944200 31
-20.646255 11.566882 0.944797 27
-20.538115 11.587168 0.945320 23
-20.714119 11.778852 0.945666 21
-20.334463 11.731861 0.946862 30
-19.711016 11.450694 0.947746 9
-19.553598 11.519919 0.948703 39
-19.174232 11.374647 0.949373 34
-19.180483 11.464692 0.949817 34
-19.074034 11.477847 0.950283 31
-19.027113 11.531214 0.950733 20
-18.869801 11.511675 0.951218 30
-18.761806 11.526009 0.951691 30
-18.564171 11.487058 0.952223 30
-18.439716 11.489070 0.952692 57
-18.313919 11.485328 0.953135 38
-18.129396 11.446773 0.953617 36
-18.104366 11.514702 0.954050 15
-17.890343 11.454596 0.954528 26
-17.855555 11.507362 0.954918 21
-17.815418 11.560564 0.955329 23
-17.750010 11.600756 0.955765 26
-19.545982 11.694532 1.069298 23
-109.179832 67.258774 1.634616 63
-108.800423 67.566689 1.636679 63
-108.292572 67.714897 1.637274 63
-18.306469 11.407354 1.065428 15
-18.322021 11.501788 1.066221 47
-18.194569 11.500145 1.066052 30
-18.085913 11.505855 1.065966 30
-18.236305 11.685086 1.067620 36
-18.036926 11.638646 1.066996 20
-17.953077 11.663612 1.067098 25
-18.031895 11.797493 1.068293 61
-17.590073 11.579808 1.065967 34
-17.556313 11.636557 1.066391 39
-17.280304 11.522791 1.065121 14
-17.116659 11.492300 1.064671 42
-16.883118 11.407764 1.063692 13
-16.815765 11.434188 1.063826 37
-16.815121 11.511410 1.064459 32
-16.851789 11.611712 1.065327 13
-16.581013 11.577243 1.064713 13
-16.413313 11.529045 1.064113 40
-15.986365 11.292911 1.061654 8
-16.199278 11.529868 1.063858 39
-16.125761 11.548344 1.063920 21
-16.187979 11.672174 1.065012 21
-15.716737 11.545430 1.063396 21
-77.945587 60.140457 1.538062 63
-15.283049 11.432373 1.061939 4
-15.185041 11.434032 1.061833 4
-14.766572 11.393437 1.060989 18
-14.684367 11.474957 1.061557 3
-14.635376 11.509090 1.061777 3
-14.301517 11.378375 1.060297 32
-14.204155 11.369660 1.060106 36
-14.119174 11.370782 1.060012 32
-14.019170 11.358398 1.059788 38
-14.007092 11.421375 1.060290 38
-14.064730 11.538004 1.061317 25
-13.929795 11.497855 1.060823 38
-13.831941 11.481865 1.060572 21
-13.877054 11.599780 1.061594 10
-66.835030 59.565388 1.519770 63
-61.360443 54.962116 1.475320 63
-60.817005 54.863480 1.473846 63
-13.175166 11.396740 1.059071 6
-13.347337 11.634439 1.061231 7
-59.095001 54.772503 1.470996 60
-12.914083 11.446527 1.059161 26
-12.820696 11.503270 1.059512 26
-12.777177 11.530852 1.059685 81
-12.777430 11.604966 1.060293 45
-12.726083 11.628603 1.060425 19
-12.625520 11.599364 1.060062 13
-12.154265 11.205200 1.056253 25
-12.149515 11.271974 1.056795 37
-12.112556 11.302855 1.057003 18
-12.205116 11.469801 1.058485 40
-12.148968 11.485409 1.058545 28
-11.998447 11.402844 1.057684 28
-11.873524 11.345362 1.057060 30
-11.779440 11.319024 1.056728 48
-11.781765 11.393957 1.057346 27
-11.676996 11.355224 1.056900 12
-11.688565 11.513859 1.058216 24
-11.663572 11.553206 1.058508 9
-11.535850 11.491166 1.057843 6
-11.375632 11.388139 1.056802 3
-11.228244 11.439653 1.057045 8
-11.097370 11.368477 1.056301 14
-11.077888 11.412183 1.056636 23
-11.028334 11.428848 1.056712 5
-10.985572 11.460561 1.056920 8
-46.400051 53.278637 1.443231 44
-10.541197 11.369833 1.055632 44
-10.449079 11.331706 1.055207 27
-10.383324 11.328639 1.055102 27
-10.235764 11.216595 1.054002 26
-10.215046 11.264128 1.054367 34
-10.195899 11.310205 1.054721 33
-10.184664 11.370240 1.055200 24
-9.980902 11.189656 1.053470 21
-9.992017 11.277494 1.054204 18
-7.026784 7.573839 1.020199 1
-6.943061 7.512026 1.019590 1
-6.858541 7.445667 1.018942 1
-6.783028 7.392440 1.018413 1
-6.758254 7.406034 1.018495 1
-6.709599 7.387416 1.018282 0
-6.699104 7.420055 1.018537 0
-6.655373 7.407505 1.018381 0
-6.625890 7.414146 1.018399 0
-6.594079 7.417416 1.018387 0
-6.561097 7.416486 1.018339 0
-6.527050 7.416205 1.018296 0
-6.471192 7.387137 1.017989 0
-6.437365 7.386461 1.017942 0
-6.406997 7.388135 1.017919 0
-6.386907 7.406911 1.018048 0
-6.330582 7.372819 1.017700 0
-6.317267 7.401269 1.017917 0
-6.276966 7.389912 1.017774 0
-6.245698 7.391646 1.017750 0
-6.212257 7.389909 1.017695 0
-6.187689 7.401373 1.017759 0
-6.143420 7.377816 1.017512 0
-6.108017 7.372256 1.017423 0
-6.072705 7.366529 1.017333 0
-6.050421 7.380846 1.017423 0
-6.015220 7.374826 1.017331 0
-5.988642 7.382174 1.017359 0
-5.943983 7.362980 1.017147 0
-5.927044 7.382953 1.017290 0
-5.890024 7.372920 1.017162 0
-5.880230 7.407079 1.017430 0
-5.839146 7.389938 1.017240 0
-5.803467 7.378774 1.017104 0
-5.791391 7.409325 1.017340 0
-5.760808 7.408892 1.017299 0
-5.750305 7.447586 1.017604 0
-5.715901 7.435270 1.017461 0
-5.693379 7.448341 1.017541 0
-5.634997 7.398875 1.017063 0
-5.563163 7.324744 1.016368 0
-6.009679 8.788993 1.028925 1
-5.983793 8.802380 1.029003 1
-5.160398 7.479521 1.017145 0
-5.148265 7.512214 1.017399 0
-5.115014 7.501705 1.017272 0
-5.026467 7.375662 1.016130 0
-5.005877 7.389939 1.016222 0
-4.973279 7.378826 1.016091 0
-4.947572 7.382058 1.016086 0
-4.937007 7.417854 1.016366 0
-4.954121 8.528932 1.025502 1
-4.921633 8.515968 1.025356 1
-4.880826 8.488990 1.025084 1
-4.852010 8.500149 1.025141 1
-4.320134 7.183324 1.013689 0
-4.283714 7.145803 1.013337 0
-4.249304 7.188538 1.013645 4
-4.227652 7.196491 1.013684 1
-4.210052 7.215654 1.013820 1
-4.194524 7.233990 1.013951 1
-4.172957 7.245909 1.014022 0
-4.161448 7.279640 1.014285 0
-4.140996 7.295227 1.014388 0
-4.130621 7.336864 1.014717 0
-4.167242 7.514528 1.016219 0
-4.135705 7.499813 1.016060 0
-4.075328 7.393427 1.015113 0
-4.067859 7.446401 1.015539 0
-4.041522 7.438129 1.015439 0
-4.020215 7.449167 1.015503 0
-3.990442 7.433429 1.015338 0
-3.970253 7.443946 1.015399 0
-3.946584 7.451270 1.015430 0
-3.921657 7.446341 1.015360 0
-3.903723 7.472644 1.015553 0
-3.852697 7.383506 1.014760 0
-4.623635 11.439487 1.048974 1
-4.494166 11.385201 1.048370 28
-4.438187 11.304096 1.047637 28
-4.397563 11.293221 1.047498 33
-4.369748 11.336728 1.047821 22
-4.334508 11.348975 1.047878 22
-4.283409 11.282660 1.047272 31
-4.237869 11.255963 1.046997 31
-4.200314 11.256036 1.046952 28
-4.177890 11.326367 1.047501 46
-4.145096 11.349702 1.047653 28
-4.117418 11.380013 1.047868 20
-4.072717 11.364704 1.047687 22
-4.052686 11.434041 1.048232 22
-4.015162 11.445565 1.048280 30
-3.987745 11.499804 1.048692 30
-3.937653 11.436078 1.048108 20
-3.911400 11.497974 1.048584 24
-3.879007 11.528334 1.048793 5
-3.822529 11.424714 1.047874 5
-3.782141 11.387177 1.047517 16
-3.743806 11.381647 1.047424 13
-3.703719 11.376282 1.047331 16
-3.681600 11.456997 1.047967 7
-3.644493 11.471135 1.048037 5
-3.597294 11.397638 1.047377 5
-3.555493 11.379848 1.047180 15
-3.519808 11.389310 1.047214 22
-3.479440 11.366988 1.046981 28
-3.437551 11.332632 1.046648 28
-3.401587 11.325591 1.046547 26
-3.364421 11.322633 1.046477 21
-3.336217 11.386951 1.046970 24
-3.297360 11.371858 1.046799 29
-3.264094 11.400275 1.046991 36
-3.240796 11.511970 1.047879 30
-3.206405 11.536238 1.048036 7
-3.170039 11.544497 1.048059 9
-3.120432 11.417267 1.046955 14
-3.076312 11.349671 1.046347 12
-3.018787 11.504463 1.047546 11
-2.980142 11.488190 1.047365 13
-2.940133 11.455845 1.047051 10
-2.914365 11.578714 1.048028 5
-2.875895 11.521888 1.047515 22
-2.833138 11.453273 1.046899 10
-2.794781 11.456403 1.046878 22
-2.761896 11.483044 1.047057 7
-2.728171 11.525672 1.047365 5
-2.683748 11.444620 1.046646 15
-2.642236 11.343191 1.045763 15
-2.605774 11.369576 1.045935 14
-2.573289 11.435655 1.046437 22
-2.535106 11.373732 1.045883 28
-2.501708 11.395554 1.046021 29
-2.465793 11.481458 1.046682 19
-2.429345 11.487155 1.046684 21
-2.393208 11.412646 1.046029 24
-2.356518 11.406101 1.045930 22
-2.318887 11.423475 1.046027 14
-2.279660 11.392736 1.045727 19
-2.245874 11.353706 1.045365 43
-2.209791 11.358641 1.045362 21
-2.173348 11.347452 1.045225 31
-2.137054 11.340136 1.045121 33
-2.101196 11.360688 1.045246 26
-2.064629 11.325122 1.044909 28
-2.028391 11.301426 1.044671 43
-1.990679 11.329606 1.044856 38
-1.956377 11.369650 1.045142 31
-1.920113 11.377574 1.045163 29
-1.884058 11.349374 1.044888 47
-1.845868 11.369024 1.045002 33
-1.811679 11.352592 1.044826 31
-1.773770 11.347980 1.044741 28
-1.741482 11.335346 1.044598 29
-1.703069 11.354470 1.044708 31
-1.668925 11.345565 1.044593 33
-1.632272 11.360477 1.044671 35
-1.597336 11.323294 1.044323 52
-1.560341 11.345947 1.044464 42
-1.523185 11.368467 1.044603 35
-1.486244 11.342823 1.044348 43
-1.452699 11.325215 1.044162 49
-1.416624 11.323381 1.044103 54
-1.377645 11.373339 1.044465 33
-1.341164 11.375237 1.044436 29
-1.305419 11.365029 1.044309 22
-1.270536 11.342727 1.044083 28
-1.235928 11.344374 1.044055 28
-1.197688 11.345640 1.044018 43
-1.164271 11.331091 1.043858 45
-1.128177 11.328251 1.043791 52
-1.089955 11.329119 1.043751 50
-1.052186 11.366024 1.044008 33
-1.016334 11.358809 1.043905 38
-0.979016 11.367398 1.043930 31
-0.943187 11.359931 1.043825 35
-0.908207 11.344380 1.043654 35
-0.870396 11.356559 1.043708 29
-0.833784 11.356668 1.043664 28
-0.797157 11.356649 1.043619 29
-0.760977 11.352528 1.043541 29
-0.727954 11.352682 1.043502 26
-0.691302 11.352289 1.043454 29
-0.654138 11.355735 1.043437 33
-0.617961 11.351114 1.043355 33
-0.581274 11.350332 1.043304 29
-0.551614 11.297900 1.042837 35
-0.508422 11.344417 1.043166 35
-0.470009 11.355124 1.043207 33
-0.433253 11.353817 1.043151 31
-0.398278 11.340515 1.043000 31
-0.360325 11.346860 1.043005 31
-0.321684 11.357017 1.043041 33
-0.286143 11.347287 1.042918 28
-0.263528 11.270642 1.042262 40
-0.228981 11.256770 1.042106 28
-0.204013 11.187596 1.041508 35
-0.155268 11.256255 1.042011 31
-0.113792 11.281389 1.042167 35
-0.074278 11.294556 1.042227 33
-0.042721 11.264319 1.041940 40
0.008081 11.336153 1.042467 35
0.048752 11.352781 1.042554 37
0.078715 11.314314 1.042202 36
0.114742 11.307136 1.042099 36
0.161976 11.354692 1.042431 39
0.201407 11.362885 1.042450 31
0.238433 11.359190 1.042375 31
0.267027 11.316264 1.041988 37
0.311629 11.347498 1.042190 31
0.348573 11.351621 1.042178 37
0.385613 11.347402 1.042098 37
0.417276 11.311450 1.041765 41
0.456955 11.326880 1.041843 37
0.499494 11.345622 1.041945 35
0.538441 11.348639 1.041922 33
0.574585 11.339856 1.041806 33
0.615524 11.350355 1.041842 35
0.652652 11.345181 1.041754 54
0.690768 11.343748 1.041696 39
0.720860 11.311204 1.041392 37
0.757892 11.305652 1.041301 33
0.795182 11.308177 1.041276 39
0.836410 11.317801 1.041305 37
0.869268 11.296406 1.041089 37
0.915609 11.316794 1.041200 35
0.939689 11.264350 1.040740 63
0.993531 11.323904 1.041163 45
1.041825 11.355794 1.041366 43
1.057723 11.276167 1.040693 22
1.063986 11.165883 1.039780 18
1.137531 11.281662 1.040640 22
1.178103 11.286092 1.040627 30
1.223461 11.305652 1.040732 45
1.265415 11.313567 1.040746 41
1.313494 11.340384 1.040907 43
1.347165 11.321275 1.040709 41
1.393071 11.340111 1.040808 31
1.435411 11.347348 1.040815 34
1.472965 11.351818 1.040806 34
1.468950 11.214022 1.039681 31
1.505903 11.205778 1.039568 31
1.594774 11.348735 1.040632 26
1.637469 11.355158 1.040632 24
1.662555 11.316751 1.040287 24
1.723124 11.367487 1.040629 24
1.761569 11.366512 1.040574 18
1.793678 11.342178 1.040335 22
1.828842 11.320841 1.040117 14
1.878785 11.345058 1.040255 20
1.918715 11.347256 1.040224 22
1.962317 11.347933 1.040176 22
1.962711 11.240787 1.039297 30
1.989131 11.213489 1.039041 30
2.027703 11.207094 1.038941 50
2.069843 11.199149 1.038824 44
2.136569 11.263044 1.039267 34
2.178383 11.263523 1.039220 22
2.247385 11.330525 1.039685 24
2.301118 11.369060 1.039936 24
2.342197 11.360763 1.039817 24
2.378373 11.345682 1.039650 26
2.427214 11.355497 1.039670 25
2.458186 11.337986 1.039489 27
2.497669 11.325397 1.039337 25
2.543093 11.336231 1.039371 21
2.597082 11.356276 1.039469 27
2.631618 11.336650 1.039266 27
2.677519 11.342463 1.039258 31
2.728460 11.359014 1.039331 25
2.772780 11.365245 1.039328 23
2.813987 11.359563 1.039231 25
2.833301 11.306561 1.038773 38
2.874379 11.300632 1.038674 36
2.936002 11.337930 1.038905 27
2.977264 11.331606 1.038802 27
2.992503 11.271067 1.038287 29
3.024822 11.250990 1.038083 29
3.106380 11.326912 1.038606 34
3.156649 11.333371 1.038598 34
3.169505 11.268922 1.038053 27
3.225139 11.294733 1.038197 27
3.270130 11.294405 1.038139 31
3.340717 11.348221 1.038495 27
3.325426 11.225657 1.037508 38
3.416552 11.313575 1.038118 24
3.476789 11.345270 1.038304 27
3.445521 11.198971 1.037142 29
3.526251 11.260238 1.037546 24
3.607595 11.325541 1.037982 15
3.668461 11.351737 1.038123 22
3.708439 11.339045 1.037970 22
3.686667 11.218640 1.037009 22
3.847987 11.339428 1.037803 87
3.895897 11.339980 1.037749 54
3.947845 11.347273 1.037745 49
3.956048 11.278044 1.037167 33
4.042076 11.343844 1.037602 54
4.102399 11.364273 1.037696 71
4.156848 11.374066 1.037709 42
4.139962 11.263230 1.036821 24
4.229690 11.340137 1.037342 19
4.273781 11.327659 1.037186 14
4.320217 11.322927 1.037090 16
35.079456 60.983807 1.406889 47
32.822598 56.890835 1.376071 39
4.638807 11.436074 1.037629 2
36.725685 61.736149 1.411050 50
37.002312 61.701736 1.410429 50
36.297375 60.147968 1.398545 47
42.662022 69.464355 1.467193 63
45.537376 72.830521 1.491293 63
39.076618 62.543468 1.414800 53
5.298015 11.721863 1.039168 2
5.397665 11.707208 1.038926 7
5.439173 11.683459 1.038681 5
45.394512 68.919861 1.459388 63
5.460649 11.478048 1.036970 23
5.539004 11.510712 1.037142 5
5.774032 11.681727 1.038257 2
43.991768 64.050217 1.421155 60
5.907660 11.708088 1.038310 2
44.817848 64.297409 1.422174 61
45.322758 64.515579 1.423346 62
45.792877 64.658653 1.423946 62
44.236782 62.160263 1.405352 57
46.589867 64.788467 1.424037 63
47.213783 65.142426 1.426178 63
48.288952 66.096794 1.432693 63
47.989494 65.220695 1.425872 63
50.332123 67.750908 1.443766 63
48.690582 65.215294 1.424971 63
49.227940 65.432747 1.426099 63
47.650951 63.001720 1.408083 62
50.479691 66.070526 1.429801 63
50.882988 66.104500 1.429587 63
49.278969 63.701817 1.411837 63
51.121662 65.496223 1.424306 63
52.318970 66.483940 1.430945 63
52.907314 66.702133 1.432016 63
58.622318 73.034073 1.476976 63
52.964066 65.844383 1.424911 63
54.482761 67.167870 1.433912 63
60.663937 72.876678 1.473191 63
56.585690 67.723457 1.435900 63
57.103230 67.864738 1.436427 63
55.313335 65.383690 1.418261 63
55.516418 65.159554 1.416175 63
57.754761 67.192108 1.430113 63
59.349049 68.484390 1.438766 63
63.595428 72.705200 1.468203 63
60.473606 68.789368 1.439894 63
61.243992 69.123131 1.441691 63
61.694424 69.130089 1.441198 63
62.425228 69.431908 1.442781 63
62.971848 69.531982 1.442934 63
63.479420 69.634552 1.443155 63
64.233879 69.942421 1.444759 63
64.624298 69.866249 1.443657 63
65.539536 70.327019 1.446319 63
66.187187 70.505157 1.446989 63
66.611198 70.475250 1.446225 63
67.397507 70.783066 1.447790 63
60.625782 63.487026 1.396212 63
68.805832 71.212860 1.449595 63
69.512077 71.420250 1.450433 63
70.189186 71.592781 1.451021 63
66.780586 67.789124 1.423983 63
66.990509 67.480270 1.421193 63
70.150597 70.091721 1.438755 63
70.478302 69.922318 1.436965 63
72.294220 71.158073 1.444883 63
74.318794 72.543839 1.453777 63
74.140114 71.903290 1.448741 63
75.758240 72.905914 1.454989 63
73.232742 69.600792 1.430962 63
82.133049 77.185783 1.482309 63
11.576093 13.083902 1.042671 4
11.747157 12.981003 1.041618 4
11.788931 12.933084 1.041174 4
78.738686 70.621178 1.432605 63
81.386986 72.400261 1.443964 63
14.411830 14.913375 1.054214 6
14.434468 14.644224 1.051978 76
14.497444 14.599662 1.051536 63
14.572674 14.564979 1.051160 51
87.271065 72.706512 1.439287 63
61.045082 50.908298 1.292513 63
89.196129 72.695595 1.436846 63
91.570648 74.036400 1.444943 63
46.157436 38.299515 1.207270 31
30.742523 26.173832 1.126634 59
30.806005 26.031946 1.125392 59
30.920731 25.947342 1.124558 29
11.300101 10.909630 1.025172 34
11.272137 10.813279 1.024416 26
11.253127 10.731369 1.023767 26
11.258000 10.663928 1.023208 30
11.265800 10.598923 1.022665 33
11.279796 10.538660 1.022154 33
11.283775 10.471433 1.021598 33
11.287447 10.404294 1.021042 36
11.300617 10.344162 1.020533 32
11.320083 10.288641 1.020054 32
11.339323 10.233099 1.019575 32
11.361629 10.179808 1.019110 36
11.390326 10.130992 1.018675 39
11.405612 10.073095 1.018181 43
11.434082 10.031063 1.017801 39
11.458914 9.979803 1.017351 43
11.486882 9.930696 1.016914 39
11.507994 9.877095 1.016448 39
11.538934 9.830030 1.016024 39
11.573064 9.785038 1.015613 36
11.607043 9.739915 1.015202 36
11.640873 9.694662 1.014789 36
11.677929 9.651424 1.014389 36
11.725000 9.614431 1.014028 36
11.783654 9.581179 1.013684 29
11.846057 9.556647 1.013406 18
11.954218 9.556639 1.013274 15
12.079615 9.566404 1.013201 7
12.296099 9.633864 1.013490 7
12.655233 9.781994 1.014266 8
12.915963 9.868271 1.014655 8
13.191239 9.960986 1.015080 8
13.450095 10.041756 1.015426 13
13.803010 10.175200 1.016090 4
14.184746 10.322303 1.016830 4
14.480945 10.417108 1.017246 5
38.282127 23.878241 1.098591 29
37.361923 23.173563 1.093934 29
36.660702 22.600601 1.090091 29
35.927986 22.017284 1.086201 29
35.142624 21.412346 1.082198 29
34.518524 20.903233 1.078784 29
33.813942 20.356834 1.075163 29
33.159096 19.852003 1.071822 29
32.606888 19.400248 1.068791 28
32.108559 18.982470 1.065972 27
31.554585 18.540564 1.063024 25
30.979633 18.085939 1.059997 24
30.363989 17.630587 1.057014 23
29.169521 16.741734 1.051182 41
28.605778 16.322702 1.048433 39
26.248901 14.772616 1.038597 14
26.318441 14.684529 1.037790 15
26.283131 14.545930 1.036696 14
26.091877 14.333860 1.035190 14
25.515970 13.942496 1.032683 13
25.007961 13.593885 1.030444 12
24.521866 13.254257 1.028252 11
24.021273 12.906971 1.026014 11
23.501909 12.561349 1.023814 11
22.951279 12.206364 1.021574 10
22.398487 11.855367 1.019371 10
21.742941 11.468854 1.017001 9
21.090534 11.084394 1.014644 9
20.505463 10.734863 1.012492 8
19.947641 10.402175 1.010444 8
19.071241 9.938817 1.007714 7
18.387249 9.564019 1.005475 6
17.364977 9.053934 1.002540 6
16.239592 8.509852 0.999451 5
15.295764 8.049460 0.996828 4
13.911481 7.418559 0.993344 4
13.732904 7.219059 0.991925 36
13.735938 7.156931 0.991412 36
13.790921 7.115155 0.991002 24
195.537933 75.460251 1.329599 10
195.609299 74.700516 1.323280 64
18.277172 7.824140 0.991337 12
18.213638 7.724329 0.990596 19
18.069386 7.366779 0.987839 139
18.091524 7.296828 0.987238 48
18.263653 7.118998 0.985569 18
19.364460 7.375479 0.986328 21
19.927477 7.460908 0.986341 22
20.752451 7.618688 0.986627 16
21.583809 7.767782 0.986835 17
21.978178 7.799952 0.986617 8
23.023581 7.998475 0.986968 9
25.656393 8.425997 0.987258 11
26.652557 8.587210 0.987364 12
30.188629 9.406091 0.989761 18
30.258963 9.310442 0.988890 36
33.243195 9.943612 0.990438 23
33.243992 9.826161 0.989474 23
36.075928 10.388924 0.990630 28
49.944527 13.623872 1.000223 29
45.600616 12.390838 0.995415 29
45.476612 12.186165 0.993888 29
45.143356 11.942739 0.992298 29
34.094559 5.238419 0.950800 23
34.187649 4.987354 0.948627 46
34.224567 4.870025 0.947619 46
34.274353 4.741087 0.946501 23
34.331005 4.618966 0.945430 23
34.411137 4.498798 0.944346 23
117.317833 12.076898 0.905218 56
117.371986 11.703922 0.902092 110
44.040447 -1.782665 0.881053 29
43.972073 -2.100505 0.878529 29
44.004894 -2.263921 0.877149 29
44.053089 -2.428790 0.875737 29
44.076763 -2.592172 0.874368 29
44.124435 -2.749664 0.873018 29
56.841915 -4.609065 0.842227 121
19.415634 -1.498073 0.913474 6
18.636417 -1.545931 0.914033 6
17.540464 -1.691350 0.914179 5
17.198751 -1.709126 0.914451 5
16.967514 -1.743961 0.914448 5
16.707603 -1.779632 0.914473 4
16.423992 -1.862286 0.914141 9
16.377859 -1.923995 0.913691 9
16.375992 -1.986070 0.913184 9
16.385221 -2.053327 0.912621 9
16.389717 -2.123219 0.912042 9
16.399553 -2.184257 0.911530 9
16.388359 -2.248322 0.911018 9
16.408436 -2.318020 0.910421 9
16.407990 -2.387490 0.909852 9
16.439934 -2.456480 0.909247 9
16.454679 -2.529150 0.908633 4
16.450760 -2.591722 0.908125 4
16.457764 -2.659851 0.907557 4
16.452103 -2.728913 0.906998 4
-20.427862 1.057501 0.983117 4
-20.571510 1.122993 0.983830 4
-20.610964 1.185126 0.984388 4
-20.630165 1.250506 0.984948 4
-20.645140 1.315952 0.985503 4
-20.615894 1.380585 0.985997 4
-20.662401 1.446874 0.986598 4
-20.788509 1.647296 0.988396 9
-120.169922 7.970141 1.161685 63
-102.466339 11.853874 1.171915 63
-210.551987 37.616966 1.515311 63
-71.135742 13.622625 1.148145 47
-71.134483 13.872065 1.150190 47
-70.927963 14.082855 1.151667 46
-70.877914 14.322752 1.153574 46
-52.686321 11.180529 1.105571 29
-52.638744 11.899981 1.111415 29
-54.554066 12.504543 1.118714 29
-38.884140 9.209057 1.072536 25
-38.738182 9.311410 1.073197 25
-38.658230 9.428083 1.074056 25
-38.532661 9.526998 1.074714 25
-126.492126 34.658951 1.388344 124
-126.524284 35.134674 1.392286 99
-43.460747 12.826657 1.107803 29
-43.299721 12.952560 1.108639 59
-43.038918 13.032645 1.108978 29
-43.232670 13.238214 1.110901 29
-43.314602 13.727306 1.115013 29
-42.860653 13.759636 1.114724 29
-40.851604 13.281539 1.108347 29
-39.067387 12.860266 1.102711 27
-39.062065 12.994331 1.103805 27
-38.651199 13.003036 1.103374 27
-36.346004 12.381341 1.095458 23
-36.273209 12.623683 1.097357 69
-36.206219 12.721050 1.098074 23
-34.946304 12.689789 1.096278 21
-20.978931 7.878095 1.039741 5
-20.837124 7.905102 1.039790 5
-20.509033 7.858446 1.039006 5
-20.463675 7.911508 1.039386 5
-20.454365 7.981712 1.039950 5
-19.733660 7.783809 1.037446 5
-19.686104 7.829532 1.037763 5
-19.701906 7.910442 1.038447 5
-30.635448 12.284901 1.087690 14
-18.965649 7.760415 1.036316 4
-20.825512 8.730713 1.046548 5
-18.728041 8.003824 1.038023 4
-18.653669 8.179026 1.039369 4
-18.811884 8.316998 1.040694 4
-18.603071 8.295390 1.040262 4
-19.591393 8.869082 1.046175 5
-19.433411 8.879113 1.046065 5
-18.682766 8.607060 1.042916 4
-18.748278 8.704225 1.043793 4
-18.988398 8.890276 1.045613 4
-18.780960 8.861927 1.045127 4
-18.842409 8.966242 1.046057 4
-18.904728 9.068155 1.046970 4
-18.934099 9.154995 1.047718 4
-18.878138 9.197270 1.047996 4
-24.972958 12.448189 1.082111 9
-22.947767 11.623328 1.072870 23
-22.867609 11.683799 1.073268 47
-22.787687 11.725602 1.073513 23
-22.450108 11.646831 1.072455 22
-22.462374 11.744300 1.073269 22
-22.460064 11.834503 1.074006 15
-22.326796 11.855160 1.074013 22
-22.167351 11.856333 1.073828 15
-21.397749 11.622495 1.070969 7
-21.047314 11.775348 1.071795 27
-20.602907 11.610257 1.069898 26
-20.690592 11.746980 1.071126 26
-20.782909 11.883162 1.072356 33
-20.352482 11.724246 1.070527 19
-115.306458 68.206612 1.649877 63
-104.699448 62.377865 1.589103 63
-22.025661 11.905888 1.206833 3
-21.919165 12.115822 1.208472 3
-92.413490 51.805313 2.090405 63
-131.287994 74.239479 2.582804 63
-20.535734 11.596838 1.194038 2
-20.469725 11.735512 1.195165 38
-20.392555 11.772597 1.195096 13
-20.451269 11.893758 1.196813 5
-20.235842 11.857201 1.195064 2
-103.839127 62.051857 2.275764 63
-118.524567 71.407883 2.471633 63
-115.869530 70.347839 2.443303 63
-110.335907 67.498177 2.377084 63
-97.874138 60.289383 2.219075 63
-97.547501 60.572819 2.220258 63
-106.957748 66.948570 2.350082 63
-92.928383 58.557060 2.169111 63
-92.143440 58.502182 2.163680 63
-106.395645 68.079376 2.359439 63
-18.194157 11.499045 1.178449 2
-88.407593 57.401833 2.128375 63
-18.146563 11.710430 1.180566 6
-18.063910 11.740813 1.180413 2
-85.168602 56.939056 2.103441 63
-84.161484 56.679535 2.094385 44
-84.098709 57.056324 2.098329 44
-60.737408 41.714783 1.781523 55
-84.084244 58.316307 2.112739 63
-88.149918 61.602894 2.174983 63
-78.936348 55.505878 2.049522 49
-78.573219 55.671459 2.049274 49
-16.232189 11.327703 1.164673 13
-17.102634 12.034936 1.178047 10
-16.148590 11.415136 1.165195 11
-16.136379 11.559359 1.166805 15
-16.118584 11.623189 1.167446 5
-84.116119 63.591606 2.174280 63
-77.914680 59.708885 2.092517 47
-15.479548 11.517266 1.162472 1
-78.092361 60.678596 2.104966 46
-76.076241 59.495838 2.079340 49
-86.958366 68.593117 2.249678 63
-86.234161 68.474586 2.244101 63
-81.335564 65.030823 2.175133 63
-72.963242 58.686325 2.051831 52
-73.043922 59.144329 2.057733 51
-68.290070 56.032654 1.993572 57
-67.996231 56.179207 1.993648 57
-67.910767 56.480286 1.996757 57
-14.335029 11.479930 1.155467 1
-14.264871 11.494496 1.155245 1
-14.173532 11.490449 1.154681 1
-14.313957 11.762089 1.158732 6
-14.005787 11.567625 1.154668 11
-68.973366 60.648438 2.052776 54
-13.813151 11.687746 1.155046 1
-61.183178 54.835503 1.939312 63
-60.540546 54.625950 1.933228 63
-60.397633 54.852444 1.935190 63
-60.009895 54.871071 1.933289 62
-59.692871 54.953197 1.932552 62
-59.399284 55.055702 1.932197 62
-12.909585 11.368809 1.146211 1
-57.924206 55.903564 1.934584 62
-57.989342 56.333378 1.940212 62
-12.411100 11.461963 1.144669 4
-12.263674 11.382947 1.142911 2
-12.101384 11.363107 1.141806 34
-12.062324 11.395573 1.142001 27
-11.999992 11.400227 1.141731 26
-11.897194 11.365882 1.140765 30
-11.820511 11.361651 1.140311 45
-11.857462 11.469897 1.141849 23
-11.890105 11.581967 1.143413 30
-11.871278 11.632400 1.143943 15
-11.829486 11.665718 1.144142 13
-11.837312 11.745522 1.145178 2
-11.414437 11.578074 1.140916 1
-11.340266 11.569114 1.140427 1
-49.214367 54.641098 1.873413 55
-49.176872 54.977325 1.877450 55
-54.991028 62.075569 1.996091 62
-47.167561 53.432537 1.847886 52
-46.517326 53.026192 1.839503 52
-10.836884 11.434096 1.136193 1
-45.679455 52.793507 1.832386 51
-45.016644 52.352757 1.823520 50
-45.387203 53.163670 1.835624 51
-44.682457 52.682922 1.826053 50
-10.359525 11.372715 1.133061 37
-10.273132 11.339605 1.132219 35
-10.226976 11.356052 1.132204 37
-10.200003 11.392816 1.132542 23
-10.180943 11.443522 1.133098 23
-10.068743 11.378994 1.131734 16
-10.031745 11.554107 1.133800 26
-9.980313 11.563098 1.133671 6
-9.945760 11.594224 1.133907 8
-9.877558 11.580391 1.133408 2
-6.787009 7.493744 1.066327 0
-6.766647 7.513773 1.066490 0
-6.693026 7.458663 1.065436 0
-6.652738 7.448438 1.065117 0
-6.632503 7.468023 1.065277 0
-6.605203 7.477789 1.065277 0
-6.563989 7.467883 1.064959 0
-6.539041 7.480647 1.065010 0
-6.498001 7.470381 1.064690 0
-6.469652 7.480401 1.064691 0
-6.400404 7.426184 1.063673 0
-6.368869 7.428444 1.063560 0
-6.337373 7.430563 1.063446 0
-6.308152 7.435856 1.063384 0
-6.271171 7.426977 1.063104 0
-6.255316 7.451980 1.063359 0
-6.217314 7.443563 1.063081 0
-6.184868 7.445737 1.062966 0
-6.178689 7.483189 1.063428 0
-6.129987 7.457537 1.062880 0
-6.107384 7.472054 1.062971 0
-6.037565 7.412207 1.061883 0
-6.065294 7.503517 1.063201 0
-6.036169 7.507635 1.063129 0
-5.996519 7.494636 1.062788 0
-5.938137 7.450788 1.061962 0
-5.903047 7.444156 1.061725 0
-6.069912 8.901312 1.081740 0
-6.026690 8.892140 1.081450 0
-5.139707 7.440163 1.058598 0
-5.151673 7.518944 1.059700 0
-5.136436 7.548596 1.060041 0
-5.049482 7.426232 1.058071 0
-5.009812 7.400860 1.057582 0
-4.982296 7.400613 1.057477 0
-4.971750 7.436490 1.057921 0
-5.019032 8.614432 1.074035 0
-4.955489 8.532135 1.072701 0
-4.930459 8.542027 1.072751 0
-4.866499 8.459679 1.071416 0
-4.335903 7.159698 1.051944 0
-4.299496 7.190696 1.052247 2
-4.235517 7.214458 1.052364 1
-4.216764 7.234041 1.052571 1
-4.201432 7.256554 1.052830 0
-4.185112 7.283582 1.053148 0
-4.168408 7.306413 1.053408 0
-4.154186 7.336764 1.053779 0
-4.152714 7.404938 1.054708 0
-4.132868 7.420132 1.054855 0
-4.111531 7.427302 1.054888 0
-4.097827 7.461357 1.055313 0
-4.070258 7.453572 1.055123 0
-4.050137 7.468512 1.055267 0
-4.027508 7.475769 1.055299 0
-4.008459 7.494390 1.055498 0
-4.015407 7.592801 1.056872 0
-4.763865 11.534504 1.113346 1
-4.697873 11.568357 1.113636 2
-4.571636 11.542552 1.112945 7
-16.170538 60.177956 1.816713 123
-4.421413 11.401953 1.110609 40
-4.370545 11.348154 1.109733 44
-4.328137 11.321004 1.109249 45
-4.293863 11.328801 1.109271 53
-4.263826 11.364216 1.109688 41
-4.241134 11.442928 1.110724 18
-4.190499 11.376138 1.109673 20
-4.168922 11.462513 1.110820 28
-4.149617 11.544188 1.111908 25
-4.106925 11.532548 1.111644 25
-4.085797 11.618417 1.112788 17
-4.047910 11.621848 1.112746 21
-4.002455 11.585872 1.112140 45
-3.962095 11.565078 1.111758 18
-3.921515 11.552341 1.111487 27
-3.877465 11.519775 1.110934 13
-12.413597 60.760712 1.815787 44
-3.832589 11.921670 1.116431 1
-11.998017 60.844070 1.816033 44
-11.790953 60.890587 1.816231 44
-11.597322 60.954453 1.816705 44
-3.560855 11.414751 1.108779 6
-10.764873 61.122749 1.817301 44
-8.980524 53.957447 1.713658 48
-3.269797 11.431120 1.108418 25
-8.723042 63.856987 1.851510 46
-2.978604 11.491668 1.108721 19
-2.943398 11.491007 1.108650 4
-2.833371 11.500731 1.108595 8
-2.793818 11.467833 1.108068 3
-2.758760 11.466552 1.107991 2
-2.729726 11.572992 1.109433 3
-2.608422 11.412815 1.106995 47
-2.569688 11.375089 1.106405 61
-2.534974 11.405108 1.106772 47
-2.499264 11.455078 1.107417 50
-2.464747 11.460805 1.107445 52
-2.435158 11.618332 1.109608 45
-2.396076 11.571972 1.108901 48
-2.351884 11.429615 1.106842 43
-2.317123 11.426861 1.106754 61
-2.280809 11.432042 1.106775 52
-2.247164 11.469032 1.107247 51
-2.207232 11.406039 1.106309 44
-2.172688 11.406802 1.106274 44
-2.136999 11.447472 1.106796 43
-2.100760 11.468023 1.107037 34
-2.064221 11.472450 1.107051 54
-2.027859 11.508747 1.107514 32
-1.989113 11.440932 1.106515 46
-1.954381 11.576959 1.108379 42
-1.917825 11.476886 1.106932 44
-1.881336 11.460677 1.106662 41
-1.844960 11.444343 1.106390 35
-1.808060 11.471872 1.106734 29
-1.771469 11.471278 1.106684 12
-0.416971 55.530846 1.722681 27
-1.554438 11.449120 1.106144 8
-1.518266 11.439649 1.105976 13
-1.451027 11.320463 1.104242 1
1.382488 64.331711 1.844220 46
-1.333561 11.470276 1.106234 7
-1.118493 11.447184 1.105735 51
-1.080654 11.460126 1.105888 57
-1.044806 11.449024 1.105707 66
-1.010113 11.425851 1.105358 24
-0.974064 11.418490 1.105230 12
-0.928297 11.510519 1.106487 12
-0.898045 11.443188 1.105526 25
-0.861142 11.443396 1.105506 21
-0.822496 11.459378 1.105706 30
-0.782834 11.483168 1.106016 10
-0.710958 11.478885 1.105916 32
-0.671916 11.494311 1.106111 21
-0.669299 11.219916 1.102276 16
-0.598608 11.485064 1.105946 6
-0.571489 11.408887 1.104869 19
-0.535126 11.403977 1.104784 45
-0.507677 11.335568 1.103818 51
-0.467581 11.358148 1.104117 41
-0.426726 11.384530 1.104469 28
-0.410763 11.244655 1.102512 36
-0.355413 11.365669 1.104181 39
-0.309202 11.423214 1.104968 42
-0.293872 11.287095 1.103066 41
-0.263810 11.245704 1.102480 47
-0.226685 11.247608 1.102497 46
-0.181805 11.304869 1.103284 43
-0.128476 11.397077 1.104556 37
-0.109449 11.284009 1.102978 59
-0.068113 11.317158 1.103432 44
0.000977 11.487414 1.105790 25
0.040604 11.496222 1.105907 34
0.068887 11.445986 1.105205 23
0.070475 11.262274 1.102650 19
0.128422 11.364912 1.104072 22
0.177475 11.420251 1.104838 10
0.201623 11.353996 1.103916 25
0.236130 11.338563 1.103701 22
0.357383 11.381767 1.104302 35
0.396343 11.377105 1.104240 32
0.630132 12.057927 1.113700 3
0.720483 12.094008 1.114211 15
0.661785 11.527761 1.106360 39
0.715202 11.584472 1.107155 26
0.713453 11.423965 1.104934 36
0.754893 11.433926 1.105081 43
0.801533 11.463060 1.105496 36
0.819478 11.383808 1.104405 41
0.873540 11.439668 1.105193 39
0.903941 11.414788 1.104858 36
0.929919 11.374409 1.104309 43
1.003816 11.490773 1.105941 20
1.052554 11.522664 1.106399 23
1.082625 11.489036 1.105947 17
1.038136 11.202040 1.101973 20
1.028689 11.046354 1.099824 25
1.051688 10.989377 1.099049 13
1.274202 11.469299 1.105760 46
1.307818 11.442106 1.105403 40
1.382904 11.552660 1.106962 49
1.386209 11.442478 1.105450 50
1.401065 11.357855 1.104295 58
1.455367 11.407463 1.105008 30
1.467241 11.327744 1.103921 28
1.504581 11.319511 1.103831 48
1.585386 11.427321 1.105361 35
1.638696 11.464057 1.105899 43
1.658171 11.402318 1.105067 32
1.712563 11.446869 1.105715 34
1.756587 11.461019 1.105940 39
1.804405 11.473678 1.106148 41
1.808225 11.370244 1.104737 29
1.785188 11.195572 1.102332 48
1.859333 11.291854 1.103706 41
1.911110 11.315238 1.104067 41
1.948164 11.309826 1.104024 39
2.013139 11.366403 1.104850 38
2.045008 11.341281 1.104535 30
2.070926 11.301163 1.104012 32
2.080450 11.220070 1.102916 39
2.178063 11.366367 1.104997 36
2.259097 11.463159 1.106389 24
2.297140 11.452073 1.106275 23
2.307790 11.374261 1.105229 43
2.370081 11.422100 1.105940 36
2.406472 11.406923 1.105771 50
2.439692 11.384253 1.105498 57
2.475710 11.373284 1.105387 16
2.521435 11.379774 1.105524 50
2.580257 11.410949 1.106010 42
2.611777 11.384054 1.105682 25
2.649468 11.376149 1.105617 22
2.720037 11.436649 1.106515 19
2.792545 11.504902 1.107521 47
2.816109 11.454666 1.106871 13
2.847591 11.427033 1.106536 19
2.861953 11.367507 1.105752 20
2.983054 11.531680 1.108113 15
3.014816 11.499033 1.107713 21
3.025613 11.427468 1.106764 22
3.046390 11.377576 1.106120 50
3.122851 11.442768 1.107096 23
3.164533 11.440221 1.107118 27
3.156644 11.332646 1.105664 43
3.233797 11.397036 1.106632 36
3.194558 11.228799 1.104324 37
3.270111 11.289201 1.105238 30
3.360736 11.377679 1.106551 18
3.380444 11.327063 1.105902 13
3.392946 11.176232 1.103906 32
3.458528 11.218511 1.104568 52
3.471695 11.161677 1.103830 54
3.510840 11.145224 1.103670 45
3.616899 11.256106 1.105310 21
3.700742 11.324275 1.106348 25
3.723247 11.279945 1.105794 40
3.735783 11.218113 1.104993 16
3.765757 11.192195 1.104697 50
3.815125 11.196514 1.104835 30
3.906024 11.269073 1.105947 33
4.031626 11.404547 1.107951 38
4.086006 11.414709 1.108177 47
4.140530 11.424619 1.108401 30
4.175101 11.404332 1.108192 37
4.191232 11.352977 1.107542 21
34.372902 60.764874 1.812549 53
32.855484 56.918034 1.759179 49
35.926430 61.380333 1.823488 54
36.333660 61.558750 1.826593 55
36.594299 61.502304 1.826346 55
36.956577 61.602962 1.828356 55
36.974567 61.167885 1.822696 55
46.880947 75.904648 2.034682 54
47.240997 75.884148 2.035120 54
45.613022 72.885338 1.992748 57
38.988068 62.429573 1.843140 57
39.400753 62.581799 1.845954 57
46.921600 73.208015 1.999585 56
39.214718 61.389339 1.830052 56
39.882046 61.887455 1.837903 57
5.420518 11.651769 1.113815 1
45.398872 68.921326 1.940731 61
42.239597 63.432411 1.862901 60
42.748253 63.708908 1.867570 60
43.139572 63.792885 1.869501 61
43.639862 64.023964 1.873575 61
44.106972 64.203819 1.876921 61
44.575893 64.381187 1.880244 62
44.990341 64.503136 1.882738 62
45.441105 64.646835 1.885597 63
45.843037 64.720978 1.887458 63
46.421196 65.001640 1.892379 63
46.876953 65.137894 1.895171 63
55.249367 75.593376 2.048547 49
48.294296 66.052078 1.910169 61
50.064106 67.883644 1.937747 59
52.731575 70.784142 1.981112 55
48.856445 65.374725 1.902833 61
52.291649 69.235916 1.960300 56
47.768970 63.122505 1.871504 63
50.623798 66.221329 1.917871 60
57.819408 74.620117 2.042235 48
49.270184 63.641853 1.881765 62
51.160580 65.515854 1.910219 60
52.504982 66.703575 1.928619 58
52.876232 66.660103 1.928994 58
53.157776 66.507660 1.927772 58
52.977646 65.832703 1.918782 58
28.621836 36.591423 1.487480 13
55.651062 67.608887 1.948034 55
55.983093 67.522011 1.947799 55
56.705551 67.878662 1.954166 54
57.110809 67.868347 1.955097 54
55.326271 65.393440 1.919330 57
58.471889 68.477844 1.966339 53
57.649078 67.093193 1.946802 54
59.450859 68.591408 1.970375 52
60.133591 68.889175 1.975936 51
60.757710 69.092758 1.980168 51
61.277927 69.178436 1.982653 50
61.892330 69.360687 1.986606 50
62.457695 69.461227 1.989413 49
63.088722 69.674141 1.993806 49
63.485447 69.611656 1.994134 48
64.406166 70.092468 2.002673 47
64.692390 69.883270 2.000886 47
65.567932 70.326645 2.008847 46
66.375298 70.667351 2.015352 46
66.651848 70.462555 2.013613 46
60.513992 63.807594 1.913931 55
68.394745 71.239525 2.028203 44
68.892334 71.244171 2.029702 43
66.452415 68.352890 1.987065 47
66.661423 68.088516 1.984432 47
66.748726 67.729622 1.980288 47
67.027451 67.510674 1.978431 47
67.397926 67.402252 1.978204 47
70.492714 69.906502 2.018029 63
72.349548 71.180260 2.039135 63
70.712708 69.131874 2.009243 44
74.029015 71.769348 2.051378 63
75.953110 73.030014 2.072550 63
76.780754 73.312393 2.078505 63
77.549911 73.508804 2.083245 63
93.574265 87.515213 2.302247 63
