# .PCD v.7 - Point Cloud Data file format
VERSION .7
FIELDS x y z intensity
SIZE 4 4 4 1
TYPE F F F U
COUNT 1 1 1 1
WIDTH 1484
HEIGHT 1
VIEWPOINT 0 0 0 1 0 0 0
POINTS 1484
DATA ascii
-7.041126 -11.480595 0.900648 21
-7.072363 -11.452143 0.900778 26
-7.114089 -11.440663 0.900846 18
-9.905182 -16.847553 0.880603 18
-10.523711 -17.937963 0.876550 22
-10.613523 -17.968727 0.876473 31
-10.360391 -17.343472 0.878851 16
-9.899613 -16.312017 0.882750 10
-10.120156 -16.598648 0.881715 74
-10.232185 -16.679968 0.881447 6
-10.282030 -16.635555 0.881651 4
-10.496699 -16.642847 0.881734 27
-10.548810 -16.353874 0.882922 2
-10.640034 -16.403669 0.882770 22
-10.325120 -15.722524 0.885339 4
-10.378952 -15.691913 0.885490 2
-10.522786 -15.710657 0.885490 2
-9.283671 -13.474444 0.893818 32
-9.272255 -13.355907 0.894288 3
-9.656719 -13.899932 0.892305 10
-9.674725 -13.833292 0.892582 1
-9.781425 -13.909154 0.892334 1
-9.806391 -13.748813 0.892990 14
-9.791986 -13.621454 0.893494 9
-9.833811 -13.590784 0.893639 4
-9.877644 -13.563362 0.893772 3
-9.921287 -13.545314 0.893867 8
-10.020901 -13.600517 0.893698 8
-9.924217 -13.348952 0.894657 9
-9.932414 -13.267499 0.894989 9
-9.973037 -13.245870 0.895097 4
-9.976046 -13.153058 0.895471 11
-9.074044 -11.543251 0.901461 1
-9.095032 -11.495312 0.901664 13
-9.088716 -11.407706 0.902013 12
-9.093205 -11.336754 0.902300 9
-9.122342 -11.302067 0.902454 5
-9.169139 -11.289013 0.902531 2
-9.287783 -11.381709 0.902221 1
-11.659535 -14.657516 0.890313 2
-11.693188 -14.599232 0.890565 6
-11.719511 -14.536086 0.890832 2
-9.293295 -11.087827 0.903404 1
-11.879470 -14.459349 0.891224 2
-9.582209 -11.262962 0.902852 1
-9.620308 -11.239639 0.902966 1
-9.911674 -11.481043 0.902149 6
-9.866985 -11.268686 0.902978 1
-9.916732 -11.255604 0.903057 1
-9.972751 -11.257698 0.903078 1
-10.033126 -11.261279 0.903095 1
-10.088663 -11.258285 0.903136 1
-10.152451 -11.268971 0.903126 1
-10.202468 -11.254628 0.903210 1
-10.258243 -11.250834 0.903255 3
-10.314091 -11.246776 0.903300 3
-10.385216 -11.261021 0.903280 3
-10.447118 -11.267110 0.903288 3
-10.500721 -11.259105 0.903348 3
-10.553590 -11.246288 0.903428 3
-10.617582 -11.250020 0.903446 4
-10.682505 -11.257996 0.903448 4
-10.748552 -11.259557 0.903476 4
-10.790285 -11.239587 0.903578 4
-10.854713 -11.242099 0.903602 4
-10.971856 -11.304569 0.903413 13
-11.049942 -11.321270 0.903386 33
-11.061991 -11.262655 0.903628 13
-11.097689 -11.230961 0.903774 13
-11.157319 -11.225937 0.903825 13
-11.225069 -11.229525 0.903846 9
-11.286699 -11.233047 0.903865 7
-11.355572 -11.229753 0.903914 7
-11.412855 -11.220552 0.903981 7
-11.474795 -11.223173 0.904003 7
-11.543139 -11.225097 0.904031 7
-11.606125 -11.220843 0.904081 8
-11.666446 -11.213372 0.904142 9
-11.729594 -11.208496 0.904195 9
-11.801144 -11.211953 0.904219 9
-11.867270 -11.209287 0.904264 11
-11.930703 -11.203420 0.904321 9
-12.002625 -11.205794 0.904349 11
-12.068021 -11.197502 0.904416 11
-12.135586 -11.198071 0.904449 13
-12.199376 -11.190874 0.904512 14
-12.270699 -11.187193 0.904564 14
-12.341434 -11.189538 0.904591 14
-12.416935 -11.192503 0.904619 11
-12.478224 -11.181142 0.904697 14
-12.551085 -11.180573 0.904737 14
-12.621179 -11.176856 0.904789 14
-12.697176 -11.178282 0.904823 14
-12.759900 -11.170201 0.904888 14
-12.833216 -11.168131 0.904935 14
-12.915433 -11.173844 0.904955 14
-12.991945 -11.173679 0.904996 16
-13.064465 -11.165765 0.905065 17
-13.114601 -11.140546 0.905193 8
-13.201498 -11.151932 0.905193 8
-13.290362 -11.160882 0.905203 14
-13.355543 -11.148034 0.905289 15
-13.438739 -11.150767 0.905322 15
-13.513081 -11.145118 0.905383 14
-13.596560 -11.146965 0.905420 15
-13.668103 -11.137871 0.905493 15
-13.748817 -11.136230 0.905542 15
-13.835743 -11.139347 0.905575 15
-13.904537 -11.126448 0.905663 15
-13.994793 -11.131237 0.905691 15
-14.079092 -11.130384 0.905739 17
-14.154302 -11.121396 0.905814 17
-14.229595 -11.112005 0.905891 15
-14.326630 -11.119958 0.905910 15
-14.408353 -11.114734 0.905974 16
-14.490190 -11.109061 0.906040 16
-14.581498 -11.110448 0.906082 16
-14.666710 -11.106336 0.906143 16
-14.745770 -11.096790 0.906223 16
-14.837503 -11.096694 0.906271 16
-14.927631 -11.098336 0.906312 15
-15.013344 -11.092322 0.906381 16
-15.104100 -11.085983 0.906454 16
-15.181931 -11.076440 0.906533 18
-15.277538 -11.076251 0.906584 18
-15.379699 -11.080325 0.906621 18
-15.459611 -11.067059 0.906716 20
-15.549234 -11.060501 0.906789 18
-15.638974 -11.053439 0.906864 18
-15.728830 -11.045873 0.906942 19
-15.828514 -11.044845 0.906998 19
-15.928357 -11.043242 0.907057 17
-16.012083 -11.029438 0.907156 17
-16.108932 -11.024426 0.907227 19
-16.209188 -11.021163 0.907293 19
-16.296476 -11.008157 0.907390 19
-16.416718 -11.017457 0.907416 20
-16.504246 -11.003360 0.907519 20
-16.608366 -11.000054 0.907586 20
-16.709326 -10.993898 0.907664 18
-16.800467 -10.980458 0.907766 18
-16.918303 -10.984278 0.907812 20
-17.016338 -10.974133 0.907904 19
-17.114487 -10.963427 0.907998 14
-17.219440 -10.956529 0.908081 11
-17.334599 -10.955544 0.908145 14
-17.449936 -10.953876 0.908212 14
-17.551960 -10.942916 0.908310 14
-17.664232 -10.937783 0.908389 15
-17.780045 -10.934116 0.908464 15
-17.896021 -10.929760 0.908543 15
-18.008757 -10.922611 0.908630 15
-18.126726 -10.921794 0.908695 15
-18.232927 -10.909143 0.908802 13
-18.359776 -10.908286 0.908872 13
-18.476524 -10.900492 0.908964 13
-18.596855 -10.894048 0.909053 13
-18.724228 -10.890949 0.909132 13
-18.844877 -10.883039 0.909227 16
-18.955299 -10.868379 0.909344 13
-19.086617 -10.865049 0.909426 11
-19.207699 -10.854968 0.909530 8
-19.356754 -10.859942 0.909588 11
-19.474674 -10.846351 0.909704 11
-19.613670 -10.843744 0.909787 11
-19.745859 -10.836415 0.909886 12
-19.871195 -10.824433 0.910000 9
-10.843734 -5.831734 0.925315 0
-10.881598 -5.812231 0.925413 2
-10.774832 -5.715150 0.925747 2
-10.702831 -5.637622 0.926020 2
-10.651638 -5.571829 0.926258 2
-10.603639 -5.508300 0.926488 3
-10.544643 -5.439650 0.926732 2
-10.510189 -5.384243 0.926937 2
-10.489715 -5.336381 0.927118 2
-10.454723 -5.281516 0.927320 2
-10.444500 -5.239462 0.927483 2
-10.437671 -5.199307 0.927641 2
-10.422040 -5.158666 0.927796 2
-10.422050 -5.122236 0.927942 2
-10.425512 -5.087596 0.928083 2
-10.425226 -5.051255 0.928229 2
-10.424790 -5.014966 0.928374 2
-10.424203 -4.978729 0.928519 2
-10.430718 -4.945922 0.928655 2
-10.434154 -4.909970 0.928801 2
-10.444043 -4.878843 0.928931 2
-10.450173 -4.846045 0.929066 2
-10.455516 -4.814727 0.929194 2
-10.465713 -4.782086 0.929331 2
-10.481802 -4.755605 0.929445 2
-10.495437 -4.724493 0.929577 2
-10.492988 -4.689954 0.929715 2
-10.520455 -4.666581 0.929823 3
-10.530081 -4.633768 0.929960 2
-10.546331 -4.605518 0.930082 2
-10.558175 -4.577158 0.930202 2
-10.570539 -4.547263 0.930328 2
-10.590208 -4.520344 0.930447 2
-10.602980 -4.488836 0.930580 2
-10.622466 -4.461751 0.930699 6
-10.636956 -4.436117 0.930809 10
-10.668635 -4.410213 0.930930 14
-10.717720 -4.394372 0.931019 17
-10.759328 -4.375369 0.931117 17
-10.807223 -4.362025 0.931196 19
-10.846208 -4.338017 0.931312 18
-10.894084 -4.324139 0.931393 21
-10.950617 -4.309632 0.931481 26
-11.000779 -4.288895 0.931591 18
-11.219435 -4.259436 0.931823 6
-11.294919 -4.249553 0.931903 14
-11.336400 -4.227485 0.932013 16
-11.427076 -4.221891 0.932083 16
-11.482587 -4.207553 0.932169 16
-11.554945 -4.192946 0.932266 14
-11.645221 -4.187452 0.932335 14
-11.709484 -4.171052 0.932435 15
-11.797152 -4.159859 0.932526 15
-11.884319 -4.149792 0.932612 15
-11.955722 -4.136114 0.932704 15
-12.051697 -4.123828 0.932803 15
-12.130259 -4.113262 0.932887 15
-12.225785 -4.101502 0.932984 14
-12.324123 -4.093828 0.933067 14
-12.419218 -4.082589 0.933161 13
-12.522575 -4.071115 0.933262 14
-12.610074 -4.056376 0.933367 12
-12.728393 -4.049761 0.933455 13
-12.846793 -4.042356 0.933547 14
-12.948792 -4.033743 0.933635 16
-13.051891 -4.020661 0.933741 11
-13.182601 -4.012186 0.933844 10
-13.321131 -4.004831 0.933946 7
-13.465938 -4.004517 0.934023 3
-13.627912 -4.001215 0.934121 2
-13.797251 -4.000783 0.934211 1
-36.681381 -9.654186 0.923499 11
-37.043907 -9.621129 0.923822 11
-37.421242 -9.576221 0.924200 11
-37.801121 -9.535833 0.924561 11
-38.203033 -9.504688 0.924896 12
-38.610500 -9.465480 0.925267 12
-39.002529 -9.419989 0.925655 12
-39.429813 -9.379708 0.926040 12
-39.846992 -9.327367 0.926469 12
-40.273136 -9.287968 0.926850 13
-40.741425 -9.240627 0.927285 13
-41.169289 -9.188641 0.927718 13
-41.585506 -9.131357 0.928166 14
-30.433781 -6.742942 0.931915 8
-29.993500 -6.557800 0.932427 7
-29.871300 -6.432600 0.932866 7
-29.806583 -6.324406 0.933266 7
-29.742363 -6.211859 0.933684 7
-29.681631 -6.100548 0.934099 7
-29.683451 -6.001058 0.934500 7
-29.654249 -5.891233 0.934925 7
-29.667143 -5.793993 0.935322 7
-29.651270 -5.696883 0.935704 7
-29.896311 -5.638227 0.936068 7
-29.889359 -5.532118 0.936490 7
-29.928644 -5.438489 0.936886 7
-29.932037 -5.339140 0.937287 7
-29.919258 -5.237432 0.937689 7
-29.873734 -5.136061 0.938072 7
-30.307596 -5.099214 0.938447 7
-30.456339 -5.019306 0.938846 7
-30.446348 -4.916694 0.939252 7
-31.225676 -4.914377 0.939670 8
-31.734264 -4.881838 0.940066 8
-32.553162 -4.879796 0.940503 9
-55.200466 -7.552256 0.941634 37
-55.493031 -7.398720 0.942403 37
-56.269932 -7.299310 0.943209 38
-56.923557 -7.180731 0.944027 39
-57.707180 -7.081643 0.944835 41
-58.559402 -6.974685 0.945711 42
-59.261345 -6.836470 0.946633 43
-60.244678 -6.731018 0.947571 45
-62.421642 -6.742249 0.948666 48
-62.261032 -6.525476 0.949452 47
-62.472996 -6.310787 0.950425 48
-62.299767 -6.083600 0.951246 47
-64.936607 -6.083851 0.952626 50
-65.045631 -5.871191 0.953537 50
-66.772743 -5.788077 0.954775 51
-67.882309 -5.638597 0.955956 52
-68.871872 -5.473453 0.957137 53
-70.507782 -5.342258 0.958520 54
-70.653503 -5.122931 0.959477 54
-72.081856 -4.950571 0.960917 55
-74.607681 -4.838037 0.962691 57
-74.708458 -4.588882 0.963744 57
-76.890221 -4.433973 0.965508 59
-76.697861 -4.163960 0.966491 59
-78.930725 -3.988966 0.968363 61
-83.021606 -3.877801 0.970951 63
-85.090508 -3.645895 0.972965 63
-82.528183 -3.283573 0.973078 63
-81.907097 -3.014904 0.973831 63
-41.965534 -1.738612 0.958041 13
18.694082 1.505779 1.060471 4
18.638792 1.429599 1.059823 2
18.635298 1.356169 1.059460 2
18.567537 1.279285 1.058745 2
18.536060 1.199588 1.058209 2
18.455790 1.122311 1.057430 2
18.491003 1.053714 1.057298 2
18.502098 0.982564 1.057030 2
18.516930 0.911736 1.056785 2
18.521324 0.774926 1.056187 18
18.507837 0.698031 1.055769 2
18.525671 0.627395 1.055546 2
18.543262 0.556656 1.055322 2
18.532423 0.487353 1.054957 2
18.633577 0.418767 1.055186 2
18.646219 0.350866 1.054954 2
18.735363 0.207821 1.054798 8
18.759493 0.136547 1.054615 19
18.899218 0.071168 1.055070 4
18.882925 -0.002763 1.054666 2
45.954292 1.148162 1.202592 55
45.917259 0.987288 1.201710 27
89.808449 0.596584 1.432096 90
19.530966 -1.761040 1.050964 2
19.348381 -1.829373 1.049740 2
19.437347 -1.907693 1.049913 2
17.430326 -2.089717 1.038633 17
17.358395 -2.156938 1.038005 22
17.322580 -2.219144 1.037588 5
17.270079 -2.347614 1.036845 1
17.317192 -2.418625 1.036837 1
17.264076 -2.485775 1.036316 1
17.294998 -2.552498 1.036242 1
17.401148 -2.629097 1.036529 1
17.323683 -2.690608 1.035905 1
17.321415 -2.761780 1.035643 1
17.307568 -2.825097 1.035350 1
17.587803 -2.920290 1.036495 1
17.437433 -2.977640 1.035506 1
17.331375 -3.031735 1.034764 1
17.324236 -3.099201 1.034497 1
17.388796 -3.171210 1.034592 1
17.456287 -3.250916 1.034679 1
36.268387 -5.814479 1.124872 9
59.171116 -8.889981 1.234837 63
26.289402 -5.561916 1.073479 4
25.846043 -5.790364 1.070470 4
26.223238 -5.956451 1.071930 4
25.992218 -6.112644 1.070262 4
26.349949 -6.377333 1.071337 4
26.036495 -6.419526 1.069588 4
39.382500 -9.139730 1.130839 15
39.365673 -9.286483 1.130329 15
172.483734 -40.985477 1.728572 63
33.662140 -9.444288 1.100483 8
33.804955 -9.874887 1.100075 206
33.825832 -10.006221 1.099839 178
33.813633 -10.136154 1.099440 43
33.913864 -10.435813 1.099184 173
26.846983 -10.432475 1.063470 5
26.922632 -10.675473 1.063315 22
146.337845 -57.489555 1.558143 63
146.129883 -58.032856 1.556071 63
145.113556 -58.232067 1.550712 63
145.262909 -58.882736 1.550207 63
131.500168 -58.323471 1.484429 63
132.268250 -59.209026 1.486609 63
17.792297 -9.679751 1.020436 2
18.072960 -9.886158 1.021436 2
17.615984 -9.762166 1.019453 2
17.753151 -9.906071 1.019873 2
17.725657 -9.976621 1.019628 2
17.811499 -10.182956 1.019707 2
17.841013 -10.280814 1.019694 5
17.542797 -10.229003 1.018361 2
17.608078 -10.592333 1.018124 20
17.542252 -10.644813 1.017739 7
17.499481 -10.704226 1.017453 4
17.582315 -11.002352 1.017422 7
17.029230 -10.888378 1.015007 63
16.976946 -10.945473 1.014689 22
17.230530 -11.159459 1.015580 16
16.981344 -11.108658 1.014497 4
17.185682 -11.311934 1.015178 19
16.903366 -11.245622 1.013964 7
17.153816 -11.463349 1.014842 5
15.054853 -10.473970 1.006452 3
17.268755 -11.784882 1.014979 2
15.172256 -10.771548 1.006638 3
16.991861 -11.980884 1.013500 5
14.896332 -10.850261 1.005304 3
16.682167 -11.972340 1.012116 7
16.865715 -12.173053 1.012725 7
16.292532 -11.916219 1.010430 4
15.675442 -11.800991 1.007798 16
15.474138 -11.762074 1.006944 10
15.987379 -12.164285 1.008827 20
16.008011 -12.259875 1.008827 6
15.878673 -12.270412 1.008248 9
15.695997 -12.237551 1.007476 2
15.619654 -12.275565 1.007108 23
15.748426 -12.445255 1.007522 4
15.856092 -12.602920 1.007855 2
16.158955 -12.980317 1.008855 7
16.530363 -13.317901 1.010188 5
25.398350 -19.334410 1.043674 6
16.070137 -13.185861 1.008309 4
16.193073 -13.361135 1.008703 10
24.206892 -19.473177 1.038487 12
24.289133 -19.668688 1.038705 6
16.055359 -13.922879 1.007729 5
16.077406 -14.029410 1.007755 10
16.270147 -14.274895 1.008412 2
16.252834 -14.359830 1.008290 8
15.902446 -14.195049 1.006926 5
15.987208 -14.349606 1.007191 7
24.094889 -20.506454 1.037397 6
16.360479 -14.825828 1.008478 2
24.809464 -21.333130 1.039911 7
24.309454 -21.091957 1.037979 7
24.153933 -21.110863 1.037334 6
23.779942 -20.967045 1.035875 6
10.821218 -11.233315 0.987557 162
10.781038 -11.270769 0.987382 178
10.738956 -11.310293 0.987198 200
10.702960 -11.354697 0.987039 216
10.671715 -11.399300 0.986900 223
10.633589 -11.445673 0.986733 235
10.592793 -11.482398 0.986561 240
10.562333 -11.531425 0.986426 243
10.525565 -11.575211 0.986270 248
10.491695 -11.621456 0.986125 254
10.452756 -11.667169 0.985962 254
10.430672 -11.723622 0.985863 203
10.389065 -11.759544 0.985694 41
2.953965 -6.613628 0.958379 0
3.053279 -6.766053 0.958761 0
2.993726 -6.738463 0.958554 0
2.798404 -6.632348 0.957874 0
2.577805 -6.410417 0.957067 0
2.770156 -6.755581 0.957835 0
2.706808 -6.719764 0.957617 0
2.686884 -6.736159 0.957562 0
2.655803 -6.740889 0.957466 0
2.699670 -6.834066 0.957650 0
2.631777 -6.791164 0.957416 0
2.720252 -6.945765 0.957772 0
2.433324 -6.789362 0.956807 0
2.473812 -6.884307 0.956986 0
2.357718 -6.771581 0.956569 0
2.261661 -6.683720 0.956228 0
2.234684 -6.688948 0.956151 0
2.219635 -6.710121 0.956121 0
2.175044 -6.693332 0.955979 0
2.143417 -6.691721 0.955886 0
2.107156 -6.683483 0.955775 0
2.093028 -6.703563 0.955748 0
2.076821 -6.725035 0.955717 0
2.037047 -6.709164 0.955593 0
2.018159 -6.722519 0.955549 0
1.972020 -6.701148 0.955403 0
1.940763 -6.698547 0.955314 0
1.944607 -6.744521 0.955360 1
1.892987 -6.712033 0.955191 0
1.847393 -6.689854 0.955049 0
1.829813 -6.706567 0.955014 0
1.802041 -6.705935 0.954938 0
1.776754 -6.713165 0.954876 0
1.737062 -6.696246 0.954755 0
1.720407 -6.711955 0.954724 0
1.685279 -6.701416 0.954622 0
1.662088 -6.706880 0.954566 0
1.630454 -6.703409 0.954480 0
1.599885 -6.699154 0.954397 0
1.576773 -6.704289 0.954342 0
1.553797 -6.713967 0.954292 0
1.521264 -6.705934 0.954202 0
1.497207 -6.711374 0.954146 0
1.471073 -6.713301 0.954082 0
1.437678 -6.700825 0.953987 0
1.411651 -6.702502 0.953924 0
1.391795 -6.714376 0.953887 0
1.357653 -6.702075 0.953791 0
1.334745 -6.706277 0.953740 0
1.311847 -6.710390 0.953689 0
1.288969 -6.719026 0.953643 0
1.266077 -6.722959 0.953593 0
1.238248 -6.720413 0.953525 0
1.206549 -6.710773 0.953440 0
1.182762 -6.714947 0.953390 0
1.160925 -6.722524 0.953347 0
1.141997 -6.732974 0.953315 0
1.107634 -6.719868 0.953223 0
1.083007 -6.719587 0.953167 0
1.058316 -6.723798 0.953117 0
1.034632 -6.727376 0.953069 0
1.006359 -6.719717 0.952998 0
0.978894 -6.720583 0.952939 0
0.958978 -6.730947 0.952908 0
0.936367 -6.733612 0.952863 0
0.914589 -6.740263 0.952824 0
0.895604 -6.749897 0.952795 0
0.863838 -6.739011 0.952716 0
0.848416 -6.755641 0.952704 0
0.817010 -6.739936 0.952621 0
0.790764 -6.739438 0.952567 0
0.774266 -6.756347 0.952554 0
0.749039 -6.755175 0.952502 0
0.721421 -6.746195 0.952436 0
0.698711 -6.752512 0.952400 0
0.671921 -6.747398 0.952341 0
0.660305 -6.774844 0.952353 0
0.632875 -6.765452 0.952289 0
0.608493 -6.767778 0.952246 0
0.591060 -6.780045 0.952229 0
0.567682 -6.781747 0.952188 0
0.542097 -6.775594 0.952133 0
0.528998 -6.803197 0.952146 0
0.497667 -6.786296 0.952067 0
0.476954 -6.790871 0.952036 0
0.455230 -6.795801 0.952005 0
0.436606 -6.808022 0.951989 0
0.413310 -6.809109 0.951950 0
0.386983 -6.802708 0.951896 0
0.368296 -6.814707 0.951881 0
0.345054 -6.815523 0.951844 0
0.327311 -6.826980 0.951830 0
0.303615 -6.823513 0.951787 0
0.284806 -6.835241 0.951773 0
0.265943 -6.846909 0.951759 0
0.241280 -6.843584 0.951716 0
0.230904 -6.877538 0.951747 0
0.203391 -6.866575 0.951690 0
0.185765 -6.881726 0.951685 0
0.163906 -6.885567 0.951657 0
0.143764 -6.897217 0.951644 0
0.121879 -6.900901 0.951618 0
0.126577 -6.975712 0.951733 0
0.066485 -6.937544 0.951593 1
0.044238 -6.936803 0.951561 0
0.021246 -6.940470 0.951535 0
0.022079 -7.007776 0.951636 0
-0.011500 -6.976856 0.951545 0
-0.022072 -7.018293 0.951594 0
-0.038253 -7.036228 0.951600 0
-0.050678 -7.069690 0.951635 0
-0.074077 -7.072982 0.951611 0
-0.091759 -7.086967 0.951610 0
-0.102267 -7.127969 0.951661 0
-0.126054 -7.122757 0.951624 0
-0.133352 -7.179349 0.951703 0
-0.152640 -7.189337 0.951696 0
-0.148103 -7.283973 0.951849 0
-0.175583 -7.271200 0.951798 0
-0.185227 -7.323972 0.951870 0
-0.195218 -7.372593 0.951936 0
-0.186092 -7.490548 0.952132 0
-0.205425 -7.504238 0.952134 0
-0.208054 -7.583779 0.952257 0
-0.239296 -7.559094 0.952187 0
-2.799578 -17.196224 0.969613 2
-2.804559 -16.170628 0.967781 4
-2.961643 -16.137419 0.967858 21
-3.087533 -17.223518 0.969910 16
-3.142383 -17.235783 0.969983 19
-3.226353 -17.562578 0.970644 4
-3.267609 -17.382946 0.970364 3
-3.349901 -17.689402 0.970990 2
-3.507611 -17.491119 0.970800 22
-3.548064 -17.306564 0.970515 11
-3.624916 -17.504076 0.970948 2
-3.711612 -17.812969 0.971590 2
-3.760123 -17.683268 0.971416 1
-3.858744 -17.539730 0.971276 11
-4.149260 -19.539671 0.975140 3
-4.135994 -18.880697 0.973966 13
-4.182683 -18.746092 0.973787 6
-4.130432 -17.837566 0.972129 2
-4.336854 -18.964447 0.974363 16
-4.442969 -19.281282 0.975053 6
-4.525200 -19.407379 0.975380 3
-4.705894 -19.300791 0.975438 12
-4.735517 -19.065809 0.975071 22
-4.778251 -18.925711 0.974889 9
-4.978808 -19.392042 0.975981 1
-5.102198 -18.961750 0.975425 1
-5.405470 -20.334032 0.978235 1
-5.538628 -20.667847 0.979011 1
-4.940180 -16.731226 0.971369 33
-4.988741 -16.673195 0.971348 26
-5.040307 -16.646963 0.971387 7
-5.047049 -16.409212 0.970997 26
-5.093324 -16.375496 0.971017 10
-5.475319 -17.950966 0.974308 22
-5.527853 -17.907410 0.974324 23
-5.580126 -17.863691 0.974341 10
-6.230933 -20.247974 0.979455 1
-6.351387 -20.487576 0.980067 5
-6.470091 -20.382671 0.980109 1
-5.168362 -14.319786 0.967731 6
-5.270256 -14.344528 0.967964 0
-5.326416 -14.371845 0.968116 0
-6.961946 -20.658812 0.981490 1
-6.245077 -17.340925 0.974719 26
-5.333821 -13.647292 0.966960 3
-6.518157 -17.661530 0.975783 1
-7.510356 -21.039436 0.983201 4
-5.616815 -13.810431 0.967802 18
-7.740258 -20.791529 0.983294 4
-6.967690 -17.921009 0.977139 12
-5.869291 -14.016206 0.968666 0
-6.040500 -14.420055 0.969668 2
-6.584441 -15.667284 0.972804 18
-6.639165 -15.662632 0.972921 41
-6.687805 -15.638731 0.972996 19
-6.258504 -14.142266 0.969735 3
-6.294298 -14.096919 0.969750 2
-6.333612 -14.062870 0.969791 11
-8.590735 -20.638475 0.984981 12
-8.445526 -19.986664 0.983663 5
-6.631268 -14.485808 0.971132 18
-6.695327 -14.518674 0.971336 41
-6.729451 -14.472840 0.971351 11
-7.501211 -16.495243 0.976214 5
-7.561960 -16.494766 0.976364 11
-6.782635 -14.181970 0.971059 5
-6.821653 -14.146421 0.971106 6
-8.705264 -19.079327 0.982977 4
-8.953770 -19.550148 0.984286 5
-9.422662 -20.591677 0.986976 14
-9.184597 -19.766340 0.985190 7
-9.527334 -20.457319 0.987059 4
-8.630215 -17.973589 0.981216 27
-9.460673 -19.912157 0.986121 16
-9.512072 -19.840105 0.986158 7
-9.572944 -19.811380 0.986282 5
-6.967658 -13.223624 0.970191 7
-9.802810 -19.998524 0.987162 14
-9.115854 -18.157326 0.982779 15
-9.205019 -18.202469 0.983086 9
-9.303944 -18.269300 0.983451 16
-9.379835 -18.280478 0.983678 11
-9.771347 -19.013445 0.985753 5
-9.854944 -19.042578 0.986028 1
-9.467161 -17.823517 0.983326 16
-8.205485 -14.860480 0.975846 16
-8.252995 -14.843471 0.975962 11
-10.022288 -18.591244 0.985928 17
-10.118452 -18.630743 0.986262 8
-8.641087 -15.294736 0.977678 9
-8.688259 -15.259438 0.977775 21
-10.060951 -18.035070 0.985345 9
-9.006678 -15.670684 0.979243 2
-10.363504 -18.062357 0.986301 6
-8.741084 -14.629987 0.977167 11
-9.947889 -16.933582 0.983663 6
-10.455120 -17.802374 0.986276 8
-10.445873 -17.632212 0.986048 25
-8.379225 -13.459642 0.974655 4
-9.858839 -16.220572 0.982550 6
-9.941441 -16.249796 0.982848 25
-9.981521 -16.197199 0.982917 16
-10.042718 -16.178444 0.983094 20
-10.106145 -16.176380 0.983298 7
-10.760909 -17.264021 0.986645 12
-10.290109 -16.263493 0.983998 13
-10.337497 -16.223940 0.984112 2
-10.815244 -16.956320 0.986490 3
-10.596100 -16.432882 0.985199 2
-10.529568 -16.195076 0.984724 2
-9.164996 -13.561554 0.977354 18
-9.135031 -13.403506 0.977090 15
-9.133880 -13.307134 0.976988 16
-9.261439 -13.431869 0.977553 13
-9.404442 -13.570537 0.978188 2
-9.718083 -13.998429 0.979703 2
-9.759226 -13.964547 0.979814 18
-9.824854 -13.976410 0.980056 2
-9.836755 -13.894349 0.980020 15
-9.894197 -13.887372 0.980218 6
-9.947477 -13.873346 0.980395 27
-9.964793 -13.801394 0.980390 11
-9.981794 -13.724698 0.980382 3
-9.866949 -13.162182 0.979465 0
-9.972698 -13.231779 0.979915 2
-11.063317 -14.692800 0.985199 1
-11.314692 -14.866433 0.986284 1
-11.122834 -14.479548 0.985249 1
-11.137218 -14.300196 0.985163 5
-11.238955 -14.151443 0.985441 9
-11.328684 -14.181116 0.985811 5
-11.146770 -13.829457 0.984849 5
-11.168179 -13.769828 0.984890 6
-11.203111 -13.719944 0.984992 2
-11.216725 -13.645742 0.984995 8
-11.277328 -13.636051 0.985229 2
-11.268929 -13.532878 0.985127 2
-9.832382 -11.520588 0.978085 0
-54.569954 -57.199188 1.189179 63
-54.776703 -57.026989 1.190072 63
-55.426182 -57.321175 1.193067 63
-55.202332 -56.694775 1.191930 63
-54.976250 -56.091400 1.190793 63
-54.703381 -55.426350 1.189438 63
-55.043797 -55.396667 1.190991 63
-55.827530 -55.816128 1.194646 63
-57.417877 -57.023026 1.202118 63
-55.560390 -54.769367 1.193291 63
-55.729832 -54.582989 1.194058 63
-55.654949 -54.136215 1.193674 63
-57.497299 -55.577820 1.202358 63
-57.389729 -55.093174 1.201830 63
-22.194792 -19.532213 1.035485 4
-22.839054 -19.989359 1.038544 4
-21.884363 -18.993805 1.034043 4
-21.208755 -18.261660 1.030863 3
-22.670544 -18.932314 1.037887 4
-21.592991 -17.885113 1.032809 3
-20.991919 -17.252659 1.029988 7
-21.460005 -17.529696 1.032236 33
-20.817257 -16.877382 1.029218 6
-22.850401 -18.343241 1.038928 4
-21.719721 -17.287821 1.033599 11
-20.507675 -16.179684 1.027881 12
-20.513929 -16.077131 1.027947 9
-21.652472 -16.889442 1.033396 7
-20.426483 -15.688120 1.027650 36
-21.196213 -16.191689 1.031355 6
-22.096823 -16.676792 1.035738 11
-21.917217 -16.425449 1.034932 10
-22.173908 -16.511747 1.036208 26
-20.984097 -15.493018 1.030585 6
-20.720118 -15.086210 1.029429 9
-20.839638 -15.073396 1.030055 3
-20.833904 -14.764518 1.030199 3
-23.110390 -16.313196 1.041169 3
-23.257818 -16.307138 1.041944 16
-23.210127 -16.160799 1.041786 3
-23.695482 -16.166840 1.044341 8
-21.755867 -14.710361 1.035084 6
-23.632616 -15.899402 1.044196 12
-21.987326 -14.670318 1.036342 3
-22.402370 -14.849587 1.038420 3
-23.723082 -15.415149 1.045048 7
-21.597548 -13.908409 1.034849 3
-21.773052 -13.925185 1.035780 3
-22.175591 -13.987968 1.037901 3
-22.655769 -14.194944 1.040321 6
-22.279148 -13.855359 1.038581 9
-25.396338 -15.600569 1.053944 4
-22.599569 -13.658825 1.040514 6
-23.782951 -14.176459 1.046495 7
-23.935106 -14.164079 1.047345 11
-24.190586 -14.212117 1.048704 7
-24.233053 -14.132545 1.049022 7
-23.405216 -13.543806 1.045070 3
-24.327509 -13.979020 1.049711 3
-26.005749 -14.508563 1.058461 8
-20.764439 -11.481812 1.032693 2
-20.793129 -11.330758 1.033035 13
-20.874681 -11.289948 1.033544 4
-25.599295 -13.754107 1.057092 4
-11.441216 -6.071980 0.986898 2
-11.366925 -5.990247 0.986583 30
-11.292180 -5.909095 0.986265 11
-11.191908 -5.772666 0.985877 0
-11.194202 -5.733253 0.985943 0
-11.216912 -5.706364 0.986109 0
-11.151866 -5.631155 0.985842 0
-11.109857 -5.572174 0.985685 0
-11.076294 -5.513906 0.985576 0
-11.062422 -5.469680 0.985560 0
-11.085092 -5.441520 0.985732 0
-11.039984 -5.378659 0.985565 0
-11.051534 -5.345353 0.985682 0
-11.036908 -5.301612 0.985664 0
-11.019212 -5.254741 0.985633 0
-11.033938 -5.223233 0.985768 0
-11.034751 -5.183397 0.985835 0
-11.019401 -5.140118 0.985815 0
-11.025725 -5.106886 0.985905 0
-10.990249 -5.049297 0.985792 0
-10.989635 -5.011398 0.985851 0
-10.969870 -4.967067 0.985809 0
-10.982909 -4.937300 0.985936 0
-10.967827 -4.891666 0.985925 0
-10.965905 -4.855614 0.985976 0
-10.990288 -4.828975 0.986165 0
-10.990090 -4.788242 0.986235 0
-11.021007 -4.766079 0.986457 0
-10.988989 -4.717883 0.986355 0
-10.999415 -4.681833 0.986482 0
-11.008431 -4.648902 0.986595 0
-11.006182 -4.611509 0.986651 0
-11.051524 -4.594847 0.986951 0
-11.000000 -4.540043 0.986749 0
-11.083720 -4.534456 0.987257 0
-11.050501 -4.487143 0.987150 0
-10.965302 -4.418665 0.986776 0
-11.030643 -4.369727 0.987263 60
-11.022927 -4.332869 0.987290 55
-11.068847 -4.312059 0.987607 15
-11.193378 -4.284810 0.988409 1
-11.181512 -4.246349 0.988418 28
-11.188938 -4.212967 0.988533 28
-11.200579 -4.179266 0.988674 15
-11.203975 -4.144560 0.988769 5
-11.300954 -4.107039 0.989435 0
-11.003302 -3.975138 0.987926 0
-11.907688 -4.233717 0.992824 0
-11.934637 -4.202263 0.993058 0
-12.048649 -4.200152 0.993754 2
-12.127853 -4.188308 0.994261 7
-12.196725 -4.168870 0.994724 12
-12.284173 -4.156596 0.995284 16
-12.375488 -4.144902 0.995867 21
-12.473970 -4.136718 0.996486 25
-12.569758 -4.123097 0.997102 23
-12.684256 -4.116243 0.997817 21
-12.790602 -4.108312 0.998486 19
-12.901399 -4.098893 0.999186 16
-13.016113 -4.089813 0.999911 14
-13.150181 -4.085270 1.000743 13
-13.284883 -4.077858 1.001587 10
-13.437934 -4.078653 1.002524 6
-13.623123 -4.082572 1.003652 2
-30.327185 -6.516692 1.100477 4
-30.294077 -5.188721 1.104303 4
-30.240438 -5.085184 1.104295 4
-30.772650 -5.064451 1.107702 5
-31.580585 -5.062256 1.112784 5
-32.272522 -5.049219 1.117174 5
-32.139629 -4.924510 1.116745 5
-68.321281 -6.346099 1.340050 63
-125.659546 -9.670228 1.690498 63
-125.687546 -9.260113 1.692159 63
-125.219246 -8.753809 1.691040 63
-77.873474 -5.516337 1.403434 63
-79.114777 -5.319827 1.412009 63
-82.292198 -5.229960 1.432446 63
-83.163376 -4.693461 1.439961 63
-83.231644 -4.412463 1.441451 63
-82.743362 -4.109774 1.439504 63
-83.381256 -3.849732 1.444532 63
-121.859077 -4.768815 1.684680 63
-82.171120 -3.261411 1.439123 63
-43.434078 -1.888970 1.199078 13
-44.120609 -1.763639 1.203916 15
-45.234917 -1.624809 1.211519 17
-44.440823 -1.465533 1.207116 15
21.412146 0.091218 1.205071 2
89.938202 0.468307 1.968312 56
89.814667 0.161778 1.965656 56
76.657593 -3.028255 1.806774 44
17.639536 -2.129199 1.154269 1
17.359467 -2.316884 1.150543 1
19.334747 -2.673789 1.171311 2
18.469515 -3.251819 1.160038 2
18.501348 -3.327730 1.160182 2
17.432358 -3.276117 1.148517 1
17.587196 -3.363414 1.149994 1
17.499506 -3.421991 1.148874 1
58.770512 -8.721280 1.590404 31
59.097294 -9.185611 1.592839 31
60.698364 -9.845543 1.608862 32
40.216175 -7.413950 1.389307 10
40.276611 -7.574139 1.389610 10
57.956123 -12.665994 1.572900 31
39.440845 -9.370184 1.376924 9
33.852135 -9.675201 1.315857 7
33.821602 -10.065826 1.315050 114
33.917675 -10.223575 1.315903 115
33.889206 -10.349899 1.315457 217
33.900620 -10.480070 1.315441 214
33.933075 -10.622883 1.315642 116
33.877876 -10.735714 1.314939 32
27.043919 -10.649088 1.242359 4
26.957045 -10.732603 1.241417 35
26.919182 -10.832336 1.240990 8
26.816328 -10.898495 1.239894 4
145.263840 -58.501244 2.472524 45
18.281727 -9.755554 1.151397 2
18.319139 -9.940343 1.151893 2
18.214746 -9.978803 1.150862 2
18.113983 -10.018275 1.149872 2
18.016836 -10.058801 1.148922 4
17.857779 -10.070558 1.147328 2
17.764294 -10.111402 1.146421 2
17.741297 -10.180259 1.146250 2
17.712828 -10.250809 1.146028 2
17.658791 -10.309309 1.145543 2
17.608196 -10.369266 1.145095 2
17.676367 -10.486207 1.145894 2
17.566702 -10.602230 1.144927 4
18.325651 -11.062017 1.152975 2
19.196175 -11.584311 1.162203 2
16.951206 -10.706116 1.138965 8
17.114655 -10.878181 1.140797 4
15.774293 -10.265589 1.126822 5
15.812755 -10.364739 1.127335 3
17.303829 -11.233055 1.143138 13
15.838840 -10.537819 1.127837 3
15.826646 -10.611401 1.127827 1
15.852827 -10.705995 1.128226 5
15.822419 -10.770172 1.128030 5
15.890249 -10.970178 1.129008 3
15.888559 -11.047050 1.129119 3
17.190634 -11.865106 1.143035 2
14.959716 -10.682618 1.119567 1
16.947975 -11.903190 1.140774 4
17.952778 -12.666315 1.151759 5
16.715769 -12.032045 1.138795 2
17.103050 -12.530888 1.143435 7
16.613459 -12.320177 1.138390 27
15.533300 -11.748352 1.127049 5
14.629388 -11.271206 1.117564 1
15.964328 -12.267951 1.132188 6
15.962169 -12.354068 1.132355 6
17.656176 -13.514304 1.150699 2
15.515182 -12.325845 1.128139 16
16.686031 -13.174223 1.140931 2
16.555201 -13.278960 1.139973 6
16.102764 -13.071027 1.135318 2
16.582113 -13.483954 1.140720 4
15.775059 -13.028274 1.132215 19
16.311684 -13.484111 1.138253 11
16.162510 -13.475564 1.136875 11
15.964258 -13.432023 1.134965 2
15.571700 -13.247075 1.130931 4
15.879363 -13.554011 1.134520 13
24.601334 -19.807220 1.229784 5
15.795903 -13.775503 1.134373 4
15.790187 -13.865643 1.134573 2
16.204561 -14.261765 1.139378 7
16.120449 -14.390121 1.139000 2
16.039228 -14.432579 1.138407 4
15.941080 -14.457100 1.137614 7
16.012213 -14.608774 1.138691 16
15.976611 -14.675688 1.138581 7
24.365936 -21.194050 1.231698 5
24.352386 -21.329910 1.231997 5
24.372963 -21.492901 1.232683 5
10.824949 -11.189153 1.083006 245
10.792501 -11.236353 1.082880 247
10.753648 -11.278438 1.082685 250
10.723979 -11.327929 1.082595 251
10.691022 -11.374809 1.082470 239
10.694976 -11.452058 1.082764 140
10.652323 -11.491207 1.082536 100
10.620605 -11.535666 1.082420 37
10.583824 -11.579656 1.082263 31
10.552999 -11.628680 1.082175 42
10.534170 -11.687987 1.082227 107
10.457377 -11.697834 1.081622 252
10.424931 -11.741698 1.081509 236
10.429699 -11.821735 1.081838 114
10.379881 -11.854520 1.081546 36
49.818489 -60.949055 1.594603 44
49.405781 -60.871746 1.591311 44
2.754986 -6.595486 1.000435 0
2.670874 -6.535739 0.999555 0
2.630999 -6.527518 0.999236 0
2.648763 -6.663646 1.000031 0
2.763247 -6.843937 1.001715 0
2.745412 -6.863633 1.001692 0
2.597981 -7.191150 1.002410 0
1.984729 -6.774891 0.996300 0
1.957821 -6.778875 0.996158 0
1.845991 -6.743645 0.995287 0
1.839055 -6.820387 0.995682 0
1.963845 -7.145043 0.998271 0
1.957572 -7.182401 0.998450 0
1.970432 -7.250148 0.998917 0
1.776009 -7.084261 0.996844 0
1.739056 -7.069530 0.996550 0
1.603974 -6.899046 0.994790 0
1.358124 -6.580428 0.991542 0
1.337722 -6.592699 0.991503 0
1.417562 -6.815120 0.993269 0
1.327647 -6.710212 0.992154 0
1.390058 -6.863646 0.993415 0
1.251932 -6.670901 0.991513 0
1.297624 -6.796852 0.992521 0
1.245907 -6.752637 0.991980 0
1.212168 -6.739520 0.991724 0
1.240845 -6.838055 0.992478 0
1.181833 -6.779310 0.991813 0
1.148256 -6.765827 0.991559 0
1.120636 -6.758120 0.991372 0
1.096790 -6.761937 0.991276 0
1.051210 -6.727391 0.990833 0
1.038764 -6.752143 0.990926 0
1.009431 -6.745013 0.990738 0
0.996825 -6.769670 0.990831 0
0.967556 -6.762329 0.990643 0
0.945670 -6.769093 0.990581 0
0.912904 -6.754377 0.990331 0
0.883075 -6.742572 0.990115 0
0.878162 -6.785309 0.990365 0
0.861569 -6.802490 0.990398 0
0.806397 -6.789461 0.990060 0
0.782768 -6.792016 0.989969 0
0.759155 -6.794477 0.989878 0
0.737270 -6.800457 0.989819 1
0.715378 -6.806355 0.989761 0
0.690104 -6.804918 0.989640 0
0.670907 -6.813807 0.989614 0
0.645682 -6.812180 0.989494 1
0.622149 -6.814091 0.989406 0
0.603546 -6.826859 0.989411 1
0.578390 -6.824944 0.989292 0
0.553279 -6.822926 0.989174 0
0.534607 -6.835470 0.989180 0
0.509536 -6.833264 0.989062 0
0.487657 -6.838311 0.989007 0
0.464214 -6.839592 0.988921 0
0.444903 -6.847732 0.988898 0
0.424546 -6.856230 0.988874 0
0.402639 -6.860959 0.988820 0
0.380727 -6.865605 0.988767 0
0.357317 -6.866461 0.988682 0
0.339401 -6.877960 0.988692 0
0.317916 -6.886495 0.988669 0
0.298017 -6.890023 0.988619 0
0.274623 -6.890549 0.988536 0
0.258414 -6.909657 0.988607 0
0.238232 -6.921635 0.988616 0
0.227456 -6.955626 0.988811 0
0.218904 -6.992976 0.989039 0
0.179069 -6.952259 0.988618 0
0.162119 -6.966970 0.988661 0
0.145721 -6.989911 0.988763 0
0.131568 -7.016209 0.988898 0
0.119637 -7.045884 0.989064 0
0.098851 -7.057390 0.989076 0
0.090767 -7.102506 0.989364 0
0.074449 -7.120767 0.989439 0
0.063337 -7.158302 0.989667 0
0.043160 -7.169262 0.989680 0
0.031667 -7.206758 0.989908 0
0.024876 -7.259467 0.990259 0
0.012729 -7.292808 0.990457 0
0.004118 -7.341737 0.990778 0
0.004753 -7.421218 0.991343 0
-0.023513 -7.409070 0.991174 0
-0.031801 -7.461835 0.991525 0
-0.050832 -7.480154 0.991601 0
-0.089382 -7.433251 0.991158 0
-2.717761 -16.242641 1.056679 1
-2.819038 -16.145397 1.056052 9
-2.938361 -17.296495 1.064951 12
-2.929491 -16.219158 1.056745 21
-2.981248 -16.195864 1.056633 16
-3.033398 -16.180372 1.056582 7
-3.087657 -16.232719 1.057053 18
-3.136562 -16.172987 1.056666 11
-3.351212 -17.492186 1.066989 17
-3.389268 -17.260204 1.065286 8
-3.330037 -15.386136 1.050986 1
-3.374052 -15.317701 1.050538 2
-3.638871 -17.470074 1.067275 7
-3.743889 -17.925791 1.070902 1
-3.784219 -17.744598 1.069602 4
-3.882023 -18.096090 1.072433 2
-3.863860 -17.405846 1.067185 8
-3.911672 -17.343956 1.066806 38
-4.237064 -19.033079 1.080173 3
-4.296884 -19.001354 1.080052 6
-4.344018 -18.898457 1.079372 3
-4.417545 -18.949203 1.079905 16
-4.453793 -18.750475 1.078487 10
-4.560298 -19.078863 1.081182 3
-4.644322 -19.192062 1.082215 3
-4.628704 -18.652596 1.078133 15
-4.781981 -19.244331 1.082916 6
-4.843725 -19.222652 1.082896 3
-4.948903 -19.473301 1.085018 1
-4.990863 -18.951736 1.081220 7
-5.008423 -18.677004 1.079212 21
-5.056325 -18.587580 1.078665 9
-5.109234 -18.529545 1.078367 15
-5.158211 -18.451677 1.077913 7
-4.905056 -16.741364 1.064530 6
-4.960654 -16.735058 1.064631 23
-4.952887 -16.398594 1.062113 6
-5.004633 -16.392643 1.062211 24
-5.052806 -16.354601 1.062063 4
-5.462100 -17.798002 1.073898 1
-6.101322 -19.894960 1.091239 5
-4.790777 -13.650970 1.041347 5
-6.323032 -19.972618 1.092487 1
-6.557615 -20.361670 1.096077 1
-5.230875 -14.324913 1.047673 1
-6.490800 -18.966072 1.085673 1
-6.908826 -20.349817 1.097147 1
-5.316912 -13.709241 1.043484 5
-5.347703 -13.655641 1.043203 1
-7.032672 -19.751085 1.093236 5
-7.474408 -21.115007 1.104662 4
-5.481961 -13.627603 1.043479 6
-7.162762 -19.462397 1.091622 3
-6.064434 -15.346134 1.057979 4
-6.912321 -18.107353 1.080959 13
-6.957394 -18.040178 1.080647 12
-6.869620 -17.524042 1.076619 11
-6.025825 -14.490852 1.051707 2
-6.688212 -16.317204 1.067306 30
-7.391175 -18.394209 1.084854 4
-6.144075 -14.220355 1.050247 3
-6.174378 -14.156253 1.049915 12
-6.700274 -15.634251 1.062511 18
-6.371206 -14.450086 1.052797 6
-6.385525 -14.335968 1.052052 3
-6.328291 -14.009410 1.049514 3
-6.371049 -13.986641 1.049535 18
-6.473199 -13.989841 1.049995 6
-6.509222 -13.947711 1.049857 7
-6.781836 -14.576921 1.055436 43
-6.829127 -14.560146 1.055528 19
-9.016714 -20.489527 1.106444 6
-8.178169 -17.976988 1.085265 7
-6.878436 -14.265731 1.053709 4
-8.316100 -17.977324 1.085894 3
-6.942088 -14.148128 1.053190 16
-8.008187 -16.648336 1.075329 10
-8.075902 -16.669342 1.075793 6
-8.713302 -18.133762 1.088827 3
-8.430262 -16.920424 1.079208 1
-9.767563 -19.847984 1.105594 5
-9.665420 -19.427027 1.102248 71
-9.253595 -18.268219 1.092389 24
-7.095240 -13.018522 1.046257 3
-9.466828 -18.434053 1.094582 3
-9.831084 -19.108978 1.100957 3
-9.652289 -18.528105 1.096164 24
-9.781172 -18.654985 1.097678 7
-9.442327 -17.728878 1.089763 19
-9.515365 -17.735630 1.090193 21
-8.287696 -14.875539 1.064804 22
-8.329358 -14.838961 1.064787 9
-9.718960 -17.726347 1.091222 39
-9.763703 -17.670300 1.091098 37
-9.818368 -17.635859 1.091172 16
-8.763663 -15.258669 1.069895 7
-8.820237 -15.249400 1.070148 18
-9.793480 -17.142540 1.087831 4
-9.192205 -15.767076 1.075575 3
-9.870523 -17.015959 1.087448 15
-9.424802 -15.978048 1.078250 3
-9.552185 -16.102255 1.079773 17
-9.631834 -16.129354 1.080405 4
-9.756317 -16.250097 1.081894 24
-10.426373 -17.416916 1.093207 71
-10.225863 -16.890238 1.088697 15
-10.527662 -17.332876 1.093271 26
-10.531360 -17.208967 1.092514 33
-10.580306 -17.164961 1.092530 15
-8.857442 -13.499537 1.059265 2
-10.418783 -16.215040 1.085642 11
-10.481524 -16.203020 1.085956 12
-9.131031 -13.681458 1.062077 27
-9.121857 -13.562576 1.061292 3
-9.074015 -13.382665 1.059894 3
-10.568130 -15.873289 1.084484 2
-10.666169 -15.922818 1.085407 2
-10.276728 -15.145122 1.078221 12
-9.691311 -14.041627 1.067816 11
-9.261995 -13.217353 1.060097 4
-10.442077 -14.976846 1.078285 1
-10.075053 -13.953606 1.069814 1
-10.026422 -13.776381 1.068451 1
-10.149737 -13.773963 1.069270 2
-10.988395 -14.989508 1.082012 1
-11.070005 -15.003450 1.082651 3
-10.916763 -14.554078 1.079020 1
-10.950693 -14.300752 1.077819 18
-10.963289 -14.219791 1.077452 14
-11.408783 -14.782620 1.083761 12
-11.589263 -14.828268 1.085302 11
-11.121514 -14.067046 1.077729 5
-11.113978 -13.955053 1.077057 3
-11.163639 -13.924823 1.077251 2
-11.185356 -13.860226 1.077056 2
-11.358878 -14.016318 1.079175 3
-11.413579 -13.996521 1.079469 1
-11.432748 -13.923183 1.079215 1
-11.468242 -13.877295 1.079231 1
-11.243987 -13.485984 1.075469 1
-9.938332 -11.490398 1.055091 2
-55.030121 -57.180035 1.641536 43
-55.229832 -57.018368 1.642522 43
-55.485813 -56.895786 1.644173 43
-54.559052 -55.545326 1.630296 42
-54.657116 -55.266815 1.629929 42
-55.011101 -55.251438 1.632924 42
-55.691105 -55.564907 1.640170 42
-56.331696 -55.831673 1.646885 43
-55.454552 -54.571617 1.633883 42
-55.575130 -54.337631 1.633954 42
-55.957973 -54.326443 1.637272 42
-56.015224 -54.011719 1.636470 42
-57.778469 -55.360767 1.657635 43
-20.826731 -18.128229 1.177332 3
-21.225716 -18.247288 1.181440 3
-21.384489 -18.159142 1.182576 3
-21.928118 -18.516243 1.188924 9
-22.757877 -19.116827 1.198821 21
-21.266529 -17.698656 1.179799 9
-21.673447 -17.931147 1.184434 25
-21.285137 -17.480650 1.179194 3
-21.247883 -17.333065 1.178323 3
-21.526812 -17.330814 1.180946 6
-20.374731 -16.157341 1.166009 7
-21.021507 -16.573486 1.173571 8
-20.678204 -16.184296 1.168993 22
-21.534811 -16.772562 1.179140 9
-21.308662 -16.479288 1.176008 8
-20.232430 -15.409896 1.162183 10
-20.739058 -15.703888 1.168020 7
-21.797266 -16.421865 1.180546 24
-21.781761 -16.304775 1.180030 17
-21.869900 -16.262409 1.180758 6
-23.396282 -17.314997 1.198892 3
-21.287868 -15.387423 1.172418 5
-21.206778 -15.228233 1.171152 10
-21.662462 -15.459409 1.176330 11
-22.717934 -16.123476 1.188698 9
-20.972141 -14.749622 1.167456 2
-22.770071 -15.721814 1.188103 3
-22.081615 -15.129543 1.179596 28
-22.921404 -15.610775 1.189326 18
-22.068459 -14.705812 1.178357 2
-22.870707 -15.040456 1.187352 6
-23.755251 -15.306348 1.197038 9
-24.150137 -15.455257 1.201443 6
-21.940044 -13.916000 1.175127 2
-22.365313 -14.090444 1.179911 2
-22.744804 -14.231992 1.184152 2
-23.972124 -14.692369 1.197894 6
-24.122831 -14.684590 1.199447 56
-23.954527 -14.369798 1.197037 9
-23.480417 -13.979023 1.191280 90
-24.036886 -14.210040 1.197582 3
-23.336494 -13.689877 1.189199 5
-23.432280 -13.645775 1.190125 40
-23.448591 -13.554740 1.190126 5
-26.270868 -15.090680 1.222830 3
-26.195009 -14.934090 1.221742 3
-26.097507 -14.766311 1.220409 3
-27.200132 -15.278942 1.233037 3
-24.309349 -13.540654 1.199248 3
-26.128286 -14.450961 1.220201 3
-20.794081 -11.310490 1.157979 17
-20.868549 -11.265820 1.158709 6
-25.559811 -13.706939 1.212925 3
-25.540442 -13.590709 1.212543 3
-11.271775 -5.929657 1.047285 0
-11.412255 -5.920220 1.048794 36
-11.432856 -5.889171 1.048976 38
-11.333247 -5.714637 1.047668 0
-11.371053 -5.692739 1.048055 0
-11.380134 -5.656454 1.048113 0
-11.134054 -5.495216 1.045232 0
-11.260370 -5.519087 1.046646 0
-11.095830 -5.399969 1.044710 0
-11.031647 -5.330291 1.043931 0
-11.006863 -5.279928 1.043608 0
-11.141192 -5.304479 1.045117 0
-11.156091 -5.272544 1.045253 0
-11.185411 -5.247247 1.045556 0
-11.229224 -5.228434 1.046027 0
-12.238956 -5.645759 1.057592 0
-11.258376 -5.163899 1.046301 0
-11.342256 -5.162361 1.047236 0
-11.342009 -5.123291 1.047206 0
-11.073861 -4.967787 1.044105 0
-11.087584 -4.936089 1.044239 0
-10.943011 -4.836831 1.042560 0
-11.144173 -4.885009 1.044846 0
-11.172365 -4.859244 1.045151 0
-11.170930 -4.821077 1.045117 0
-10.969523 -4.700965 1.042793 0
-10.982316 -4.669633 1.042925 0
-10.994999 -4.638258 1.043058 0
-13.233454 -5.493188 1.068690 1
-10.986547 -4.562172 1.042940 0
-11.032391 -4.543866 1.043456 0
-11.044635 -4.512315 1.043590 0
-11.056768 -4.480722 1.043723 0
-11.083757 -4.454746 1.044027 0
-11.120721 -4.436012 1.044448 0
-11.143840 -4.408323 1.044711 0
-11.152228 -4.338951 1.044807 31
-11.152461 -4.302932 1.044812 15
-11.209686 -4.249266 1.045477 7
-11.217121 -4.215789 1.045569 48
-11.220652 -4.181001 1.045617 51
-11.212687 -4.142377 1.045535 54
-11.238699 -4.115282 1.045844 52
-11.260837 -4.086786 1.046109 54
-11.290490 -4.060662 1.046463 34
-12.180005 -4.234166 1.056709 0
-12.114794 -4.174793 1.055982 0
-12.236594 -4.173617 1.057401 0
-12.449791 -4.201395 1.059869 0
-12.487644 -4.172959 1.060329 0
-12.403263 -4.106061 1.059389 0
-12.882273 -4.206871 1.064916 0
-12.781898 -4.136655 1.063795 0
-12.880632 -4.126137 1.064960 0
-12.938143 -4.099243 1.065657 0
-13.141516 -4.114563 1.068030 0
-13.324483 -4.082509 1.070210 5
-30.721855 -6.360254 1.273710 3
-30.555357 -5.928113 1.272564 3
-30.568514 -5.209469 1.274292 3
-31.054129 -5.177137 1.280217 3
-31.147684 -5.086748 1.281560 3
-31.799784 -5.071736 1.289459 4
-32.209553 -5.025466 1.294515 4
-68.313431 -6.300450 1.727989 35
-68.359360 -6.071067 1.729260 35
-78.657829 -6.048162 1.854322 42
-78.690872 -5.781538 1.855596 42
-83.602272 -5.800592 1.915180 47
-78.981804 -5.260323 1.860868 43
-79.091988 -4.996525 1.863102 43
-78.545433 -4.713867 1.857431 42
-79.404938 -4.484567 1.868673 43
-83.648643 -4.388977 1.920591 47
-83.268730 -4.074973 1.917089 46
-82.771217 -3.773965 1.912123 46
-82.580002 -3.499951 1.910795 46
-82.588158 -3.218660 1.911929 46
-83.043167 -2.947996 1.918469 46
-43.660095 -1.283796 1.445772 9
18.520281 1.316547 1.299135 2
18.405119 0.875092 1.294631 1
49.064381 1.768841 1.817121 16
49.178509 1.416850 1.817323 82
76.346123 -2.734815 2.259955 60
76.587906 -3.000855 2.263089 61
18.723629 -2.125606 1.286956 2
17.813435 -2.142949 1.271516 1
17.549675 -2.264974 1.266696 12
17.480673 -2.397192 1.265155 1
17.475752 -2.465183 1.264884 1
17.462618 -2.532537 1.264481 1
17.461487 -2.597391 1.264291 1
17.435940 -2.663628 1.263690 1
17.446026 -2.732865 1.263686 1
17.456175 -2.798796 1.263695 1
17.501287 -2.875017 1.264273 1
17.510954 -2.941242 1.264281 1
17.484240 -3.007306 1.263681 1
17.556376 -3.087113 1.264719 1
17.625322 -3.229574 1.265577 17
17.589685 -3.294836 1.264845 5
59.072842 -8.966867 1.951128 32
60.493855 -9.595847 1.973899 35
58.167095 -10.123399 1.934115 31
57.867825 -10.281290 1.928891 30
58.994846 -10.684668 1.947206 32
60.320557 -11.330045 1.968564 35
61.603222 -11.759046 1.989486 37
58.830208 -11.947177 1.943061 33
39.440323 -9.213105 1.622748 10
39.437469 -9.370464 1.622606 10
33.737644 -9.523077 1.528361 7
33.824421 -9.927828 1.529832 131
33.807053 -10.062986 1.529578 63
33.907001 -10.221676 1.531262 209
33.903397 -10.347734 1.531246 219
33.920902 -10.486252 1.531589 195
33.895378 -10.613645 1.531230 100
33.873260 -10.742021 1.530936 21
26.935730 -10.726134 1.418608 137
146.223846 -58.284084 3.406075 63
145.091660 -58.437538 3.388599 63
145.028046 -59.004917 3.388938 63
18.059080 -9.498745 1.275577 2
17.639446 -9.402290 1.268785 2
18.025120 -9.649653 1.275478 2
17.987543 -9.716310 1.275091 2
17.883835 -9.753856 1.273598 2
17.973886 -9.876709 1.275361 2
17.681553 -9.825295 1.270694 2
17.805355 -9.959620 1.273023 2
17.784954 -10.033672 1.272945 2
17.487787 -10.067231 1.268498 4
17.600964 -10.203072 1.270686 4
17.619415 -10.295367 1.271283 2
17.563282 -10.348326 1.270612 2
16.660452 -10.001919 1.255651 2
16.857431 -10.337094 1.259857 6
16.890873 -10.431679 1.260716 10
16.870550 -10.508039 1.260699 4
15.792190 -10.043785 1.242673 8
16.921362 -10.699656 1.262207 4
15.661236 -10.132930 1.241058 1
17.014715 -10.911282 1.264450 2
17.035002 -11.010646 1.265158 4
16.892387 -11.185275 1.263764 4
17.235029 -11.626473 1.270749 2
15.792658 -10.912274 1.246307 3
17.074173 -11.799765 1.269160 6
17.055702 -11.872853 1.269225 2
16.813330 -11.909448 1.265854 2
16.029036 -11.539671 1.252671 4
15.109665 -11.083448 1.237112 1
15.377764 -11.570428 1.243394 1
16.498577 -12.428392 1.263866 4
15.933655 -12.336530 1.255316 6
15.384429 -12.074986 1.246112 4
15.860959 -12.465768 1.254975 6
15.780582 -12.502007 1.254034 4
16.793707 -13.342998 1.272955 7
16.482985 -13.319959 1.268463 4
16.972549 -13.746326 1.277735 2
15.688683 -12.974872 1.255395 27
15.632414 -13.022210 1.254885 38
16.136824 -13.453762 1.264407 6
16.041779 -13.486049 1.263280 4
16.016758 -13.557230 1.263357 4
15.646512 -13.395826 1.257287 19
15.585778 -13.440432 1.256721 2
24.562820 -19.913038 1.419203 5
15.552042 -13.694144 1.257815 6
15.577851 -13.801674 1.258836 18
15.476047 -13.825825 1.257605 4
16.286337 -14.513000 1.272922 82
16.061277 -14.547598 1.270109 4
16.009937 -14.602600 1.269775 4
24.621964 -21.243715 1.428420 5
24.554390 -21.338949 1.428143 5
16.052349 -15.034223 1.273186 2
10.833316 -11.196130 1.178303 250
10.800845 -11.243360 1.178201 252
10.768201 -11.290486 1.178098 252
10.747815 -11.347581 1.178229 210
10.736482 -11.412244 1.178534 108
10.695772 -11.449344 1.178266 30
10.649081 -11.555995 1.178421 4
10.499657 -11.658954 1.177248 252
10.471558 -11.710329 1.177266 252
10.451182 -11.764692 1.177408 225
10.428699 -11.821206 1.177542 109
50.136139 -60.894310 2.058082 62
50.144020 -61.305847 2.061940 63
49.511124 -60.995960 2.052207 62
49.270329 -61.138878 2.050921 61
48.734627 -60.911827 2.043038 61
2.672783 -6.575385 1.041958 0
2.640545 -6.576313 1.041622 0
2.702823 -6.690996 1.043363 0
2.759271 -6.800005 1.044990 0
2.716283 -6.788715 1.044430 0
2.678409 -6.824613 1.044375 0
2.710599 -6.906487 1.045496 0
2.637774 -6.857132 1.044266 0
2.379986 -6.943904 1.042517 0
2.011875 -6.857662 1.038099 0
1.682725 -6.457638 1.030872 0
1.663723 -6.470459 1.030830 0
1.851997 -6.840071 1.036438 0
1.783113 -6.956349 1.037055 0
1.722863 -6.909320 1.036019 0
1.717162 -6.945997 1.036363 0
1.732384 -7.016661 1.037258 0
1.897558 -7.738595 1.046560 0
1.800992 -7.678801 1.045106 0
1.828173 -7.778372 1.046437 0
1.286338 -6.871707 1.031930 0
1.260055 -6.872660 1.031731 0
1.733445 -7.831161 1.046275 0
1.708458 -7.844799 1.046233 0
1.684614 -7.857702 1.046194 0
1.661920 -7.869883 1.046157 0
1.798849 -8.249974 1.051540 0
0.907537 -6.841720 1.028689 0
0.907468 -6.895354 1.029311 0
