# .PCD v.7 - Point Cloud Data file format
VERSION .7
FIELDS x y z intensity
SIZE 4 4 4 1
TYPE F F F U
COUNT 1 1 1 1
WIDTH 1478
HEIGHT 1
VIEWPOINT 0 0 0 1 0 0 0
POINTS 1478
DATA ascii
-17.009001 8.789851 1.535763 1
-125.579865 65.637779 5.702069 44
-125.849167 66.302780 5.723795 44
-125.313202 66.571571 5.715221 44
-175.579468 94.856697 7.687246 44
-89.403488 64.230133 5.983449 63
-91.910988 66.523125 6.142919 63
-91.820061 66.938377 6.153216 63
-68.867004 50.453465 4.838376 60
-68.399010 50.467159 4.822936 61
-51.384377 38.078808 3.842872 33
-67.528946 50.534752 4.795722 61
-10.376078 7.395583 1.453853 1
-10.328285 7.405474 1.452573 1
-10.220440 7.368711 1.447743 1
-10.144493 7.355804 1.444776 1
-10.081320 7.352303 1.442553 1
-9.999451 7.333587 1.439206 1
-9.949093 7.339239 1.437725 1
-9.871825 7.320763 1.434548 1
-9.846555 7.345836 1.434560 1
-9.749853 7.312893 1.430264 1
-9.715347 7.329932 1.429710 1
-9.656141 7.326489 1.427655 1
-9.584752 7.312510 1.424848 1
-9.519688 7.303232 1.422413 1
-9.454782 7.293577 1.419975 1
-9.493697 7.371351 1.423917 1
-9.358891 7.301665 1.417156 1
-9.348925 7.337869 1.418092 1
-9.293471 7.334867 1.416208 1
-9.262229 7.352553 1.415827 1
-9.089799 7.246239 1.406602 1
-9.082875 7.284319 1.407720 1
-9.052997 7.299939 1.407323 1
-9.055833 7.344750 1.408997 1
-9.002814 7.343952 1.407297 1
-8.912562 7.306701 1.403136 1
-8.841444 7.283881 1.400094 1
-8.807665 7.297037 1.399509 1
-8.773878 7.310034 1.398923 1
-8.629127 7.219233 1.391163 1
-8.636435 7.269851 1.393215 1
-8.710188 7.383791 1.399613 1
-8.544353 7.268279 1.390321 1
-8.542561 7.310596 1.391806 1
-8.448637 7.264102 1.387239 1
-8.426685 7.286714 1.387398 1
-8.387537 7.292466 1.386420 1
-8.359801 7.309250 1.386198 1
-8.300859 7.294928 1.383892 1
-8.275978 7.314198 1.383857 1
-8.245412 7.327696 1.383442 1
-8.158757 7.284124 1.379233 1
-8.139531 7.308581 1.379573 1
-8.277229 7.492387 1.390531 1
-8.243385 7.502898 1.389924 1
-8.237185 7.542103 1.391215 1
-8.115122 7.459764 1.384529 1
-8.114440 7.504446 1.386197 1
-8.105320 7.540460 1.387296 1
-8.106916 7.588183 1.389155 1
-8.105542 7.633064 1.390824 1
-8.074196 7.645650 1.390400 1
-8.096690 7.717133 1.393782 1
-8.110713 7.779971 1.396595 1
-8.100322 7.816253 1.397694 1
-8.108385 7.873405 1.400126 1
-8.133245 7.947552 1.403696 1
-8.137963 8.002036 1.405940 1
-8.126591 8.038595 1.407040 1
-8.185786 8.156598 1.413291 1
-8.189427 8.211567 1.415538 1
-8.216152 8.293959 1.419503 1
-8.265674 8.404015 1.425188 1
-8.337703 8.541979 1.432596 1
-51.117031 59.611950 4.618907 57
-44.193504 51.714020 4.117730 40
-45.795597 54.013618 4.252373 45
-40.788586 48.292496 3.889612 32
-40.883911 48.730667 3.909607 33
-40.755482 48.896748 3.912766 33
-39.964546 48.256565 3.866003 31
-39.285748 47.745716 3.827439 30
-39.487061 48.336010 3.856464 31
-38.570351 47.512226 3.799084 29
-38.316643 47.523254 3.792840 29
-38.312252 47.870907 3.806759 29
-37.844479 47.586021 3.783008 29
-37.798016 47.863358 3.793042 29
-37.394958 47.673115 3.774868 28
-37.121105 47.649750 3.766852 28
-36.990452 47.832710 3.770961 28
-36.736149 47.832809 3.764464 28
-36.642197 48.031494 3.770212 28
-44.519566 59.140045 4.425903 50
-39.492561 52.649059 4.032052 37
-38.830055 52.092827 3.992484 35
-37.718498 50.918678 3.916198 33
-37.956406 51.642143 3.952059 34
-35.561462 48.623486 3.767560 28
-38.030304 52.889030 4.005692 36
-35.146797 49.097736 3.777132 28
-35.752819 50.344044 3.843948 30
-35.741951 50.699635 3.858576 30
-41.029556 58.892509 4.329561 47
-34.039341 48.874580 3.741056 27
-40.367657 58.777885 4.308923 46
-40.200813 58.964973 4.312860 46
-40.072521 59.211769 4.320264 46
-34.730133 51.434093 3.865482 30
-34.856850 52.018307 3.893226 31
-32.811523 49.196060 3.725746 27
-33.703075 50.991970 3.822823 29
-33.470772 51.011204 3.818300 29
-34.232471 52.599171 3.903579 32
-33.845612 52.378819 3.885340 31
-32.524109 50.654533 3.781488 28
-32.400829 50.823814 3.785982 28
-32.348793 51.131367 3.798049 28
-32.459686 51.713081 3.825590 29
-31.818277 51.021435 3.781518 28
-31.747187 51.300697 3.792027 28
-31.737238 51.686867 3.808535 29
-31.385023 51.490181 3.792325 28
-35.323151 58.711342 4.191487 41
-35.053810 58.709614 4.185607 41
-34.820442 58.769222 4.183206 41
-34.363277 58.431210 4.158706 40
-30.366158 51.758976 3.782212 28
-33.740471 58.732407 4.158787 40
-29.183819 50.864845 3.718232 26
-28.152544 49.356350 3.630507 24
-28.547869 50.477680 3.688062 25
-32.638630 58.597382 4.130117 39
-32.391758 58.642315 4.127090 39
-32.148438 58.643818 4.122246 39
-31.864927 58.566341 4.113122 38
-27.529787 50.642944 3.674822 25
-31.178663 58.218632 4.084029 37
-30.955181 58.273945 4.082093 37
-30.676123 58.217697 4.074126 37
-30.413826 58.192394 4.067899 37
-30.176180 58.189705 4.063190 36
-29.911327 58.155060 4.056557 36
-29.652290 58.130047 4.050499 36
-29.404148 58.125534 4.045599 36
-29.125801 58.081444 4.038384 36
-28.868587 58.079449 4.033494 35
-18.423500 36.544830 2.868699 37
-26.160679 53.712147 3.786420 28
-25.964844 53.770855 3.785522 56
-27.676212 58.035137 4.009691 34
-27.418016 58.019573 4.004363 34
-26.906883 57.939762 3.991685 34
-26.835081 58.319714 4.007741 34
-26.786169 58.758587 4.026914 35
-26.743879 59.219872 4.047256 36
-26.718231 59.699326 4.068743 36
-26.645468 60.102455 4.085965 37
-26.419046 60.140278 4.083882 37
-26.162388 60.103294 4.077891 37
-25.927298 60.117077 4.074624 37
-24.755014 57.794003 3.948455 32
-24.372358 57.988960 3.951215 65
-24.116667 57.921650 3.944000 32
-23.861721 57.853252 3.936776 32
-23.630253 57.813587 3.931283 32
-23.181160 57.825024 3.924803 31
-22.927185 57.748856 3.917355 31
-22.708284 57.765419 3.914781 31
-22.463717 57.709763 3.908489 31
-22.238623 57.705757 3.904925 31
-22.003153 57.670742 3.899790 30
-21.784000 57.680031 3.896993 30
-21.369068 57.730507 3.893318 61
-21.152559 57.711311 3.889314 30
-20.927757 57.698402 3.885514 30
-20.691994 57.650478 3.879947 30
-20.229534 57.574585 3.869967 29
-19.892752 57.887482 3.880101 30
-19.670202 57.873451 3.876457 30
-19.435053 57.816555 3.870655 29
-17.964727 54.359093 3.688246 25
-17.802086 54.495090 3.692583 25
-17.623379 54.543507 3.692599 25
-17.473951 54.728371 3.699469 25
-17.239130 54.616989 3.691267 25
-17.043121 54.639236 3.689907 25
-16.917624 54.914860 3.701459 25
-16.733444 54.982170 3.702437 25
-16.932423 57.249931 3.812634 28
-16.834230 57.676708 3.831810 28
-16.620066 57.625172 3.826891 28
-16.400480 57.590843 3.822759 28
-16.189106 57.586670 3.820187 28
-15.977936 57.581711 3.817609 28
-15.761292 57.552685 3.813849 28
-15.184697 56.023369 3.734488 26
-14.934487 55.824272 3.722291 26
-14.804559 56.133831 3.735744 26
-13.492423 51.295036 3.490253 20
-13.438010 51.872818 3.517397 21
-13.287090 52.033493 3.523579 21
-14.536558 58.614693 3.852003 29
-12.921948 52.072281 3.521822 21
-12.696501 51.887421 3.510749 20
-12.573860 52.145733 3.522000 21
-12.184179 52.057987 3.514127 20
-11.342088 49.613598 3.388670 18
-13.954120 64.339050 4.122148 38
-13.686875 64.133080 4.109873 37
-10.787827 49.465511 3.376682 17
-10.431170 49.423656 3.371669 35
-11.677921 57.718456 3.783027 27
-16.039425 84.939194 5.135213 59
-15.736243 84.835632 5.127805 59
-10.102732 51.597477 3.474263 19
-9.867599 51.254616 3.455857 19
-9.754561 51.688648 3.476051 20
-9.360892 51.473049 3.462729 19
-8.756893 48.508648 3.314570 51
-9.008698 51.527462 3.462908 19
-8.822495 51.480511 3.459364 19
-8.634609 51.417034 3.455031 19
-8.447251 51.352859 3.450693 19
-7.926097 48.551643 3.311139 17
-7.640744 48.988903 3.330661 17
-7.450770 48.813965 3.321015 17
-7.262972 48.646225 3.311756 17
-7.086683 48.573093 3.307196 17
-7.477044 53.931335 3.570477 22
-7.283348 53.770473 3.561594 22
-6.600899 48.671104 3.309361 17
-2.852398 11.274953 1.466225 18
-2.883763 12.086237 1.505974 17
-2.852631 12.184978 1.510654 20
-5.320769 49.555386 3.346640 17
-5.125758 49.180130 3.327529 17
-4.966140 49.330460 3.334266 17
-4.766427 48.814209 3.308293 17
-4.695821 50.570961 3.393939 18
-4.518959 50.508404 3.390279 18
-4.284250 49.060078 3.318677 17
-5.741628 85.303947 5.096150 59
-5.395352 84.063225 5.034420 60
-5.107814 84.142601 5.037488 60
-4.784231 83.186829 4.989846 61
-4.489423 82.944626 4.977240 62
-4.198965 82.797218 4.969326 62
-3.119918 49.573879 3.340683 17
-2.988196 51.439022 3.431704 19
-2.779712 49.528881 3.337782 17
-2.621877 50.402336 3.380252 18
-2.447786 50.248550 3.372427 17
-2.266684 48.831692 3.302777 17
-2.097546 48.121334 3.267759 16
-1.932872 48.285339 3.275579 16
-1.765219 48.900227 3.305495 17
-1.605253 49.039154 3.312138 17
-1.446031 49.021744 3.311149 17
-1.264070 49.427017 3.330861 17
-1.091154 49.636017 3.340994 17
-0.950848 48.638290 3.292092 17
-0.573897 50.199604 3.368434 35
0.731926 86.009682 5.121061 59
-0.229277 50.216698 3.369293 17
0.245389 53.093029 3.510200 21
0.332405 51.205647 3.417916 18
0.480870 50.650661 3.390874 18
0.747874 52.249229 3.469283 20
0.865959 51.158482 3.416063 18
1.213295 51.229813 3.419969 18
1.389773 51.234386 3.420443 18
1.704873 50.843868 3.401873 36
1.847355 50.308289 3.375974 36
2.025976 50.374355 3.379555 54
2.210526 50.607712 3.391339 36
2.400106 50.679661 3.395280 36
2.548900 50.393597 3.381679 18
2.722895 50.393478 3.382117 36
2.902026 50.444435 3.385084 18
3.088855 50.566288 3.391555 18
3.442240 50.758133 3.401978 37
3.611755 50.622871 3.395939 18
4.029952 51.258236 3.428322 19
10.215679 100.219070 5.833736 63
4.837758 54.834160 3.605338 23
5.053507 55.024063 3.615425 23
4.546648 49.783676 3.358603 17
4.804784 50.401928 3.389738 18
5.062315 50.983356 3.419107 19
5.021056 49.520348 3.347884 17
6.161783 56.084595 3.671784 25
5.525034 50.564735 3.400941 18
5.670706 50.304031 3.389017 18
5.788510 49.933796 3.371670 18
5.976611 50.012947 3.376485 18
6.177753 50.166271 3.384988 18
6.388720 50.369999 3.396008 18
6.572857 50.460167 3.401408 18
6.680426 50.060226 3.382690 18
7.137181 51.618427 3.460699 20
7.755464 53.995354 3.579260 23
7.962517 54.078949 3.584578 23
8.149336 54.051849 3.584453 23
8.329108 54.037659 3.584931 23
8.355695 53.246765 3.546983 22
8.843161 52.805477 3.529090 22
9.468969 54.911217 3.634832 24
9.685821 55.003796 3.640863 24
10.604861 58.246620 3.803449 28
10.578271 57.233654 3.754626 27
10.199741 53.796436 3.586854 23
10.361399 53.615376 3.579472 23
10.938026 53.629322 3.584907 23
11.296416 52.740559 3.545588 22
11.488085 52.699371 3.545342 22
11.676723 52.683033 3.546280 22
11.900862 52.118587 3.521510 22
11.955056 51.652416 3.499871 43
12.180395 51.743488 3.506368 21
12.380153 51.807842 3.511374 21
12.416472 50.575779 3.453349 40
12.591015 50.562347 3.454491 20
13.078568 50.930134 3.476941 42
13.366521 51.218620 3.493611 43
13.349184 50.571999 3.462926 61
13.715341 51.136040 3.493484 43
13.849081 50.980938 3.487652 64
15.045438 54.118015 3.648543 25
14.976490 53.241993 3.606594 48
15.259710 53.490078 3.621473 24
14.622433 50.957272 3.495306 21
15.671454 53.534554 3.628337 25
16.101566 53.595371 3.636289 25
16.003508 52.750099 3.595605 72
16.215899 52.777573 3.599479 24
19.830923 62.356701 4.090825 39
19.937222 62.013355 4.076154 38
20.067066 61.707455 4.063553 38
20.185411 61.375137 4.049610 37
20.314205 61.076454 4.037395 37
17.714632 53.500580 3.652104 25
17.822889 53.233562 3.641151 25
17.998064 53.145546 3.639401 25
18.204565 53.138927 3.641862 25
18.421442 53.157551 3.645658 25
20.030815 56.702129 3.831207 30
20.083157 56.268764 3.811956 30
19.746094 54.875854 3.743135 28
18.389492 51.028500 3.547140 23
20.168688 54.863632 3.748544 28
20.523273 55.214401 3.769714 29
20.547367 54.741268 3.748380 28
21.251537 55.884140 3.810956 30
20.741795 54.160290 3.724650 27
20.977049 53.689140 3.706657 55
21.249756 53.835949 3.717461 55
21.435772 53.758278 3.716759 27
22.303776 55.204342 3.795789 29
22.872915 55.960434 3.838911 31
22.749292 55.156586 3.800552 30
22.786240 54.739754 3.782270 29
22.976418 54.634216 3.780520 29
23.145761 54.533157 3.778670 29
23.572647 54.976959 3.805563 60
24.072485 55.540188 3.839046 31
24.527906 55.511684 3.845257 31
24.709345 55.400967 3.843313 63
24.906273 55.321884 3.843075 31
23.817062 52.664276 3.705853 27
3.136505 10.859239 1.487413 15
3.172783 10.844935 1.487415 30
3.250026 10.912764 1.491785 35
3.351957 11.021636 1.498415 22
3.362489 10.957217 1.495757 22
3.588593 11.293887 1.514689 19
3.315455 10.701204 1.483619 7
3.706362 11.334522 1.518624 16
3.593381 10.880940 1.496640 11
3.254771 10.057778 1.454315 8
36.050282 66.029510 4.517180 56
31.041063 57.030678 4.029856 39
4.113562 11.221930 1.521436 1
31.029570 56.126930 3.990541 37
34.170544 60.900806 4.258555 47
3.815725 10.491989 1.484059 1
3.823171 10.356249 1.478377 23
3.805655 10.183638 1.470632 42
3.835590 10.160081 1.470240 27
3.931340 10.098897 1.469621 1
35.980606 58.325832 4.185882 45
43.507767 69.208107 4.805100 62
39.411201 62.617851 4.439982 54
44.204067 69.241287 4.821457 61
44.640827 69.345673 4.835295 61
39.035046 60.651791 4.349410 51
37.410072 57.860458 4.197252 45
38.087555 58.431026 4.235951 47
37.997784 57.898979 4.211831 46
38.157047 57.703716 4.207266 46
38.333988 57.534069 4.204193 46
40.663303 60.363041 4.373548 52
38.613194 57.092777 4.192253 45
38.651234 56.734451 4.178357 45
38.668354 56.350777 4.162976 45
39.039581 56.449612 4.175546 45
37.827370 54.418613 4.064456 41
38.002441 53.897896 4.047270 41
38.322449 53.936172 4.056312 41
38.616470 53.937973 4.063295 41
41.076622 56.743931 4.235069 47
38.975483 53.640827 4.059767 41
39.395599 53.799637 4.076189 42
41.890972 56.585163 4.248078 48
48.315907 64.275154 4.711538 63
48.663921 64.258408 4.719280 62
49.095173 64.342674 4.733122 62
42.406433 55.651119 4.223177 47
41.878838 54.617359 4.169096 46
42.081089 54.482533 4.168720 46
51.413601 65.358528 4.830462 60
51.937729 65.530685 4.850286 60
45.205837 57.070332 4.348640 52
45.608521 57.169788 4.362642 53
45.042187 56.109543 4.306763 51
45.320301 56.045193 4.311269 51
46.053341 56.505440 4.347856 52
45.643322 55.644512 4.303842 51
49.164375 59.274982 4.535145 59
46.619099 55.984695 4.342079 52
46.964897 55.987965 4.351127 53
47.876541 56.620434 4.399167 54
48.678097 57.119625 4.439246 56
48.532574 56.566944 4.414210 55
48.966412 56.652756 4.428876 56
49.157784 56.471729 4.426995 56
49.984470 56.975479 4.468058 57
50.209682 56.825954 4.468347 57
52.917980 59.315041 4.634939 63
53.747948 59.784473 4.674902 62
54.112926 59.757359 4.683678 62
54.420258 59.667900 4.688594 62
54.734081 59.604134 4.694689 62
54.952377 59.420212 4.693728 62
56.426392 60.516323 4.774846 60
55.996513 59.666847 4.731439 61
55.919296 59.180901 4.711263 61
55.924225 58.780907 4.696578 62
57.411133 59.852955 4.777319 60
57.439804 59.471565 4.764060 60
58.295120 59.900791 4.803662 60
58.638103 59.823734 4.810427 59
59.513462 60.258080 4.850861 59
60.658119 60.941254 4.907988 57
61.052452 60.898544 4.917578 57
61.194469 60.615158 4.911334 57
61.416893 60.408031 4.910177 57
62.656410 61.147617 4.972211 56
65.088142 62.997696 5.108334 53
63.656162 61.249714 5.004557 55
63.821930 60.979942 4.999699 55
67.846771 64.227600 5.231805 51
68.492020 64.365723 5.255435 50
85.799568 79.354744 6.290127 63
92.231789 84.509155 6.659991 63
75.128258 68.864334 5.608109 63
75.722824 68.907845 5.627116 63
71.943329 65.149590 5.384171 47
76.395088 68.536125 5.633993 63
10.425543 11.591827 1.696203 1
10.551257 11.474394 1.695900 37
81.894310 69.802086 5.842342 63
82.558533 69.854790 5.864271 63
83.102570 69.780777 5.878306 63
86.050095 71.682953 6.032463 63
86.930771 71.906601 6.066929 63
86.914551 71.362061 6.048152 63
89.556717 72.935776 6.182076 63
89.379181 72.307312 6.155644 63
90.581375 72.701500 6.205933 63
91.626228 72.989655 6.247892 63
109.233040 85.336525 7.203227 63
109.447159 84.887817 7.195214 63
108.939384 83.900284 7.147025 63
109.351837 83.634544 7.151342 63
109.686348 83.249756 7.149405 63
112.040428 84.371742 7.260110 63
112.311562 83.959251 7.255418 63
112.428841 83.436073 7.242353 63
113.713821 83.750145 7.293350 63
114.513680 83.709175 7.317602 63
114.799927 83.270256 7.312837 63
120.684090 86.809471 7.613780 63
121.250397 86.598427 7.625360 63
123.685951 86.321449 7.695505 63
139.804108 95.149330 8.494013 63
100.579414 63.094307 6.229055 63
87.995361 48.843117 5.394442 63
74.571770 34.491310 4.545374 60
28.013433 13.855881 2.357978 7
27.982418 13.725141 2.353687 7
28.125334 13.415497 2.351461 220
28.198154 13.322514 2.351912 219
28.283943 13.228395 2.352826 219
28.350363 13.138453 2.353147 220
28.403767 13.037006 2.352738 138
46.390514 16.189280 3.090680 19
46.210514 15.948132 3.078989 18
46.175854 15.762529 3.073926 18
46.224632 15.602838 3.072556 18
-93.391022 1.261729 4.799270 53
-93.341454 1.580576 4.799870 53
-93.182869 1.898008 4.795930 53
-93.106888 2.231376 4.795641 53
-92.994270 2.531801 4.793571 54
-92.900322 2.847770 4.792466 54
-91.785149 6.578957 4.782631 54
-91.737068 6.890642 4.783989 54
-91.620132 7.197367 4.782455 55
-91.518089 7.504508 4.781593 55
-91.478760 7.815875 4.783448 55
-91.434357 8.126728 4.785130 55
-91.225594 8.423758 4.779820 55
-91.240166 8.723186 4.783923 55
-150.769180 15.949311 7.358452 63
-42.706856 8.410229 2.758272 13
-41.411575 8.316732 2.703327 13
-39.605770 8.124216 2.625777 11
-89.808083 17.955910 4.852212 55
-33.144051 7.125507 2.343455 7
-33.079304 7.225688 2.342407 7
-33.007511 7.318475 2.340963 7
-43.521420 9.908297 2.816010 14
-33.360279 7.963337 2.366225 38
-33.340843 8.068308 2.367225 38
-33.327591 8.180485 2.368617 22
-39.695404 9.924916 2.659547 12
-33.280224 8.521507 2.372660 15
-33.297153 8.984241 2.381687 23
-33.303837 9.102593 2.384131 15
-33.298477 9.218046 2.386049 15
-33.300419 9.335616 2.388319 15
-33.303398 9.447829 2.390545 15
-33.305981 9.560155 2.392773 15
-33.324375 9.688872 2.395968 15
-33.409187 9.830747 2.402120 7
-33.260517 9.901070 2.397468 7
-33.806496 11.264833 2.446774 8
-33.672440 11.595701 2.448347 17
-33.695747 11.726827 2.452057 17
-33.716644 11.851407 2.455547 17
-33.701153 11.970033 2.457478 17
-33.704082 12.095281 2.460300 17
-33.693150 12.459609 2.467835 8
-33.703396 12.595052 2.471238 8
-33.675594 12.716865 2.472855 8
-33.677670 12.837357 2.475637 8
-33.633549 13.067217 2.479097 17
-33.550140 13.161903 2.477981 17
-33.674988 13.337340 2.486900 8
-33.662941 13.466672 2.489412 17
-33.665913 13.589444 2.492376 18
-33.658779 13.714931 2.495025 9
-33.665970 13.846528 2.498394 18
-33.576485 13.938952 2.497088 18
-33.650608 14.105174 2.503916 18
-33.640087 14.224057 2.506344 9
-33.634155 14.351647 2.509174 9
-33.635071 14.482491 2.512366 9
-121.021729 61.767635 7.051512 63
-188.038086 96.797997 10.502237 63
-183.049225 95.834824 10.289745 63
-182.938416 96.543037 10.304864 63
-182.758713 97.256836 10.317665 63
-175.596359 95.044441 9.990987 63
-165.992264 91.329239 9.532733 63
-165.778900 91.921188 9.541399 63
-20.015688 11.344641 1.915208 71
-99.656311 58.385315 6.167694 63
-92.847130 54.812733 5.817100 63
-97.201210 57.841259 6.062856 63
-98.210495 58.877575 6.129582 63
-122.415146 74.008774 7.446408 63
-96.760368 58.910660 6.078255 63
-119.959312 73.651619 7.347499 63
-119.888115 74.176865 7.360514 63
-114.780563 71.553886 7.099578 63
-114.313683 71.808800 7.090514 63
-110.228783 70.295082 6.899524 63
-110.095596 70.716537 6.907541 63
-109.926239 71.169037 6.915280 63
-109.784073 71.613365 6.923799 63
-109.186569 71.758224 6.907159 63
-93.800072 62.064713 6.067945 63
-83.906723 55.899128 5.530453 47
-82.956070 55.672855 5.490147 48
-109.148933 70.753723 9.114137 63
-109.014694 71.199722 9.125306 63
-108.652176 71.495979 9.119153 63
-107.119308 71.011780 9.023306 63
-103.048607 68.811913 8.731908 63
-92.210930 62.021774 7.918295 63
-92.001266 62.316242 7.919990 63
-91.793037 62.634708 7.922813 63
-97.681183 67.168053 8.399531 63
-96.869614 67.097961 8.356801 63
-96.386467 67.252312 8.339570 63
-95.231941 66.929405 8.269694 63
-85.123016 60.219418 7.495770 63
-84.834496 60.451191 7.491505 63
-89.344521 64.127213 7.865551 63
-91.899002 66.452095 8.087749 63
-91.753456 66.827026 8.096693 63
-91.632065 67.220718 8.107682 63
-68.600540 50.570477 6.287333 61
-68.244843 50.666355 6.274429 61
-67.612122 50.551113 6.239221 61
-67.546608 50.862144 6.249600 61
-67.416344 51.124779 6.254851 61
-68.125748 52.035694 6.328308 60
-89.437317 68.965775 8.078850 63
-90.588699 70.358185 8.194471 63
-64.164177 50.380566 6.068722 62
-83.201050 65.959801 7.652840 63
-82.179703 65.580482 7.588247 63
-62.441982 50.019863 5.972261 60
-61.464096 49.589760 5.907537 58
-61.417263 49.898621 5.919315 58
-74.163734 60.786366 7.000740 51
-74.129128 61.183792 7.017214 51
-73.637215 61.199154 6.995343 51
-72.987602 61.077759 6.960064 52
-72.321495 60.937035 6.923212 52
-58.721729 49.693329 5.786428 55
-58.559788 49.881302 5.787772 55
-58.250111 49.958073 5.777326 54
-70.082481 60.670506 6.809450 54
-56.424965 49.042671 5.652467 51
-56.405968 49.365070 5.666717 52
-56.852413 50.105808 5.721479 53
-9.183711 7.499086 1.588747 1
-9.073233 7.490123 1.583422 2
-9.015236 7.482480 1.580498 2
-8.954452 7.471798 1.577313 2
-8.918309 7.481344 1.576184 2
-8.901409 7.511062 1.576872 3
-8.855390 7.513308 1.574974 2
-8.803660 7.509807 1.572557 1
-8.760680 7.514314 1.570913 1
-8.729236 7.529695 1.570303 1
-8.692044 7.539368 1.569174 1
-8.660572 7.554449 1.568562 1
-8.631917 7.572194 1.568207 1
-8.603220 7.589818 1.567852 1
-8.582947 7.615792 1.568273 1
-8.585070 7.664368 1.570767 1
-8.586934 7.713039 1.573261 1
-8.595305 7.766352 1.576267 1
-47.155926 47.470242 5.173813 38
-47.021015 47.656448 5.177502 38
-46.614075 47.886089 5.172143 38
-46.757137 48.366524 5.202307 39
-46.599571 48.531345 5.204164 39
-46.321629 48.567196 5.194583 39
-46.206692 48.777420 5.200586 39
-56.216469 60.000233 6.180948 63
-55.800087 59.959354 6.161964 63
-55.408787 59.942909 6.145304 63
-44.274338 47.974140 5.081168 36
-43.969158 47.947624 5.067554 35
-43.969234 48.279003 5.084692 36
-43.452610 48.027252 5.051064 35
-43.259125 48.138786 5.049184 35
-43.081085 48.267612 5.048861 35
-42.900040 48.392754 5.048271 35
-52.358841 59.779095 6.015580 59
-52.000450 59.754463 6.000288 59
-51.354183 59.407589 5.956885 58
-50.985577 59.384018 5.941357 57
-40.854496 47.646858 4.929418 32
-40.690750 47.798336 4.931158 32
-49.886883 59.325966 5.896049 56
-49.539104 59.295952 5.881191 56
-39.894798 47.810150 4.901444 31
-39.690998 47.892536 4.898150 31
-39.345795 47.780415 4.879134 30
-39.159805 47.882500 4.877651 30
-47.807426 59.220592 5.811944 54
-47.453804 59.188465 5.797062 53
-38.046932 47.825142 4.833261 30
-37.472645 47.751732 4.808236 30
-37.306694 47.872234 4.808789 30
-37.225094 48.088245 4.817671 30
-37.082909 48.224159 4.820007 30
-36.966316 48.429668 4.827132 30
-36.609348 48.290771 4.806719 30
-36.573032 48.588993 4.821912 30
-37.611328 50.743729 4.978069 32
-43.330685 59.131901 5.645278 49
-38.163025 52.266331 5.082166 35
-37.342304 51.477188 5.009572 33
-36.415394 50.503277 4.923007 31
-37.768875 52.833488 5.100291 35
-36.585712 51.515728 4.985707 32
-41.377953 58.919769 5.566033 47
-41.126228 58.984253 5.561139 47
-36.781078 52.940544 5.072752 35
-40.425171 58.790981 5.526603 46
-40.236248 58.944893 5.529030 46
-34.206913 50.188515 4.830514 30
-34.302567 50.712326 4.863534 30
-32.567997 48.407131 4.674826 30
-32.221348 48.231377 4.653425 30
-34.152359 51.634430 4.911381 30
-32.982979 50.173344 4.789591 30
-33.393341 51.211754 4.862566 30
-32.000614 49.361374 4.711264 30
-32.733948 50.930492 4.825266 30
-32.667595 51.214699 4.839610 30
-37.221977 59.096035 5.440073 44
-32.549854 51.776272 4.868492 30
-32.428894 51.997711 4.877603 30
-30.237904 48.726532 4.619016 30
-32.021271 52.123188 4.872320 30
-35.646957 58.727951 5.369779 42
-31.182478 51.480305 4.809043 30
-35.121590 58.750603 5.355136 41
-30.339716 51.231030 4.768991 30
-30.727873 52.336105 4.845742 30
-33.852123 58.832668 5.322165 40
-29.601776 51.540546 4.765512 30
-32.443871 58.685501 5.272724 39
-32.228180 58.740330 5.269887 39
-27.781590 50.656494 4.660685 30
-31.473902 58.246151 5.219097 38
-31.020920 58.347576 5.212631 37
-30.754128 58.316719 5.203447 37
-30.487907 58.284698 5.194254 37
-30.183399 58.172779 5.179243 37
-29.997541 58.299644 5.181917 37
-18.428734 36.503517 3.552435 43
-28.201681 58.099842 5.122733 35
-28.005365 58.198372 5.123767 35
-27.766014 58.201637 5.117919 35
-27.499275 58.141979 5.107569 35
-26.942682 57.934406 5.081000 34
-26.835909 58.233589 5.096812 34
-26.818869 58.745354 5.127967 35
-26.779774 59.213634 5.155947 36
-26.774965 59.770588 5.190279 37
-26.668041 60.092537 5.207673 37
-26.429413 60.100998 5.202567 37
-26.171347 60.060501 5.194012 37
-25.940878 60.085499 5.190215 37
-24.782114 57.798595 5.021198 32
-24.416344 57.978439 5.024087 65
-24.227322 58.082523 5.026338 32
-24.016289 58.130131 5.024610 32
-23.761042 58.061378 5.014664 32
-24.333683 61.453304 5.239938 38
-24.325436 62.085751 5.279535 39
-23.731028 63.137943 5.333488 40
-23.516865 63.187187 5.332235 40
-21.215969 57.828503 4.946620 30
-21.037621 57.955940 4.951168 30
-20.805939 57.923687 4.944573 30
-19.922270 57.907280 4.926615 30
-19.719063 57.920822 4.923687 30
-19.488392 57.879498 4.916787 30
-18.184095 57.854225 4.891962 30
-17.293383 57.724644 4.868648 30
-17.084864 57.739273 4.866187 30
-16.875418 57.749275 4.863455 30
-16.414417 57.559494 4.843893 30
-16.202141 57.551563 4.840080 30
-15.993942 57.558334 4.837323 30
-15.776395 57.525574 4.831904 30
-13.420502 48.605949 4.218400 29
-13.705174 51.331730 4.399485 30
-15.489954 59.910839 4.982520 31
-15.429234 60.600075 5.026473 32
-12.964903 50.497459 4.334758 30
-12.967484 52.151508 4.442519 30
-15.255825 63.800167 5.232517 37
-12.246492 50.435635 4.321048 30
-11.595274 48.984077 4.217877 58
-11.426053 49.009598 4.217414 58
-11.833792 52.016491 4.419095 30
-11.066585 48.949062 4.209037 28
-11.611612 52.806164 4.468093 30
-11.456405 52.980892 4.477709 30
-11.287432 53.084457 4.482539 30
-10.821124 51.444435 4.369676 30
-11.711737 60.146954 4.950770 30
-11.505074 60.180649 4.950794 30
-11.255401 59.941593 4.932481 30
-9.130044 48.566277 4.162600 55
-9.388547 51.477497 4.356801 61
-8.810766 48.766521 4.172689 56
-9.032971 51.572868 4.359707 61
-9.907051 59.232243 4.872688 30
-8.326593 48.897873 4.176897 56
-8.147975 48.832737 4.171027 83
-8.509360 53.055576 4.452860 30
-7.511001 49.192066 4.189476 28
-7.386014 49.599884 4.215460 29
-7.220073 49.654255 4.217797 29
-6.976716 50.646816 4.281690 30
-6.718428 49.705875 4.217607 29
-2.855341 11.268257 1.646587 22
-2.819772 11.275300 1.646834 11
-2.856164 12.181346 1.707103 24
-5.698594 52.168156 4.374470 30
-5.511528 52.061459 4.366390 30
-5.330249 52.029751 4.363350 30
-5.151477 52.033253 4.362695 30
-4.783193 48.824829 4.148014 27
-4.754827 51.333023 4.314372 30
-4.476993 49.381477 4.183602 28
-4.325378 49.748768 4.207361 28
-5.727937 84.700058 6.533979 60
-5.458327 84.907516 6.546748 60
-3.875651 50.922855 4.283654 30
-4.846215 84.184036 6.496575 60
-3.506287 50.556335 4.258102 30
-3.307573 49.332394 4.176189 28
-3.141943 49.468487 4.184778 28
-2.972377 49.460361 4.183806 28
-2.801356 49.363850 4.176991 28
-2.618707 48.380775 4.111261 26
-2.481670 51.974770 4.349884 30
-2.282331 48.819332 4.139797 27
-2.122042 48.353184 4.108567 26
-1.612020 49.114563 4.158609 27
-1.291519 48.596294 4.123966 54
-1.130089 48.318333 4.105441 26
-0.947437 49.544353 4.186905 85
-0.715694 52.094151 4.356380 61
-0.609789 49.180817 4.162812 27
-0.373860 51.322025 4.305208 30
-0.277462 49.290199 4.170280 28
-0.024949 51.241955 4.300172 30
0.168297 51.657604 4.327997 30
0.703845 51.724251 4.333239 61
0.852132 51.356503 4.309110 61
1.016866 51.307072 4.306177 61
1.184590 51.028954 4.288109 61
1.388923 51.463722 4.317473 61
1.558032 51.476242 4.318765 61
1.722094 51.296482 4.307322 61
1.931952 51.729046 4.336661 61
7.562724 119.698830 8.861408 63
7.924295 119.032501 8.818523 63
2.621961 51.467098 4.321808 61
2.769214 51.237064 4.307183 91
2.981518 51.597637 4.331975 91
3.173097 51.727020 4.341407 61
3.319569 51.330780 4.315884 30
3.626549 52.522297 4.396215 61
3.935076 52.038002 4.365819 61
4.007659 51.129356 4.306182 30
4.056643 50.150578 4.241812 29
4.297616 50.679726 4.278185 30
4.463941 50.602180 4.274090 30
4.801135 50.488926 4.268795 30
4.975628 50.476894 4.269181 61
5.165297 50.631424 4.280682 30
5.452958 51.444695 4.336306 30
5.495480 50.530491 4.276428 30
5.647285 50.309563 4.263034 30
5.948681 50.043888 4.247928 30
6.174471 50.346802 4.269672 30
6.324892 50.135628 4.257059 30
6.633358 50.953606 4.313393 30
7.297258 51.581734 4.360526 30
8.079342 54.793919 4.578251 30
8.113553 53.950840 4.523386 30
17.148291 99.665627 7.602542 63
17.533737 99.805901 7.615547 63
18.307459 100.078041 7.641254 63
19.121492 100.426414 7.672653 63
9.140116 52.460014 4.436644 30
9.320222 52.465824 4.439030 30
10.099133 54.238792 4.563323 30
10.250691 54.089615 4.555402 61
10.491458 54.283768 4.570887 30
10.638960 53.264324 4.506529 61
11.091060 54.362141 4.583356 30
11.304014 54.383690 4.587459 30
10.966570 52.221687 4.443155 30
11.461961 53.450729 4.529146 91
11.546822 53.024967 4.502758 30
11.661502 52.759892 4.487187 30
11.840166 52.704330 4.486048 30
14.621406 61.387569 5.084592 35
12.144114 51.670124 4.423703 30
12.321932 51.657665 4.425477 30
14.105944 57.233822 4.809979 30
15.465216 61.195461 5.084543 35
17.058880 65.894608 5.409989 43
17.327467 65.969421 5.418880 43
17.876066 66.930305 5.488884 45
16.280140 60.903740 5.078364 35
18.195345 66.374229 5.458350 44
16.742188 60.915955 5.086504 35
16.916496 60.739952 5.078104 35
17.121410 60.662312 5.076519 35
18.760206 65.015633 5.380932 42
18.897978 64.681213 5.361974 42
19.022367 64.312508 5.340657 41
19.159660 63.989128 5.322487 41
19.298800 63.676907 5.305105 41
19.424358 63.330505 5.285365 40
19.559534 63.017933 5.267984 40
19.682009 62.708958 5.250648 39
19.809395 62.384769 5.232484 39
16.768192 53.256706 4.600841 30
17.407413 54.451965 4.688006 30
16.999678 52.761166 4.573934 30
17.354971 53.166328 4.606127 30
17.577644 53.207016 4.612933 30
17.529772 52.529968 4.569530 30
18.375727 54.232491 4.692698 30
20.974586 60.413349 5.130700 36
21.244343 60.492851 5.141023 37
21.541271 60.638042 5.156038 37
18.781212 53.072037 4.628263 30
22.215021 61.083092 5.197471 38
19.199972 52.545551 4.604129 30
20.678356 55.095707 4.793479 30
20.864079 55.009018 4.792076 30
24.413961 62.807690 5.350796 42
24.669182 62.806919 5.356292 42
22.816986 57.958885 5.016685 34
24.862833 62.078651 5.315661 41
22.412933 55.436825 4.852532 30
22.930529 55.592945 4.873878 30
23.261219 55.810345 4.894793 62
23.343832 55.512810 4.878530 62
23.381739 55.098846 4.854157 61
23.608088 55.089470 4.858920 30
24.047729 55.525921 4.895918 63
24.219849 55.372711 4.890729 31
24.557859 55.586201 4.911836 31
25.242779 56.526775 4.985461 33
28.950233 63.541954 5.500583 46
3.092139 11.120144 1.696479 1
3.186294 11.135365 1.699745 4
30.958582 64.777267 5.625243 50
24.666458 52.145699 4.707196 30
3.192887 10.727427 1.675460 2
25.365004 52.192841 4.728126 30
25.311005 51.664829 4.695255 61
3.527691 11.018718 1.701627 8
3.523871 10.847618 1.691390 9
3.562172 10.835382 1.691708 26
3.539546 10.715288 1.684006 37
3.561331 10.670798 1.681987 15
3.611326 10.452737 1.670602 34
3.721756 10.563676 1.680215 34
3.829288 10.671543 1.689573 19
3.698265 10.307794 1.664655 2
34.520687 58.766487 5.370415 44
34.700832 58.605141 5.366546 44
34.694996 58.154259 5.340528 43
34.950756 58.113155 5.345925 44
38.576160 63.245846 5.749424 54
39.012329 63.437744 5.773721 55
39.120125 63.127876 5.759419 54
39.080196 62.598759 5.728150 54
43.926739 69.355690 6.261856 61
37.566341 59.437366 5.501968 48
37.097160 58.332741 5.424873 46
37.647293 58.706230 5.463312 47
38.273151 59.181641 5.509937 48
37.522465 57.671734 5.401256 45
37.328098 56.974854 5.356009 44
38.258503 57.877159 5.436461 46
37.722855 56.705757 5.353784 44
37.956776 56.622059 5.356765 44
38.026909 56.310944 5.341802 44
38.584095 56.671230 5.380124 45
39.104145 56.973576 5.414062 46
39.176079 56.662971 5.399333 46
39.429871 56.599117 5.404314 46
25.400190 37.482883 3.883209 23
38.161430 53.732269 5.204434 41
38.367775 53.640148 5.206450 41
38.607510 53.571774 5.210945 41
38.776226 53.410957 5.208024 41
39.222340 53.604813 5.233953 42
39.351494 53.391796 5.226932 41
41.753460 56.042103 5.453651 47
57.238853 75.011955 7.016893 50
57.930248 75.342720 7.058995 49
42.486366 55.776699 5.465230 48
42.536015 55.448135 5.449450 47
42.698059 55.258602 5.445139 47
43.014706 55.256084 5.456360 48
45.649422 58.028557 5.698215 54
45.779007 57.779545 5.689735 54
45.739780 57.332287 5.664718 53
46.107227 57.365952 5.679894 54
46.691334 57.649113 5.716156 55
46.682667 57.240425 5.694441 54
46.608818 56.760246 5.666638 53
46.935722 56.760994 5.678803 54
47.257050 56.733639 5.689350 54
47.249866 56.334801 5.668412 54
47.868958 56.638546 5.707357 55
48.025604 56.422794 5.702140 55
48.761024 56.844967 5.751683 56
48.775322 56.470230 5.733009 55
49.415001 56.777340 5.773120 56
50.225739 57.262127 5.828899 58
50.329342 56.980453 5.818554 58
50.770737 57.059338 5.839593 58
51.111752 57.028576 5.851250 59
54.891560 60.601398 6.178506 61
53.575829 58.816166 6.037326 63
53.566563 58.403900 6.016281 63
53.903248 58.349888 6.026822 63
54.179920 58.252720 6.032897 63
54.679699 58.360401 6.058053 63
54.938858 58.221821 6.061484 63
57.153217 60.055984 6.240573 60
56.860439 59.354435 6.194244 61
57.466591 59.525078 6.226997 60
59.394409 61.003349 6.377237 58
59.159817 60.357719 6.336180 59
59.381191 60.157898 6.335433 59
59.815247 60.161598 6.353306 58
60.082310 60.003410 6.356566 58
60.552170 60.035965 6.377422 58
62.059578 61.038216 6.487759 56
62.546463 61.072899 6.509542 56
62.802841 60.890766 6.511456 56
65.452026 62.905735 6.717776 53
65.827171 62.815346 6.729135 53
68.102913 64.466507 6.902694 50
67.430908 63.417908 6.824912 51
100.710846 92.679573 9.605753 63
102.026955 93.236740 9.687554 63
77.178909 70.726357 7.580182 63
77.244858 70.270287 7.561708 63
74.945580 67.786591 7.348092 63
75.484207 67.805054 7.372005 63
76.038048 67.785660 7.394890 63
10.485216 11.498039 1.979856 25
10.526138 11.461847 1.979974 12
117.295082 99.596344 10.637605 63
120.311882 101.409813 10.851591 63
120.642273 100.930779 10.844467 63
122.213303 101.491837 10.938780 63
87.915474 73.214394 8.159349 63
86.194992 71.326668 7.998985 63
86.543434 71.100365 8.004378 63
87.390305 71.264908 8.049345 63
90.785034 73.386147 8.294465 63
90.781845 72.889885 8.272491 63
93.613800 74.579178 8.473591 63
94.660057 74.848869 8.532434 63
109.250511 85.388657 9.649234 63
109.425415 84.879662 9.635077 63
109.548347 84.363686 9.618368 63
109.936623 84.076797 9.623680 63
112.637558 84.203972 9.752589 63
112.221550 83.294579 9.694939 63
100.587250 63.153702 8.329948 63
74.567467 34.492573 6.007268 60
27.958078 13.839518 2.925415 9
27.899927 13.691257 2.917758 9
28.080956 13.404492 2.918440 207
28.164810 13.316198 2.920171 222
28.248415 13.227470 2.921900 220
28.328062 13.136823 2.923384 224
28.392599 13.039875 2.923906 224
28.449394 12.939705 2.923945 216
28.524467 12.846521 2.925182 23
46.597069 16.274506 3.991016 30
46.643753 16.112232 3.989395 30
-93.106598 1.215989 6.381955 53
-93.348663 1.535615 6.399059 53
-93.302124 1.854214 6.399057 53
-93.170631 2.171409 6.394056 53
-93.113899 2.488945 6.393569 53
-92.920326 2.803394 6.384981 54
-92.514107 3.111553 6.363756 54
-91.935219 3.412279 6.332259 54
-92.124504 4.346853 6.352948 54
-91.669540 5.883381 6.342670 55
-91.878998 6.540474 6.362736 54
-91.807121 6.850949 6.362172 54
-91.742149 7.161539 6.362082 54
-91.301750 7.444701 6.339447 55
-91.549255 7.777044 6.358290 55
-91.481079 8.086269 6.358185 55
-91.411842 8.395102 6.358076 55
-91.043182 8.677790 6.339944 55
-91.184082 8.988142 6.352430 55
-91.131615 9.297334 6.353507 55
-91.024895 9.616807 6.351578 55
-90.332184 9.845635 6.313771 55
-90.743027 10.184303 6.342865 55
-90.793610 10.503098 6.350427 55
-90.658775 10.817646 6.347028 55
-90.385765 11.100002 6.335057 55
-90.518150 11.412789 6.347552 55
-90.463135 11.704014 6.348711 55
-90.312180 12.014493 6.344562 55
-90.249245 12.319795 6.345594 55
-90.167496 12.606788 6.345290 55
-89.635628 12.848272 6.317783 56
-89.401230 13.766049 6.318979 56
-89.620514 14.110809 6.337657 56
-89.540855 14.396004 6.337806 56
-89.453926 14.695470 6.337831 56
-89.342323 14.990703 6.336395 56
-88.749687 15.829653 6.316506 56
-89.031593 16.488655 6.345047 56
-88.583969 16.721170 6.323152 56
-88.847481 17.098249 6.345637 56
-88.778801 17.399233 6.347325 56
-88.700241 17.682528 6.348157 56
-88.586441 17.974464 6.347157 56
-88.506897 18.272846 6.348345 56
-88.441978 18.574064 6.350504 56
-34.195442 7.661589 2.971604 9
-33.468681 7.740939 2.930901 92
-33.446068 7.845392 2.931730 100
-33.423111 7.949770 2.932558 100
-33.401226 8.065923 2.933717 100
-33.380173 8.176525 2.934831 92
-33.363892 8.282489 2.936145 92
-33.342075 8.392986 2.937258 92
-33.327637 8.505280 2.938859 93
-33.320553 8.619452 2.940950 93
-33.320805 8.735579 2.943531 93
-33.316757 8.850831 2.945866 93
-33.304546 8.964181 2.947711 75
-33.299660 9.079536 2.950047 28
-33.377502 9.563438 2.965740 19
-33.349831 9.797752 2.969722 38
-33.772480 11.243160 3.030003 10
-33.679092 11.451968 3.030206 20
-33.668831 11.571476 3.032802 20
-33.648685 11.694016 3.034946 20
-33.684742 11.823560 3.040471 30
-33.691959 11.949879 3.044307 20
-33.676064 12.068481 3.046656 20
-33.535503 12.143228 3.040818 20
-33.656010 12.316656 3.052388 20
-33.674541 12.442045 3.056928 20
-33.679317 12.569113 3.060767 21
-33.672356 12.692207 3.063861 21
-33.664921 12.815394 3.066956 21
-33.664482 12.941488 3.070548 21
-33.650738 13.056508 3.073102 21
-33.526394 13.135521 3.068482 21
-33.669792 13.317970 3.081782 21
-33.667381 13.444643 3.085377 21
-33.664471 13.571450 3.088972 21
-33.668476 13.701359 3.093066 21
-33.657154 13.825456 3.096163 21
-33.593620 13.928470 3.095767 21
-33.655209 14.083020 3.103855 21
-33.653465 14.212029 3.107702 21
-33.651207 14.341183 3.111549 21
-33.648434 14.470483 3.115397 22
-33.645142 14.599927 3.119246 22
-33.665710 14.733508 3.124553 11
-188.087448 96.713470 14.165750 63
-183.112625 95.760384 13.869055 63
-182.960419 96.487183 13.886692 63
-182.692566 97.154068 13.896254 63
-175.586258 94.895340 13.442055 63
-166.257706 91.338608 12.825188 63
-165.790878 91.828362 12.818634 63
-20.020588 11.336339 2.279528 93
-93.120491 54.061897 7.652012 63
-92.982697 54.408089 7.657939 63
-131.121765 77.398163 10.487382 63
-126.547279 75.871452 10.194843 63
-92.065903 66.146278 10.686796 63
-91.898842 66.505020 10.695719 63
-91.779892 66.923851 10.711377 63
-91.661057 67.319931 10.725872 63
-91.499008 67.685043 10.735829 63
-91.383316 68.085701 10.751018 63
-91.218224 68.450325 10.760967 63
-64.519554 48.598721 7.848158 62
-82.685760 62.869850 9.874167 63
-90.827744 69.629860 10.803364 63
-90.700554 70.027763 10.818190 63
-90.453278 70.807961 10.847721 63
-90.317947 71.203232 10.862189 63
-90.184036 71.600899 10.877005 63
-82.018661 65.502594 9.985104 63
-75.994705 61.076046 9.331503 48
-75.435661 61.049171 9.293821 49
-74.956429 61.105320 9.266357 49
-74.310394 60.998562 9.218475 50
-73.555916 60.796070 9.157959 50
-72.611649 60.427444 9.075343 51
-72.128128 60.419357 9.044092 52
-71.901840 60.648438 9.043742 52
-71.357437 60.604038 9.006586 52
-70.762978 60.512253 8.963447 52
-70.317223 60.545300 8.937461 53
-69.713341 60.436687 8.892870 53
-69.248405 60.445953 8.864388 54
-68.738068 60.390717 8.829137 54
-68.308975 60.404526 8.803339 54
-67.744385 60.335060 8.764000 55
-67.179756 60.240158 8.723150 55
-67.000351 60.472267 8.726788 55
-67.000206 60.890614 8.753327 55
-66.965790 61.279881 8.776007 55
-66.938179 61.677792 8.799742 54
-64.818802 60.110741 8.570464 57
-64.464302 60.190086 8.554083 57
-64.011978 60.174175 8.525735 58
-63.553627 60.128517 8.495183 58
-63.074482 60.080070 8.463281 58
-62.624981 60.056797 8.434875 59
-62.182079 60.036686 8.407155 59
-61.680519 59.955421 8.372027 59
-61.208523 59.899467 8.340398 60
-60.740467 59.843765 8.309100 60
-60.374535 59.887356 8.290459 60
-60.160000 60.082409 8.290820 60
-59.772079 60.100075 8.269336 60
-59.304249 60.032864 8.237618 61
-58.953022 60.062145 8.219204 61
-58.500946 60.004692 8.189213 61
-58.129620 60.028522 8.169427 62
-57.630211 59.914352 8.133055 62
-57.320393 59.997925 8.120995 62
-56.842281 59.899303 8.087054 63
-56.433182 59.871185 8.061913 63
-56.046516 59.864407 8.039579 63
-55.676682 59.873310 8.019346 63
-55.280693 59.850822 7.995570 63
-55.013424 59.968479 7.988723 63
-54.653084 59.980984 7.969508 63
-55.186943 60.999203 8.069644 63
-54.855766 61.025925 8.053185 63
-54.514507 61.060287 8.036777 63
-54.045616 60.945618 8.003042 63
-52.534565 59.618607 7.827575 61
-52.311272 59.773628 7.826296 61
-51.656425 59.420952 7.765971 60
-51.328575 59.447979 7.750170 60
-50.975548 59.442898 7.730820 60
-50.577267 59.380955 7.705089 60
-50.327267 59.495052 7.699862 60
-44.141426 52.377094 6.863853 50
-43.442326 52.600708 6.843027 50
-48.133240 59.266003 7.568043 58
-47.781551 59.238956 7.547863 58
-47.455143 59.241566 7.531213 58
-46.987671 59.059990 7.494001 57
-46.961937 59.447304 7.520906 58
-38.209721 48.420029 6.269872 44
-46.918434 60.242542 7.576848 58
-46.869366 60.609180 7.601277 58
-46.849300 61.017670 7.630315 59
-44.739388 59.016094 7.377306 56
-37.660736 49.770397 6.341792 45
-37.494781 49.901184 6.343313 45
-43.847698 59.049702 7.335808 55
-37.437424 50.546577 6.388570 45
-38.247551 52.072983 6.542033 47
-42.850033 58.958485 7.280464 55
-42.528435 58.931171 7.262923 55
-42.214348 58.912140 7.246435 54
-41.898628 58.888340 7.229580 54
-41.599323 58.886059 7.215201 54
-41.269173 58.836262 7.195837 54
-41.043545 58.916775 7.191340 54
-40.670235 58.797962 7.164848 53
-40.348957 58.753574 7.146516 53
-40.280735 59.090126 7.169047 53
-33.638412 49.386288 6.120870 38
-40.223831 59.917587 7.229794 54
-39.317844 58.942451 7.113608 53
-39.115158 59.072525 7.114428 53
-38.813797 59.047157 7.098880 53
-38.476967 58.963089 7.077274 52
-38.518284 59.937840 7.154645 53
-32.971237 51.782379 6.276082 43
-37.082905 58.948303 7.014587 52
-36.693398 58.759857 6.982947 51
-36.385235 58.702843 6.965178 51
-36.098186 58.678669 6.950960 51
-35.811726 58.653202 6.936731 51
-35.566013 58.672215 6.927799 51
-35.288540 58.658112 6.914977 51
-34.997547 58.641632 6.901467 50
-34.774281 58.718521 6.898245 50
-34.472904 58.632713 6.878947 50
-34.203251 58.624180 6.867156 50
-33.922459 58.593567 6.853218 50
-30.034941 52.006607 6.169858 39
-33.437138 58.664967 6.839215 50
-33.091896 58.485271 6.810956 49
-32.616219 58.058243 6.757726 49
-32.328037 58.022541 6.743412 49
-32.051685 58.006641 6.731226 49
-31.808706 58.003777 6.721467 48
-31.761702 58.401131 6.751684 49
-31.380465 58.154129 6.716970 48
-31.175156 58.245853 6.716496 48
-30.898624 58.171810 6.699928 48
-30.646879 58.169228 6.690160 48
-30.374216 58.122780 6.676102 48
-30.122772 58.091652 6.664148 48
-29.884626 58.110889 6.656855 48
-29.620632 58.075378 6.644198 48
-29.352436 58.054283 6.632632 47
-29.096743 58.057175 6.623555 47
-28.841175 58.032642 6.612301 47
-28.117361 58.013165 6.584894 47
-27.873556 57.979931 6.573583 47
-27.630129 57.971981 6.564433 47
-27.395193 57.981224 6.557061 47
-27.117010 57.891136 6.540035 46
-26.911690 57.964027 6.539080 46
-26.894838 58.471115 6.580648 47
-26.866882 58.960472 6.620430 47
-26.823332 59.421005 6.657352 48
-26.812449 59.966377 6.702497 48
-26.621616 60.089558 6.706528 48
-26.360241 60.042751 6.694108 48
-26.132439 60.045933 6.687021 48
-25.876614 60.008125 6.675658 48
-24.735773 57.761829 6.450791 45
-24.550547 57.874329 6.454417 45
-24.281734 57.774883 6.437651 45
-24.052896 57.774506 6.430533 45
-23.821472 57.765789 6.422693 45
-23.574772 57.715195 6.410911 45
-23.361094 57.719486 6.404826 45
-23.125174 57.693089 6.395534 45
-22.902124 57.699371 6.389454 45
-22.440422 57.664387 6.372981 44
-22.196728 57.607998 6.361155 44
-21.986874 57.644508 6.358269 44
-21.762548 57.638874 6.351439 44
-21.524193 57.590946 6.340665 44
-21.313469 57.621216 6.337401 44
-21.108841 57.636040 6.333042 44
-20.882853 57.585896 6.322590 44
-20.652647 57.586800 6.316458 43
-20.397961 57.477509 6.300279 43
-20.144325 57.333626 6.281213 85
-19.918344 57.305683 6.272896 84
-19.696371 57.288250 6.265647 84
-19.464087 57.235718 6.255168 41
-19.410305 57.761086 6.299120 43
-19.187584 57.741615 6.291853 42
-18.969786 57.736553 6.286013 42
-18.739798 57.688637 6.276225 42
-18.539251 57.701927 6.272509 42
-18.329998 57.721195 6.269157 42
-18.094625 57.647739 6.257201 41
-17.886911 57.669216 6.254194 41
-17.680307 57.693775 6.251539 41
-17.451656 57.636883 6.241354 41
-17.237083 57.629089 6.235821 41
-17.017979 57.642372 6.232082 40
-16.583773 57.517330 6.211648 40
-16.376379 57.529446 6.208240 40
-16.166166 57.529217 6.203750 39
-15.945602 57.485668 6.195312 39
-15.743448 57.514812 6.193677 39
-15.675222 58.101055 6.243643 41
-15.601235 58.724781 6.296838 42
-13.295810 50.471107 5.526882 17
-15.483906 60.984219 6.492936 46
-12.629235 50.745380 5.538407 17
-12.203110 49.585579 5.428453 14
-15.232410 65.065491 6.847672 49
-12.236018 51.442127 5.592788 19
-11.783859 50.098709 5.466324 15
-11.760167 50.931911 5.539526 17
-10.797746 49.565086 5.402809 14
-13.348087 64.848412 6.797047 49
-10.798290 51.572159 5.580707 19
-16.390085 85.310501 8.658129 58
-16.063856 85.171791 8.640969 58
-15.814749 85.402901 8.657858 58
-9.838096 50.060799 5.432391 14
-9.841465 51.201824 5.533863 17
-20.841244 126.871490 12.414766 63
-9.050629 49.415867 5.364299 14
-19.933174 126.803131 12.396823 63
-8.838555 50.371761 5.446740 14
-8.173304 49.295246 5.342710 28
-7.909597 48.557663 5.273847 13
-7.746418 48.533646 5.269871 13
-7.739257 49.898739 5.391719 14
-11.649673 85.524681 8.616665 58
-16.818583 134.747482 13.070068 63
-16.352114 134.806503 13.070634 63
-15.867689 134.693512 13.055771 63
-15.391399 134.650131 13.047347 63
-6.741063 50.298615 5.417540 14
-2.884754 11.274795 1.889114 21
-2.849166 11.281933 1.889455 18
-2.887879 12.162251 1.968652 16
-5.540967 50.376358 5.414758 14
-5.346220 50.066647 5.385617 14
-5.143006 49.593185 5.341777 14
-5.014369 50.268059 5.401509 14
-4.704798 50.920704 5.458235 15
-4.595897 52.203167 5.572772 19
-4.353616 50.890934 5.453656 15
-4.223543 51.694607 5.525183 17
-4.090630 52.776966 5.621777 20
-3.873003 51.808739 5.533828 17
-3.643541 50.294155 5.396794 14
-3.409062 48.268902 5.213905 13
-3.244876 48.309532 5.216967 13
-2.988550 52.001766 5.548000 18
-2.751858 48.495712 5.232212 13
-2.605015 49.948231 5.362419 14
-2.435151 50.069714 5.372972 14
-2.254390 48.565193 5.237382 13
-2.089093 48.896614 5.266912 13
-1.922106 48.450592 5.226597 13
-1.754389 48.900368 5.266860 13
-1.595342 48.907410 5.267374 13
-1.424602 49.208622 5.294372 13
-1.261289 48.855930 5.262638 13
-1.036587 52.031883 5.548141 18
-0.861221 51.892944 5.535721 18
-0.505289 51.896019 5.536288 18
-0.356468 50.986759 5.454766 15
-0.250944 49.037937 5.279821 13
0.057944 52.642387 5.604212 20
0.202101 51.783253 5.527338 17
0.271347 49.427372 5.315901 13
0.436783 49.343704 5.308829 13
0.737630 51.821541 5.532206 18
0.993484 53.196037 5.656432 22
1.145270 52.828060 5.623935 21
1.133711 49.779274 5.350281 14
1.545731 53.241806 5.662642 22
6.729633 124.374756 12.066376 63
6.323929 113.028252 11.046858 63
7.413145 121.735641 11.832988 63
7.772950 121.199623 11.786816 63
8.217615 121.458733 11.812483 63
8.645698 121.505859 11.819181 63
9.092389 121.749840 11.843745 63
9.533752 121.916809 11.861501 63
9.975244 122.070267 11.878168 63
10.420779 122.249870 11.897323 63
10.843580 122.402328 11.914005 63
11.307754 122.725273 11.946356 63
11.739144 122.733696 11.950455 63
3.994530 52.294228 5.592967 20
12.652263 123.161308 11.996134 63
4.480492 53.363686 5.692603 23
4.644501 53.118416 5.672164 22
4.766348 52.632839 5.629952 21
4.693903 50.785870 5.464523 16
5.174813 53.000340 5.666642 22
5.243178 52.170326 5.593354 20
5.175528 50.437496 5.438293 15
5.224322 49.633205 5.367193 14
5.692016 51.517040 5.539928 18
5.883724 51.588467 5.548417 18
5.953709 50.887939 5.486929 16
6.421350 52.669052 5.650684 22
