# .PCD v.7 - Point Cloud Data file format
VERSION .7
FIELDS x y z intensity
SIZE 4 4 4 1
TYPE F F F U
COUNT 1 1 1 1
WIDTH 1555
HEIGHT 1
VIEWPOINT 0 0 0 1 0 0 0
POINTS 1555
DATA ascii
3.448686 10.532196 0.457000 38
3.487893 10.523664 0.456254 37
3.537080 10.532288 0.454590 40
3.580373 10.530316 0.453474 45
3.623719 10.528159 0.452357 46
3.667117 10.525815 0.451238 47
3.714652 10.530152 0.449750 41
3.758177 10.527420 0.448627 45
3.805884 10.531339 0.447136 41
3.851610 10.531629 0.445826 38
3.891136 10.521499 0.445067 33
3.939072 10.524800 0.443570 28
3.982874 10.521103 0.442439 24
4.030973 10.523981 0.440939 18
4.072752 10.516513 0.439989 13
4.123634 10.526772 0.438127 13
4.171996 10.529005 0.436621 11
4.222619 10.534369 0.434928 7
5.538845 10.758170 0.385749 3
5.597001 10.692968 0.385980 26
5.640671 10.679104 0.384976 10
7.600609 10.657757 0.315204 9
7.808651 10.596160 0.309002 2
5.604374 8.226177 0.461618 200
5.596062 8.165387 0.463642 206
5.583259 8.103332 0.465870 158
5.615783 7.939229 0.469090 1
5.621052 7.897921 0.470001 1
5.542596 7.776280 0.476426 1
5.560279 7.744709 0.476564 1
5.559943 7.697140 0.477849 1
5.544412 7.636411 0.480092 1
5.537550 7.583789 0.481762 1
5.553343 7.553631 0.481914 1
5.556204 7.507726 0.482999 1
5.566784 7.471020 0.483523 1
5.568090 7.426531 0.484622 1
5.580243 7.393772 0.484966 1
5.602536 7.367411 0.484723 1
5.609420 7.328148 0.485439 1
5.628412 7.299132 0.485387 1
5.634969 7.259886 0.486104 1
5.582635 7.172548 0.490476 1
5.610353 7.151225 0.489848 1
5.625585 7.119739 0.489990 1
5.650037 7.095722 0.489554 1
5.636914 7.041736 0.491430 1
5.669460 7.026426 0.490427 1
5.661150 6.978874 0.491931 1
5.678844 6.949776 0.491880 1
5.696428 6.920627 0.491829 1
5.709036 6.845209 0.493079 14
5.765660 6.803535 0.491621 1
5.910723 6.869786 0.483823 1
5.854166 6.785156 0.488222 1
5.903289 6.779162 0.486229 1
5.982509 6.792726 0.482475 1
6.031809 6.786076 0.480476 1
6.067183 6.771215 0.479264 1
6.080799 6.738512 0.479398 1
6.121351 6.722871 0.477964 1
6.144565 6.696926 0.477513 1
6.274756 6.747858 0.470654 1
6.317766 6.735023 0.469031 1
6.336757 6.707540 0.468782 1
6.432635 6.687626 0.464943 3
6.518723 6.702944 0.460776 2
6.618304 6.726614 0.455824 3
6.708160 6.699550 0.452352 7
6.815969 6.724561 0.446983 3
6.869439 6.715628 0.444750 7
6.915237 6.703617 0.442921 3
7.039483 6.739278 0.436572 4
7.049358 6.701410 0.436877 2
7.103042 6.691199 0.434635 1
7.244880 6.735685 0.427290 1
7.298829 6.724555 0.425039 1
7.444715 6.769595 0.417484 1
7.505749 6.761689 0.414832 1
7.671515 6.773217 0.406978 1
7.884606 6.805748 0.396517 1
7.962411 6.807420 0.392877 1
7.982641 6.772748 0.392568 1
8.123866 6.807883 0.385356 1
8.618053 6.801248 0.362298 1
8.802438 6.805120 0.353521 1
8.847303 6.780723 0.351800 1
8.916824 6.769206 0.348690 1
9.281770 6.813009 0.330599 1
9.283233 6.766569 0.331263 1
9.440931 6.747362 0.324004 3
9.578829 6.766546 0.317085 2
9.756362 6.804372 0.307967 2
9.894865 6.821630 0.301030 5
9.897175 6.771458 0.301663 4
9.992801 6.766537 0.297109 2
16.308897 9.662195 -0.050915 2
16.328182 9.593268 -0.050876 2
16.347208 9.524312 -0.050837 2
16.364502 9.458527 -0.050770 2
16.375759 9.386192 -0.050330 2
16.383097 9.312232 -0.049690 2
16.428020 9.251492 -0.051080 2
16.437040 9.182342 -0.050612 2
16.450874 9.111623 -0.050371 2
16.468100 9.042506 -0.050331 2
16.485067 8.973369 -0.050291 2
16.520136 8.912081 -0.051256 2
16.540293 8.844400 -0.051417 2
16.552835 8.773579 -0.051176 2
16.583551 8.710443 -0.051940 2
16.614050 8.647187 -0.052706 2
13.592928 7.338307 0.112753 1
13.620894 7.226354 0.112638 3
13.612832 7.160154 0.113780 3
13.627877 7.100118 0.113688 3
13.745920 7.083235 0.107962 3
14.005754 7.120015 0.094548 5
14.097982 7.091204 0.090221 1
16.722431 7.943225 -0.050448 7
16.751509 7.876081 -0.051244 7
16.762953 7.809890 -0.051173 4
16.846748 7.766158 -0.054984 5
16.847677 7.692420 -0.054334 2
16.852091 7.620087 -0.053886 2
16.871317 7.553063 -0.054250 2
16.901636 7.489891 -0.055224 2
16.851217 7.402815 -0.051899 2
16.881029 7.339662 -0.052872 2
16.903048 7.273854 -0.053438 2
16.960073 7.215911 -0.055868 2
16.996857 7.154769 -0.057252 2
16.999214 7.082447 -0.056801 2
17.005106 7.011393 -0.056554 2
17.036375 6.952056 -0.057707 2
17.045593 6.882159 -0.057663 2
17.054556 6.812270 -0.057619 2
17.063263 6.742391 -0.057575 2
17.087025 6.677093 -0.058349 2
17.102900 6.609440 -0.058714 2
17.110861 6.539514 -0.058670 2
17.130087 6.472908 -0.059239 2
17.076056 6.385539 -0.055912 2
17.171686 6.340574 -0.060585 2
17.095829 6.179780 -0.055740 11
17.140804 6.120483 -0.057747 7
17.168367 5.984988 -0.058474 2
17.098167 5.824800 -0.054049 7
17.161404 5.769869 -0.057090 2
17.049942 5.671569 -0.050851 2
17.089432 5.610831 -0.052654 2
17.082104 5.538738 -0.051980 2
17.047285 5.460350 -0.049859 2
17.058851 5.393071 -0.050216 2
17.038269 5.321984 -0.048890 2
17.037653 5.252141 -0.048624 2
16.993874 5.172886 -0.046081 2
16.961485 5.096531 -0.044155 2
16.948328 5.024621 -0.043264 2
16.938810 4.953672 -0.042578 2
16.929028 4.882839 -0.041891 2
16.922895 4.812915 -0.041410 2
16.877327 4.735291 -0.038851 2
16.858253 4.666674 -0.037716 2
16.835634 4.594192 -0.036399 2
16.836296 4.526343 -0.036328 2
16.813141 4.454184 -0.035008 2
16.821159 4.387919 -0.035352 2
16.821077 4.320246 -0.035279 2
16.745975 4.239624 -0.031242 2
16.756622 4.177573 -0.031764 2
16.732143 4.106307 -0.030435 2
16.747353 4.038416 -0.031220 2
16.730238 3.968694 -0.030305 2
16.736546 3.902818 -0.030644 2
16.714979 3.832726 -0.029518 2
16.704521 3.767840 -0.028991 2
16.658260 3.697880 -0.026577 2
16.675482 3.633994 -0.027541 2
16.668741 3.566737 -0.027247 2
16.639116 3.427136 -0.025844 2
16.635595 3.360681 -0.025757 2
16.639765 3.295262 -0.026089 2
16.611977 3.226024 -0.024739 2
16.639477 3.163498 -0.026332 2
16.642954 3.098109 -0.026664 2
16.618406 3.029670 -0.025520 2
16.632984 2.968894 -0.026455 2
16.607962 2.900708 -0.025309 2
16.630390 2.837460 -0.026693 2
16.561457 2.762080 -0.023249 2
16.567501 2.697415 -0.023787 2
16.557119 2.634551 -0.023453 2
16.554760 2.569223 -0.023567 2
16.532263 2.502304 -0.022623 2
16.541384 2.438055 -0.023371 2
16.463331 2.302608 -0.019781 6
16.467772 2.238288 -0.020314 4
16.471994 2.109363 -0.021167 2
16.491529 2.049148 -0.022522 2
16.487108 1.984302 -0.022630 2
12.501154 1.718842 0.189413 1
12.340000 1.660684 0.197716 1
12.350213 1.611109 0.196879 1
12.332316 1.560355 0.197531 1
12.378107 1.512060 0.194776 1
12.541061 1.416645 0.185420 1
12.518482 1.365401 0.186283 1
12.523620 1.317475 0.185675 4
12.516665 1.266762 0.185686 3
12.529503 1.216413 0.184629 3
12.570122 1.166317 0.182075 1
12.598586 1.115836 0.180161 1
16.185907 1.020153 -0.013005 2
16.149925 0.956876 -0.011595 2
16.133696 0.893744 -0.011256 2
16.057362 0.834397 -0.007672 2
16.048693 0.771601 -0.007758 2
16.035761 0.705784 -0.007654 2
15.998691 0.643660 -0.006234 2
15.978121 0.459220 -0.006885 2
12.688745 0.351729 0.168339 1
12.457592 0.010906 0.176921 1
12.489920 -0.041977 0.174564 1
12.490190 -0.092711 0.173938 1
12.514373 -0.142806 0.172032 1
-19.277323 1.015404 0.073830 2
-19.285156 1.072863 0.073892 2
-19.304760 1.133497 0.073366 2
-19.296190 1.193941 0.074270 2
-19.303387 1.254571 0.074358 2
-19.318359 1.315403 0.074038 2
-19.321136 1.376076 0.074330 2
-19.323702 1.436772 0.074621 2
-19.314075 1.497140 0.075523 2
-19.324203 1.558100 0.075408 2
-19.334118 1.619137 0.075293 2
-19.339825 1.680092 0.075381 2
-19.325361 1.740231 0.076485 2
-19.322521 1.803867 0.077003 2
-19.343538 1.865669 0.076280 2
-19.352531 1.923947 0.076141 2
-19.377110 1.986244 0.075216 2
-19.437534 2.047852 0.072446 2
-19.465654 2.110889 0.071322 2
-19.509491 2.175213 0.069391 2
-19.465424 2.233628 0.071910 2
-19.457018 2.294423 0.072608 2
-19.460350 2.356107 0.072700 2
-19.435591 2.415557 0.074204 2
-19.458399 2.478914 0.073286 2
-19.453119 2.539980 0.073780 2
-19.435694 2.599928 0.074879 2
-19.437946 2.661674 0.074969 2
-19.439981 2.723456 0.075060 2
-19.433849 2.784456 0.075553 2
-19.439423 2.846701 0.075442 2
-19.440804 2.908570 0.075533 2
-19.442308 2.967420 0.075599 2
-19.435326 3.028427 0.076091 2
-19.432095 3.089886 0.076382 2
-19.440542 3.152818 0.076071 2
-19.460653 3.217349 0.075159 2
-19.429029 3.275309 0.076852 2
-19.432850 3.337863 0.076742 2
-19.452276 3.402656 0.075832 2
-19.423996 3.460896 0.077322 2
-19.423197 3.522983 0.077411 2
-19.418226 3.584507 0.077700 2
-19.401190 3.644224 0.078588 2
-19.403687 3.706928 0.078478 2
-19.410387 3.767264 0.078143 2
-19.428213 3.832646 0.077236 2
-19.410328 3.892288 0.078122 2
-19.435564 3.959200 0.076818 2
-19.437456 4.019176 0.076684 2
-19.422867 4.079463 0.077370 2
-19.431110 4.146993 0.076887 2
-19.423939 4.208678 0.077175 2
-19.420475 4.271089 0.077264 2
-19.416788 4.333514 0.077353 2
-19.412880 4.395954 0.077442 2
-19.420502 4.460744 0.076936 2
-19.408306 4.521665 0.077421 2
-19.423288 4.588187 0.076519 2
-19.411283 4.646072 0.076979 2
-19.425793 4.712790 0.076079 2
-19.427675 4.780163 0.075797 2
-19.426739 4.840642 0.075664 2
-19.467794 4.913815 0.073383 2
-17.684629 4.629629 0.163291 3
-17.551929 4.653421 0.169813 1
-17.554613 4.711529 0.169456 3
-17.513714 4.762064 0.171286 3
-17.411251 4.794361 0.176241 3
-17.394026 4.847299 0.176863 1
-19.475538 5.432518 0.070948 2
-19.479296 5.498604 0.070448 2
-19.478939 5.563762 0.070145 2
-19.455170 5.622835 0.071019 2
-19.465927 5.691124 0.070127 2
-19.445581 5.751147 0.070804 2
-19.451988 5.818527 0.070108 2
-19.469681 5.889238 0.068826 2
-19.507175 5.962520 0.066542 2
-19.497417 6.025940 0.066632 2
-19.409346 6.199009 0.069828 19
-19.423201 6.332846 0.068221 2
-19.389206 6.389036 0.069478 2
-19.370279 6.449837 0.069954 2
-19.313061 6.498483 0.072376 2
-19.282341 6.555351 0.073433 2
-19.243837 6.609601 0.074878 2
-17.899635 6.234130 0.143219 5
-17.722044 6.236735 0.151816 3
-17.563562 6.244541 0.159433 3
-17.473293 6.274493 0.163546 3
-17.432112 6.320798 0.165131 3
-17.497377 6.400979 0.161263 1
-19.046089 7.007267 0.081039 2
-19.013714 7.062846 0.082083 2
-18.996197 7.123685 0.082352 2
-18.974709 7.183109 0.082813 2
-19.013006 7.264533 0.080178 4
-18.890301 7.353899 0.085157 12
-18.868010 7.412952 0.085615 14
-18.849243 7.473359 0.085878 12
-18.819084 7.529378 0.086719 12
-18.788740 7.585266 0.087559 12
-18.766802 7.641031 0.087990 12
-18.722418 7.687827 0.089576 6
-18.669323 7.734329 0.091567 4
-18.722206 7.827209 0.087997 2
-18.731510 7.899370 0.086716 2
-18.711006 7.959401 0.086975 2
-18.686602 8.017824 0.087424 2
-18.661993 8.076162 0.087872 2
-18.626165 8.129695 0.088896 2
-18.597500 8.186235 0.089534 2
-18.586950 8.250657 0.089212 2
-18.550564 8.303811 0.090232 2
-18.546860 8.371419 0.089526 2
-18.529604 8.429650 0.089564 2
-18.492643 8.482491 0.090580 2
-18.459148 8.536825 0.091404 2
-18.438658 8.600591 0.091483 2
-18.412018 8.658060 0.091922 2
-18.381561 8.713736 0.092551 2
-18.350916 8.769292 0.093178 2
-18.320084 8.824728 0.093805 2
-18.297636 8.880670 0.094027 2
-18.287977 8.946396 0.093507 2
-18.250769 8.995206 0.094490 2
-18.222752 9.052017 0.094922 2
-16.904493 8.463592 0.164060 1
-16.577806 8.428207 0.179491 3
-16.516230 8.460939 0.181778 1
-16.498495 8.512836 0.181763 1
-18.059052 9.391686 0.097090 2
-18.045853 9.459938 0.096587 2
-18.012686 9.514157 0.097201 2
-17.986382 9.572021 0.097434 2
-17.949322 9.624108 0.098234 2
-17.915602 9.677953 0.098844 2
-17.900740 9.738500 0.098485 2
-17.880617 9.799888 0.098336 2
-17.846306 9.853455 0.098943 2
-17.818777 9.910808 0.099171 2
-14.522498 8.230765 0.275011 9
-14.374055 8.200138 0.282115 3
-14.262630 8.192954 0.287154 12
-14.161731 8.191173 0.291622 4
-14.088466 8.205117 0.294578 3
-13.918155 8.217271 0.301797 22
-13.835939 8.275519 0.304267 52
-13.793463 8.306419 0.305516 74
-13.764481 8.345564 0.306011 77
-13.735369 8.384595 0.306505 66
-13.702752 8.421376 0.307185 28
-13.676760 8.462317 0.307489 38
-13.653986 8.505326 0.307605 24
-13.636752 8.612831 0.306163 4
-13.610092 8.653541 0.306464 8
-13.603272 8.707401 0.305642 4
-13.584282 8.750402 0.305553 6
-13.577034 8.804308 0.304730 4
-13.780696 8.204176 0.388678 6
-13.704397 8.213981 0.391457 4
-13.538470 8.223789 0.397664 40
-13.503019 8.257770 0.398457 15
-13.436478 8.325402 0.399862 4
-13.408746 8.361252 0.400308 6
-13.362845 8.388115 0.401589 4
-13.290928 8.454342 0.403161 40
-13.288129 8.509317 0.402306 58
-13.263833 8.553004 0.402448 42
-13.250637 8.601349 0.402084 18
-13.240547 8.651938 0.401556 18
-13.230242 8.702550 0.401028 11
-13.236172 8.764525 0.399683 13
-13.239891 8.822389 0.398487 11
-13.248523 8.886911 0.396979 9
-13.212988 8.923623 0.397609 11
-13.240636 9.002195 0.395123 9
-13.245120 9.064776 0.393781 9
-13.270179 9.139534 0.391446 9
-13.265752 9.193422 0.390580 6
-13.203365 9.211210 0.392511 4
-13.216450 9.281217 0.390682 4
-13.209549 9.397874 0.388652 7
-16.372128 11.915215 0.224988 7
-16.158058 11.905868 0.232840 13
-16.029510 11.889294 0.237758 10
-15.909474 11.874410 0.242329 10
-15.796000 11.863760 0.246570 9
-15.667102 11.840050 0.251616 19
-15.547914 11.823047 0.256170 19
-15.435245 11.810349 0.260396 25
-15.353907 11.822130 0.262999 21
-15.249748 11.810965 0.266875 15
-15.147017 11.804063 0.270601 12
-15.044496 11.796576 0.274323 9
-14.926825 11.775726 0.278848 18
-14.821714 11.764455 0.282722 15
-14.704621 11.742272 0.287236 21
-14.618299 11.745283 0.290134 14
-14.523002 11.740027 0.293511 25
-14.426742 11.729453 0.297029 20
-14.340895 11.730994 0.299915 11
-14.240139 11.718920 0.303601 16
-14.154623 11.719474 0.306479 8
-14.003443 11.661249 0.312890 16
-13.987015 11.721847 0.312064 8
-13.985174 11.795815 0.310435 8
-13.913726 11.803454 0.312644 8
-13.677872 11.735988 0.322040 18
-13.678480 11.812072 0.320245 7
-13.892352 12.086987 0.306754 5
-13.326347 11.784704 0.332433 5
-13.183177 11.950713 0.333062 5
-12.413258 11.781322 0.361629 17
-12.324778 11.761204 0.364893 10
-12.290770 11.804897 0.364837 5
-12.197765 11.854596 0.366434 7
-11.952250 11.668464 0.378753 19
-11.985670 11.779400 0.374865 7
-11.880204 11.740891 0.379073 19
-10.333538 11.581287 0.428363 4
-10.212746 11.579581 0.431738 22
-10.190422 11.627288 0.430985 4
-10.096602 11.659056 0.432620 4
-9.790735 12.032948 0.429730 38
-9.724549 12.020990 0.431785 58
-9.665411 12.018536 0.433367 49
-9.608662 12.019087 0.434792 47
-6.233673 7.339948 0.660871 0
-6.215931 7.361473 0.660654 0
-6.195882 7.379620 0.660592 0
-6.174679 7.393630 0.660681 0
-6.132638 7.378184 0.662178 0
-6.101626 7.379292 0.662894 0
-6.007950 7.282778 0.668130 0
-5.975215 7.280023 0.668998 0
-5.953244 7.293999 0.669086 0
-5.983188 7.440418 0.663809 1
-6.111673 7.751048 0.651065 2
-5.942483 7.526563 0.662046 2
-5.721152 7.212047 0.677064 1
-5.692281 7.210773 0.677763 1
-5.658286 7.203155 0.678776 1
-5.632520 7.209141 0.679165 1
-5.606757 7.215024 0.679555 1
-5.574972 7.210434 0.680409 2
-5.553246 7.223013 0.680485 1
-5.527507 7.228577 0.680872 2
-5.492999 7.216038 0.682030 2
-5.469293 7.224847 0.682259 2
-5.433878 7.212628 0.683419 2
-5.402464 7.207231 0.684267 2
-5.366199 7.195278 0.685427 1
-5.334971 7.189576 0.686273 1
-5.301106 7.176114 0.687424 2
-5.274919 7.176589 0.687954 2
-5.249561 7.181061 0.688332 2
-5.223132 7.186002 0.688713 2
-5.207043 7.207982 0.688315 0
-5.192677 7.233475 0.687762 0
-5.185476 7.273166 0.686590 1
-5.180953 7.315883 0.685259 1
-5.171469 7.352063 0.684242 0
-5.039065 7.145730 0.693741 0
-5.028221 7.177924 0.692875 0
-5.017190 7.210118 0.692009 0
-4.991301 7.209442 0.692531 0
-4.992183 7.266771 0.690582 0
-4.951911 7.241787 0.692189 0
-4.963727 7.320284 0.689311 0
-4.895697 7.233068 0.693538 0
-4.931295 7.366457 0.688347 0
-4.898408 7.350874 0.689482 0
-4.817972 7.233887 0.694939 0
-4.809374 7.272945 0.693760 0
-4.774328 7.253684 0.695048 0
-4.760582 7.281726 0.694331 0
-4.698295 7.200031 0.698238 0
-4.701112 7.268634 0.695826 0
-4.681871 7.281357 0.695720 0
-4.620053 7.194831 0.699775 0
-4.592138 7.189361 0.700440 0
-4.573589 7.205879 0.700181 0
-4.544655 7.200654 0.700847 0
-4.522968 7.209637 0.700894 0
-4.484640 7.177835 0.702634 0
-4.466028 7.194020 0.702372 0
-4.445448 7.202295 0.702414 0
-4.417869 7.196067 0.703074 0
-4.394740 7.200886 0.703272 0
-4.375945 7.216798 0.703007 0
-4.344173 7.199072 0.704126 0
-4.324998 7.210680 0.704011 0
-4.282167 7.162779 0.706358 0
-4.252248 7.148371 0.707320 0
-4.229364 7.152582 0.707513 0
-4.205111 7.152954 0.707858 0
-4.187657 7.172033 0.707435 0
-4.152653 7.142119 0.709008 0
-4.147118 7.194971 0.707202 0
-4.105477 7.141802 0.709693 0
-4.089211 7.164368 0.709113 0
-4.063996 7.164562 0.709456 0
-4.038610 7.160503 0.709950 0
-4.014540 7.160136 0.710290 0
-3.987825 7.147931 0.711088 0
-3.961377 7.139767 0.711733 0
-3.944653 7.157784 0.711302 0
-3.918275 7.149436 0.711946 0
-3.902760 7.175300 0.711209 0
-3.880085 7.182377 0.711239 0
-3.830374 7.097316 0.714948 0
-3.813681 7.119110 0.714362 0
-3.787708 7.110222 0.715001 0
-3.764080 7.108896 0.715334 0
-3.743835 7.118993 0.715206 0
-3.719091 7.109508 0.715842 0
-3.698818 7.119454 0.715713 0
-3.677419 7.125485 0.715736 0
-3.655999 7.131442 0.715759 0
-3.632458 7.129610 0.716088 0
-3.611024 7.135410 0.716109 0
-3.584498 7.117668 0.717048 0
-3.562096 7.119433 0.717221 0
-3.538703 7.117245 0.717547 0
-3.514277 7.115241 0.717873 0
-3.490955 7.112872 0.718197 0
-3.469580 7.118178 0.718215 0
-3.449130 7.127293 0.718078 0
-3.422132 7.109127 0.719013 0
-3.404588 7.125613 0.718568 0
-3.382434 7.122581 0.718889 0
-3.360845 7.131649 0.718751 0
-3.320747 7.148845 0.718470 0
-3.293307 7.126215 0.719554 0
-3.271052 7.126922 0.719719 0
-3.234023 7.057136 0.722638 0
-3.229808 7.143752 0.719434 0
-3.191651 7.065880 0.722658 0
-3.184782 7.136570 0.720065 0
-3.148745 7.066276 0.722981 0
-3.141856 7.144969 0.720081 0
-3.106311 7.074424 0.722996 0
-3.094170 7.133613 0.720861 0
-3.056695 7.042946 0.724538 0
-3.032240 7.152838 0.720570 2
-3.022142 7.223527 0.717974 2
-3.022744 7.361244 0.712776 2
-2.991353 7.443321 0.709874 21
-2.968934 7.454955 0.709570 17
-2.949910 7.474069 0.708959 10
-2.812797 6.989254 0.728081 2
-2.792955 7.000112 0.727773 2
-2.771444 6.999020 0.727924 2
-2.749428 6.993889 0.728227 2
-2.727998 6.984579 0.728683 2
-2.704549 6.975453 0.729138 2
-2.684138 6.981983 0.728981 2
-2.664737 6.988320 0.728823 2
-2.642897 6.982800 0.729123 2
-2.622859 6.993091 0.728811 3
-2.599783 6.975495 0.729569 3
-2.578893 6.977691 0.729561 2
-2.557996 6.979814 0.729553 2
-2.537858 6.989821 0.729239 2
-2.515810 6.979861 0.729688 2
-2.495617 6.989726 0.729372 2
-2.475702 7.003505 0.728903 1
-2.456422 7.013148 0.728586 0
-2.438860 7.058675 0.726890 1
-2.433007 7.263582 0.719072 2
-2.397394 7.386362 0.714451 4
-2.375330 7.391838 0.714283 4
-2.353234 7.397237 0.714114 2
-2.330412 7.390589 0.714404 2
-2.307424 7.379868 0.714846 4
-2.280165 7.305250 0.717738 2
-2.205142 7.060593 0.727179 0
-2.185578 7.105349 0.725475 0
-2.163437 7.082129 0.726374 0
-2.141341 7.054834 0.727426 0
-2.121549 7.107373 0.725413 0
-2.100752 7.131874 0.724472 0
-2.079319 7.132327 0.724450 0
-2.060438 7.224608 0.720902 0
-2.039085 7.256894 0.719652 0
-1.973848 7.429249 0.712983 0
-1.927674 7.684995 0.703112 1
-1.905077 7.592912 0.706610 2
-1.859976 7.528419 0.709004 4
-1.837086 7.532026 0.708819 6
-1.813992 7.543544 0.708327 8
-1.674845 10.734643 0.585616 59
-1.642543 10.733642 0.585568 61
-1.610245 10.732534 0.585520 61
-1.576251 10.731253 0.585468 63
-1.542262 10.729852 0.585415 63
-1.508464 10.724340 0.585514 64
-1.474300 10.726695 0.585306 64
-1.440327 10.724939 0.585250 63
-1.406361 10.723064 0.585193 61
-1.372402 10.721071 0.585135 63
-1.338704 10.714970 0.585230 63
-1.306202 10.716843 0.585019 64
-1.272265 10.714500 0.584959 63
-1.238632 10.708053 0.585051 64
-1.204416 10.709458 0.584835 63
-1.170829 10.702777 0.584925 64
-1.136604 10.703944 0.584706 63
-1.102713 10.701009 0.584641 64
-1.068832 10.697956 0.584575 64
-1.035342 10.690805 0.584661 64
-1.001497 10.687517 0.584593 64
-0.967664 10.684112 0.584523 64
-0.932581 10.692512 0.583991 60
-0.899166 10.684891 0.584074 64
-0.865343 10.681128 0.584002 63
-0.831533 10.677246 0.583929 64
-0.797737 10.673246 0.583854 63
-0.764665 10.677272 0.583475 61
-0.730869 10.673038 0.583399 61
-0.696571 10.672651 0.583168 60
-0.663323 10.664219 0.583244 61
-0.630119 10.655672 0.583319 63
-0.595282 10.658886 0.582931 60
-0.560979 10.658017 0.582696 60
-0.527838 10.649119 0.582768 60
-0.492342 10.655915 0.582222 46
-0.458009 10.654681 0.581984 52
-0.424922 10.645431 0.582054 57
-0.388438 10.667903 0.580891 39
-0.355332 10.658414 0.580959 48
-0.323609 10.640930 0.581335 56
-0.286534 10.654850 0.580473 35
-0.254211 10.641076 0.580693 48
-0.219835 10.638995 0.580448 57
-0.183284 10.648585 0.579737 57
-0.150329 10.638394 0.579800 57
-0.115922 10.635943 0.579551 57
-0.081511 10.633369 0.579302 59
-0.045539 10.638514 0.578742 60
-0.011883 10.631771 0.578645 60
0.022554 10.628825 0.578393 60
0.056995 10.625757 0.578140 60
0.092271 10.626475 0.577730 60
0.129269 10.634877 0.577009 61
0.163807 10.639605 0.576448 60
0.195783 10.632508 0.576350 60
0.231097 10.624540 0.576242 63
0.268418 10.640587 0.575211 61
0.303905 10.640532 0.574795 61
0.341102 10.639943 0.574372 60
0.374018 10.636143 0.574115 61
0.408617 10.631817 0.573851 59
0.446830 10.634704 0.573270 60
0.480750 10.634418 0.572854 59
0.515382 10.629709 0.572586 60
0.550684 10.620570 0.572468 60
0.584637 10.619919 0.572049 59
0.619258 10.614838 0.571779 59
0.656602 10.613031 0.571346 57
0.692289 10.611545 0.570918 61
0.731224 10.621474 0.570022 58
0.764816 10.612020 0.569903 60
0.797799 10.606772 0.569634 61
0.834120 10.612926 0.568895 63
0.867681 10.603113 0.568774 61
0.903490 10.600844 0.568339 61
0.943305 10.605588 0.567585 63
0.978667 10.607374 0.566998 60
1.015752 10.608511 0.566403 60
1.055754 10.612795 0.565645 61
1.088844 10.606550 0.565367 58
1.125587 10.611609 0.564619 57
1.163287 10.607838 0.564170 55
1.200140 10.612616 0.563420 54
1.237479 10.612904 0.562818 55
1.273988 10.604907 0.562522 52
1.311380 10.604910 0.561918 46
1.347135 10.605347 0.561319 49
1.383292 10.601293 0.560870 42
1.424767 10.612185 0.559792 39
1.456982 10.596544 0.559810 37
1.497244 10.603363 0.558886 34
1.534865 10.602504 0.558275 31
1.569763 10.593996 0.557976 33
1.602971 10.585984 0.557684 19
1.640646 10.584714 0.557069 19
1.676938 10.579559 0.556610 31
1.716098 10.581734 0.555835 31
1.755548 10.579375 0.555210 31
1.793357 10.577511 0.554590 31
1.829728 10.571783 0.554126 31
1.864434 10.566586 0.553669 31
1.906798 10.575417 0.552573 28
1.944746 10.572964 0.551948 28
1.984244 10.574059 0.551164 27
2.019196 10.563922 0.550852 25
2.057219 10.561028 0.550223 22
2.098389 10.565346 0.549278 21
2.138066 10.565818 0.548489 22
2.174624 10.558791 0.548014 22
2.209586 10.547963 0.547696 22
2.244467 10.541399 0.547228 24
2.282594 10.542013 0.546442 25
2.322439 10.541733 0.545646 27
2.363999 10.540536 0.544841 30
2.402281 10.536289 0.544201 32
2.445607 10.542779 0.543085 32
2.485659 10.541836 0.542283 34
2.524058 10.537111 0.541639 34
2.562479 10.532235 0.540994 34
2.600979 10.531609 0.540197 32
2.635981 10.519228 0.539867 34
2.679610 10.520286 0.538891 32
2.718122 10.514793 0.538241 34
2.756651 10.509149 0.537589 37
2.795325 10.507756 0.536786 39
2.835701 10.505374 0.535973 40
2.883364 10.517077 0.534521 40
2.922210 10.515190 0.533714 40
2.964419 10.511432 0.532887 40
3.003345 10.509224 0.532077 42
3.042110 10.502452 0.531415 40
3.082547 10.494645 0.530744 39
3.126993 10.498130 0.529601 40
3.171524 10.501419 0.528457 42
3.208501 10.490469 0.527950 42
3.255337 10.501312 0.526492 53
3.300096 10.504035 0.525343 48
3.344650 10.502145 0.524343 48
3.385643 10.497504 0.523510 48
3.423040 10.490156 0.522846 48
3.470032 10.495600 0.521530 50
3.513139 10.493904 0.520533 45
3.556300 10.492023 0.519534 43
3.595839 10.487476 0.518704 45
3.643155 10.492123 0.517381 49
3.682015 10.478392 0.516849 50
3.731525 10.486064 0.515362 49
3.781157 10.493506 0.513873 50
3.826753 10.493889 0.512704 50
3.870331 10.490663 0.511694 50
3.914402 10.491673 0.510531 42
3.960201 10.491461 0.509357 42
4.003944 10.487660 0.508342 40
4.047733 10.483670 0.507325 40
4.092059 10.483915 0.506156 42
4.140269 10.486270 0.504813 38
4.190741 10.491758 0.503308 38
4.242983 10.495927 0.501789 36
4.296411 10.508702 0.499967 35
4.342826 10.506798 0.498778 31
4.384306 10.493604 0.498061 29
4.433614 10.499045 0.496556 26
4.480203 10.496522 0.495362 30
4.533612 10.503692 0.493680 28
4.578090 10.497432 0.492644 24
4.631708 10.504118 0.490958 20
4.683165 10.507268 0.489432 20
4.727826 10.500366 0.488390 22
4.777141 10.499791 0.487022 24
4.828855 10.502240 0.485490 28
4.885333 10.510934 0.483631 30
4.937266 10.512875 0.482094 30
4.982229 10.504883 0.481043 30
5.030294 10.504354 0.479677 30
5.084846 10.508807 0.477972 33
5.142630 10.520643 0.475951 35
5.190236 10.514970 0.474730 35
5.245121 10.518642 0.473017 37
5.295274 10.515689 0.471629 38
5.343062 10.509330 0.470402 34
5.398225 10.512240 0.468683 30
5.461652 10.528793 0.466322 26
5.518740 10.529834 0.464585 20
5.561886 10.516216 0.463676 12
5.618292 10.522504 0.461798 10
5.671489 10.520950 0.460231 6
5.724768 10.519140 0.458662 6
7.600082 10.663226 0.394268 9
5.606294 8.331817 0.519969 1
5.646252 8.319224 0.518886 1
5.652113 8.220568 0.521048 1
5.606274 8.129457 0.524824 1
5.663216 8.133061 0.522736 1
5.533021 7.962118 0.531358 1
5.613070 7.987451 0.527931 1
5.599155 7.925848 0.529863 1
5.605582 7.883268 0.530622 1
5.629584 7.856816 0.530376 1
5.528635 7.718102 0.537179 1
5.543115 7.683938 0.537439 1
5.578388 7.668306 0.536524 1
5.598640 7.639311 0.536447 1
5.617627 7.611578 0.536383 1
5.482591 7.450188 0.544903 1
5.632226 7.533753 0.537588 1
5.548738 7.416260 0.543240 1
5.555885 7.377070 0.543841 1
5.572013 7.345641 0.543936 1
5.578823 7.306476 0.544537 1
5.600813 7.280121 0.544294 1
5.582656 7.220603 0.546247 1
5.527096 7.130875 0.550232 1
5.684823 7.215741 0.542546 1
5.569760 7.078454 0.549750 1
5.625234 7.079654 0.547645 1
5.627682 7.038192 0.548418 1
5.633067 6.999268 0.549023 1
5.653984 6.972726 0.548780 1
5.684262 6.953485 0.548027 1
5.689221 6.914529 0.548632 1
5.642294 6.837960 0.551970 1
5.672176 6.818664 0.551217 1
5.733862 6.823374 0.548760 1
5.792481 6.825322 0.546471 1
5.800909 6.747246 0.547681 1
5.849906 6.741447 0.545899 1
5.979612 6.794340 0.539846 1
6.016994 6.776933 0.538727 1
6.105452 6.715302 0.536438 1
6.135175 6.694018 0.535669 1
6.181222 6.684049 0.534041 1
6.299520 6.723965 0.528640 1
6.445041 6.695514 0.523390 4
6.513610 6.701112 0.520560 3
6.723080 6.711004 0.512009 7
6.766397 6.695968 0.510530 3
6.853294 6.708979 0.506808 3
6.900069 6.695487 0.505151 3
9.052262 6.793788 0.414358 2
9.443298 6.750398 0.398261 2
9.573079 6.768040 0.392477 2
9.861497 6.807103 0.379602 8
9.896080 6.772809 0.378534 6
9.990722 6.769998 0.374487 4
10.054049 6.748974 0.372003 2
13.479095 8.321323 0.205196 3
13.383989 8.213913 0.210573 3
13.535838 8.219440 0.203918 3
13.295240 7.977945 0.217122 3
13.272213 7.903181 0.218956 3
13.304715 7.850581 0.218113 3
13.290858 7.783662 0.219442 3
13.274242 7.712637 0.220927 3
13.331713 7.671154 0.218841 3
13.320760 7.606117 0.219996 3
13.238925 7.441948 0.225264 2
13.216014 7.372919 0.226960 5
13.233388 7.321020 0.226699 5
13.318170 7.293856 0.223208 5
13.402946 7.266176 0.219713 8
13.473986 7.229294 0.216904 6
13.557634 7.203330 0.213425 3
13.575492 7.147651 0.213132 6
13.600589 7.094843 0.212482 9
13.759608 7.094006 0.205394 3
14.109131 7.097781 0.189736 3
14.601595 7.218896 0.166675 3
14.790655 7.226683 0.158132 3
18.164509 8.402979 -0.002742 4
18.051319 8.282064 0.003292 4
18.130545 8.156421 0.000675 14
18.164185 8.085393 -0.000321 14
18.196346 8.017733 -0.001288 14
16.739519 7.363745 0.069208 4
16.722664 7.288932 0.070476 4
16.774837 7.233785 0.068471 4
16.986259 7.230857 0.058882 4
18.303585 7.586471 -0.003281 4
18.322655 7.514472 -0.003709 4
18.337662 7.441211 -0.003956 4
18.367653 7.372712 -0.004927 4
18.401230 7.305266 -0.006080 4
18.430763 7.236493 -0.007052 4
18.398870 7.149077 -0.005124 4
18.412560 7.075685 -0.005371 4
18.425983 7.002272 -0.005617 4
18.454491 6.933307 -0.006590 4
18.459723 6.857595 -0.006473 4
18.417536 6.772394 -0.004142 4
18.426023 6.697994 -0.004205 4
18.434242 6.623605 -0.004266 4
18.473030 6.557633 -0.005786 4
18.461441 6.477976 -0.004936 4
18.492033 6.409728 -0.006092 4
18.482880 6.254853 -0.005117 14
18.563072 6.199189 -0.008650 9
18.560825 6.126251 -0.008315 4
18.385588 5.935484 0.000385 13
18.441559 5.873735 -0.002051 9
18.427340 5.795156 -0.001189 4
18.398075 5.709570 0.000378 4
18.398813 5.634922 0.000509 4
18.173033 4.711385 0.012195 4
18.170780 4.634719 0.012313 4
18.120882 4.481086 0.014650 4
18.093529 4.404261 0.015915 4
18.081329 4.258388 0.016408 4
17.816067 2.961297 0.026194 4
17.710474 2.670303 0.030078 4
17.740086 2.603586 0.028378 4
17.722670 2.467359 0.028585 4
17.632792 2.323129 0.032165 8
17.689476 2.120404 0.028385 4
17.653378 2.049651 0.029710 4
12.501301 1.720682 0.273787 2
12.344100 1.662690 0.280949 2
12.334366 1.612232 0.281105 2
12.324356 1.564344 0.281283 2
12.314276 1.514038 0.281441 2
12.609163 1.420494 0.266726 2
12.550580 1.370606 0.269180 2
12.523783 1.321843 0.270116 2
12.748537 1.275626 0.259039 2
12.589665 1.219196 0.266215 2
12.530920 1.119617 0.268262 2
12.535259 1.069054 0.267656 2
12.523445 1.015903 0.267793 2
13.058820 0.967055 0.241796 2
12.435791 0.666439 0.268942 7
12.446536 0.615878 0.267955 2
12.509096 0.566233 0.264494 2
12.563415 0.513896 0.261392 2
12.571673 0.412037 0.259988 4
12.573540 0.361141 0.259382 4
12.583328 0.312391 0.258412 2
12.568883 0.262228 0.258576 2
12.666971 0.152339 0.252716 2
12.655962 0.101770 0.252687 2
12.513204 0.059725 0.259031 2
-20.456976 1.013022 0.121188 3
-20.448814 1.077545 0.122080 3
-20.452442 1.138882 0.122401 3
-20.463820 1.203565 0.122387 3
-20.478968 1.268388 0.122193 3
-20.465921 1.332802 0.123264 3
-20.488605 1.397920 0.122709 3
-20.487093 1.462588 0.123238 3
-20.477367 1.527020 0.124126 3
-20.499367 1.592427 0.123573 3
-20.501167 1.657276 0.123921 3
-20.490765 1.721671 0.124809 3
-20.579943 1.790292 0.121200 3
-20.581053 1.855463 0.121550 3
-20.585924 1.920850 0.121720 3
-20.582584 1.985855 0.122249 3
-20.579020 2.050848 0.122778 3
-20.599354 2.114023 0.122204 3
-20.611294 2.180092 0.122016 3
-20.626984 2.246526 0.121650 3
-20.622509 2.311673 0.122178 3
-20.585926 2.374434 0.124138 3
-20.604908 2.441297 0.123593 3
-20.615683 2.507661 0.123406 3
-20.578442 2.570063 0.125361 3
-20.600700 2.637501 0.124639 3
-20.582924 2.701456 0.125700 3
-20.580837 2.766826 0.126047 3
-20.590452 2.833382 0.125861 3
-20.564053 2.896360 0.127276 3
-20.581152 2.963811 0.126733 3
-20.574526 3.025544 0.127231 3
-20.579609 3.088598 0.127196 3
-20.567848 3.156360 0.127924 3
-20.572489 3.219475 0.127889 3
-20.564617 3.284425 0.128412 3
-20.584269 3.352868 0.127695 3
-20.575932 3.417859 0.128218 3
-20.539209 3.482348 0.130005 3
-20.566048 3.552087 0.128935 3
-20.537231 3.614218 0.130340 3
-20.532406 3.676375 0.130658 3
-20.534798 3.742940 0.130648 3
-20.600166 3.819149 0.127817 3
-20.586252 3.883579 0.128514 3
-20.587902 3.950455 0.128507 3
-20.593256 4.018019 0.128323 3
-20.601768 4.089564 0.127989 3
-20.603230 4.153365 0.127956 3
-20.580286 4.216371 0.129003 3
-20.588036 4.288073 0.128670 3
-20.584885 4.351242 0.128812 3
-20.577589 4.413702 0.129130 3
-20.589115 4.483082 0.128596 3
-20.561132 4.545083 0.129815 3
-20.555847 4.614758 0.130008 3
-20.562704 4.683533 0.129650 3
-20.545805 4.747649 0.130341 3
-20.630453 4.832636 0.126489 3
-20.616951 4.897779 0.127007 3
-20.638395 4.970370 0.125953 3
-20.621212 5.031437 0.126619 3
-20.614820 5.098265 0.126787 3
-20.603561 5.167479 0.127155 3
-17.756496 4.639708 0.254106 22
-17.520115 4.702559 0.264384 2
-17.351727 4.719206 0.271760 5
-17.280428 4.758588 0.274788 5
-17.240723 4.802595 0.276403 5
-17.211845 4.851983 0.277518 2
-17.190552 4.903204 0.278284 2
-17.134281 4.945253 0.280608 2
-17.120403 4.998192 0.281025 2
-17.187397 5.072816 0.277810 2
-17.257912 5.149005 0.274427 2
-17.100773 5.163086 0.281237 2
-17.113815 5.220790 0.280423 2
-17.091284 5.271480 0.281184 2
-17.106241 5.335722 0.280240 2
-17.087929 5.384806 0.280807 2
-17.064848 5.435324 0.281565 2
-17.141172 5.515418 0.277848 2
-17.152084 5.576462 0.277059 2
-17.147467 5.632965 0.276959 2
-17.127369 5.684764 0.277545 2
-17.133791 5.744845 0.276929 2
-17.136168 5.803819 0.276485 2
-17.111681 5.854317 0.277242 2
-17.258062 5.960270 0.270286 2
-17.248232 6.016131 0.270360 2
-17.192696 6.056849 0.272488 2
-17.102970 6.085768 0.276152 2
-17.180593 6.168130 0.272269 2
-17.197371 6.230267 0.271124 2
-20.082170 7.364171 0.139699 11
-20.054947 7.429203 0.140385 23
-20.029757 7.487815 0.141021 19
-20.006989 7.550845 0.141510 19
-19.971594 7.612803 0.142534 11
-19.918423 7.664491 0.144382 7
-19.896214 7.724001 0.144843 3
-19.966034 7.822007 0.141079 3
-19.952091 7.892245 0.141080 3
-19.925400 7.950421 0.141711 3
-19.902243 8.009953 0.142171 3
-19.885086 8.075473 0.142315 3
-19.866444 8.144084 0.142483 3
-19.848799 8.209531 0.142626 3
-19.818542 8.273534 0.143300 3
-19.804119 8.340387 0.143272 4
-19.759928 8.394950 0.144597 3
-19.742668 8.457026 0.144712 3
-19.716518 8.519047 0.145189 3
-19.701176 8.585696 0.145159 4
-19.657568 8.636556 0.146453 3
-19.635801 8.696793 0.146735 3
-19.600145 8.758299 0.147568 3
-19.591206 8.827939 0.147198 4
-19.560116 8.887794 0.147837 3
-19.533854 8.946109 0.148283 3
-19.531443 9.019026 0.147576 4
-19.510592 9.083654 0.147708 4
-19.471388 9.139804 0.148679 4
-19.445042 9.205626 0.149001 4
-19.401836 9.259755 0.150136 4
-19.380098 9.324033 0.150265 4
-19.348789 9.380012 0.150872 4
-19.330200 9.445901 0.150831 4
-19.289841 9.501192 0.151794 4
-19.257963 9.556834 0.152398 4
-16.778069 8.457906 0.266550 8
-16.623678 8.444382 0.272951 8
-16.501570 8.446283 0.277843 5
-16.471924 8.495156 0.278394 2
-16.352013 8.560925 0.282323 8
-18.998175 10.105330 0.155649 4
-15.737370 8.422775 0.308731 2
-15.424958 8.369914 0.321875 7
-15.273208 8.347276 0.328205 7
-15.121781 8.323668 0.334527 7
-14.974168 8.301052 0.340676 7
-14.819918 8.273557 0.347149 7
-14.666019 8.245073 0.353614 7
-14.522869 8.221588 0.359575 7
-14.383496 8.199198 0.365363 7
-14.258231 8.183995 0.370483 19
-14.187051 8.202621 0.372969 7
-14.070322 8.187990 0.377731 4
-13.951386 8.231034 0.381662 38
-15.524415 8.386852 0.407895 5
-15.382935 8.370593 0.412962 5
-15.245231 8.355374 0.417879 5
-15.125245 8.349038 0.422077 5
-14.970640 8.322328 0.427694 4
-14.826811 8.300553 0.432876 4
-14.705379 8.287561 0.437181 4
-14.594563 8.279839 0.441053 4
-14.453755 8.259749 0.446090 4
-14.352461 8.258819 0.449541 6
-14.189387 8.220648 0.455542 6
-14.078240 8.212126 0.459407 8
-13.946743 8.190566 0.464117 8
-13.870257 8.201303 0.466554 16
-13.783607 8.205348 0.469413 3
-13.639188 8.173274 0.474672 16
-13.600467 8.205570 0.475541 30
-13.554881 8.233448 0.476691 4
-13.519392 8.267485 0.477416 4
-13.507435 8.316354 0.477151 3
-13.451494 8.337234 0.478719 3
-13.375272 8.455165 0.479593 100
-13.312441 8.470767 0.481436 100
-13.279613 8.505923 0.482010 100
-13.266613 8.554278 0.481739 85
-13.250099 8.600399 0.481609 61
-13.243321 8.653235 0.481057 45
-13.229714 8.701601 0.480786 33
-13.220551 8.750270 0.480360 19
-13.206544 8.798645 0.480088 9
-13.205438 8.856183 0.479256 3
-13.204067 8.913808 0.478424 3
-13.195912 8.966890 0.477873 4
-13.188630 9.080182 0.476351 21
-13.182983 9.135762 0.475660 27
-13.180311 9.193760 0.474830 22
-13.190247 9.261321 0.473442 15
-13.212688 9.338579 0.471498 11
-13.225121 9.408914 0.469973 9
-16.458498 11.979916 0.326806 6
-16.381460 12.080857 0.327540 6
-16.326876 12.118885 0.328599 6
-16.156521 12.142325 0.333468 2
-16.006451 12.183852 0.337371 29
-15.705434 12.022618 0.349359 10
-15.464784 11.907171 0.358702 14
-15.101107 11.689221 0.373567 12
-14.487073 12.085179 0.384695 16
-14.280150 11.975010 0.392820 37
-14.245772 12.025431 0.392866 11
-13.975947 11.859070 0.403873 7
-14.152672 12.092644 0.394281 5
-13.972433 12.005445 0.401162 9
-13.986792 12.096123 0.398992 15
-13.266194 11.950493 0.422319 1
-12.376870 11.743152 0.451122 14
-12.374434 11.812199 0.449731 3
-12.236228 11.822632 0.453230 19
-11.985599 11.707258 0.462399 6
-11.959026 11.753901 0.462098 9
-10.281280 11.590493 0.508209 30
-10.212293 11.578481 0.510143 16
-10.070097 11.471263 0.516092 4
-9.938493 11.375864 0.521499 7
-9.882810 11.378219 0.522753 10
-9.832034 11.386684 0.523737 13
-9.757276 11.362967 0.526057 17
-9.697124 11.358079 0.527572 23
-9.632341 11.346473 0.529351 26
-9.577209 11.347424 0.530594 28
-9.512734 11.335201 0.532369 27
-9.461974 11.337531 0.533466 28
-9.404805 11.334449 0.534837 30
-9.343101 11.324588 0.536472 31
-9.281557 11.314423 0.538104 28
-9.229379 11.317031 0.539202 27
-9.168112 11.306292 0.540830 28
-9.109288 11.298537 0.542323 27
-9.048339 11.287204 0.543947 6
-6.263573 7.336165 0.705000 0
-6.216848 7.314665 0.706558 0
-6.203636 7.342782 0.706121 0
-6.217907 7.410124 0.704085 0
-6.271382 7.590306 0.698301 8
-6.193960 7.521448 0.701713 7
-6.130048 7.472304 0.704325 8
-5.945649 7.281737 0.713121 0
-5.923910 7.342635 0.711966 2
-5.923750 7.394512 0.710600 2
-5.926483 7.449189 0.709098 2
-5.918480 7.486892 0.708257 2
-5.938298 7.568399 0.705694 2
-5.712782 7.242208 0.718863 1
-5.673490 7.228436 0.720004 1
-5.629337 7.203494 0.721537 2
-5.605612 7.212813 0.721747 2
-5.575841 7.211673 0.722353 2
-5.550115 7.217329 0.722694 2
-5.517541 7.208378 0.723557 2
-5.485955 7.203372 0.724292 2
-5.449443 7.191863 0.725293 2
-5.427781 7.204004 0.725366 2
-5.396397 7.198580 0.726097 2
-5.370023 7.199428 0.726561 2
-5.342598 7.200759 0.727026 2
-5.317921 7.209596 0.727232 2
-5.298084 7.224802 0.727169 2
-5.283023 7.246428 0.726840 0
-5.266760 7.268600 0.726513 1
-5.250383 7.290734 0.726186 1
-5.246759 7.337682 0.724939 1
-5.248325 7.395350 0.723297 1
-5.171551 7.299901 0.727305 0
-5.097285 7.207564 0.731179 0
-5.127437 7.322165 0.727434 0
-5.060921 7.243639 0.730779 0
-5.033117 7.239536 0.731363 0
-5.014793 7.257411 0.731162 0
-4.978992 7.239237 0.732271 0
-4.945082 7.224495 0.733249 0
-4.938734 7.267382 0.732127 0
-4.911707 7.266887 0.732579 0
-4.881342 7.259032 0.733291 0
-4.862801 7.276449 0.733086 0
-4.832530 7.268365 0.733797 0
-4.808954 7.274711 0.733983 0
-4.787006 7.284616 0.734037 0
-4.764498 7.290303 0.734219 0
-4.703783 7.212261 0.737413 0
-4.677252 7.210808 0.737857 0
-4.653941 7.216585 0.738039 0
-4.632197 7.225949 0.738089 0
-4.608385 7.227416 0.738398 0
-4.571107 7.199768 0.739754 0
-4.557106 7.227296 0.739148 0
-4.524658 7.210451 0.740110 0
-4.502935 7.219364 0.740157 0
-4.485677 7.239321 0.739811 0
-4.466825 7.255521 0.739595 0
-4.403726 7.160157 0.743295 0
-4.402608 7.220758 0.741511 0
-4.396759 7.270244 0.740119 0
-4.341866 7.192870 0.743162 0
-4.311345 7.174575 0.744115 0
-4.289750 7.182744 0.744155 0
-4.269207 7.190434 0.744193 0
-4.239566 7.180098 0.744887 0
-4.252163 7.281925 0.741666 0
-4.193599 7.188336 0.745224 0
-4.159876 7.162201 0.746434 0
-4.136995 7.166071 0.746600 0
-4.128589 7.211383 0.745333 0
-4.104261 7.211354 0.745629 0
-4.079754 7.207078 0.746053 0
-4.050385 7.191707 0.746868 0
-4.030174 7.206912 0.746642 0
-3.997048 7.175769 0.747974 0
-3.977925 7.190444 0.747746 0
-3.953828 7.189837 0.748037 0
-3.909178 7.124365 0.750539 0
-3.892426 7.142236 0.750177 0
-3.892368 7.221828 0.747736 0
-3.837829 7.121500 0.751405 0
-3.814107 7.120364 0.751693 0
-3.794991 7.134459 0.751459 0
-3.766755 7.117817 0.752265 0
-3.747595 7.131763 0.752031 0
-3.731643 7.153025 0.751534 0
-3.705761 7.143786 0.752078 0
-3.682121 7.142142 0.752362 0
-3.653193 7.121139 0.753294 0
-3.630737 7.123154 0.753446 0
-3.614511 7.148252 0.752818 0
-3.595111 7.157568 0.752707 0
-3.564480 7.128426 0.753897 0
-3.547040 7.149474 0.753397 0
-3.518648 7.127851 0.754324 0
-3.498191 7.137131 0.754213 0
-3.480558 7.157989 0.753711 0
-3.456195 7.151603 0.754117 0
-3.437474 7.168452 0.753744 0
-3.411324 7.154113 0.754409 0
-3.389805 7.159140 0.754424 0
-3.365787 7.148256 0.754956 0
-3.291904 7.119663 0.756423 0
-3.280529 7.171189 0.754877 0
-3.243341 7.101422 0.757354 0
-3.221199 7.101948 0.757494 0
-3.197750 7.090423 0.758022 0
-3.176738 7.090572 0.758160 0
-3.156210 7.098705 0.758039 0
-3.135641 7.106769 0.757917 0
-3.109843 7.087262 0.758703 0
-3.102376 7.165931 0.756245 0
-3.058700 7.047934 0.760272 0
-3.034230 7.157859 0.756910 2
-3.018750 7.197039 0.755747 2
-3.013328 7.291208 0.752767 2
-3.013921 7.432936 0.748231 8
-2.999643 7.487895 0.746548 16
-2.976343 7.487534 0.746679 27
-2.951851 7.479185 0.747069 33
-2.901927 7.454300 0.748107 2
-2.875987 7.433799 0.748884 2
-2.827156 7.254945 0.754848 0
-2.777492 7.043841 0.761848 1
-2.754809 7.026699 0.762494 2
-2.730148 7.009743 0.763139 1
-2.710617 7.024295 0.762746 2
-2.688687 7.010875 0.763261 2
-2.664407 6.985587 0.764163 2
-2.646196 7.011841 0.763380 2
-2.621937 6.994446 0.764021 2
-2.600556 6.992743 0.764144 2
-2.582067 7.018803 0.763358 1
-2.562214 7.032871 0.762961 1
-2.541888 7.042894 0.762693 0
-2.523343 7.072754 0.761775 1
-2.486256 7.389016 0.751623 5
-2.463609 7.386828 0.751740 7
-2.441583 7.392532 0.751597 7
-2.419810 7.402149 0.751324 6
-2.396887 7.395737 0.751569 5
-2.374015 7.389243 0.751813 4
-2.352553 7.386589 0.751928 5
-2.328613 7.359981 0.752821 5
-2.226347 7.060956 0.762618 0
-2.184118 7.066660 0.762450 1
-2.163445 7.083387 0.761911 0
-2.142778 7.104040 0.761241 0
-2.122496 7.144605 0.759921 0
-2.100560 7.125150 0.760548 0
-2.079228 7.129599 0.760396 0
-2.059003 7.137955 0.760114 0
-2.039643 7.218200 0.757492 0
-2.016457 7.178472 0.758766 0
-1.995109 7.222606 0.757311 0
-1.974763 7.358615 0.752866 0
-1.952515 7.378617 0.752188 0
-1.928414 7.766341 0.739544 0
-1.883727 7.542088 0.746769 2
-1.860803 7.545778 0.746608 2
-1.837927 7.545391 0.746577 2
-1.808830 7.880691 0.735614 1
-1.644611 10.719728 0.642927 50
-1.610804 10.714571 0.643007 48
-1.577186 10.705301 0.643215 48
-1.543286 10.703905 0.643162 47
-1.509205 10.706384 0.642978 48
-1.475501 10.700756 0.643054 47
-1.441191 10.706989 0.642737 46
-1.407967 10.693144 0.643071 47
-1.374111 10.691156 0.643014 45
-1.340006 10.693040 0.642825 47
-1.304458 10.690701 0.642762 45
-1.272302 10.688473 0.642705 46
-1.240155 10.686138 0.642646 47
-1.206323 10.683565 0.642584 45
-1.172178 10.684858 0.642390 45
-1.138689 10.678064 0.642456 45
-1.104183 10.683103 0.642129 46
-1.070729 10.676073 0.642194 45
-1.036934 10.672909 0.642127 45
-1.003150 10.669627 0.642058 43
-0.968971 10.670204 0.641858 44
-0.934776 10.670660 0.641658 45
-0.901871 10.659073 0.641848 45
-0.867238 10.663264 0.641514 45
-0.835176 10.659586 0.641445 45
-0.800013 10.667508 0.640979 45
-0.766250 10.663399 0.640904 43
-0.733004 10.655206 0.640959 45
-0.699284 10.650863 0.640882 44
-0.664517 10.654326 0.640542 45
-0.630256 10.653705 0.640332 44
-0.596541 10.649003 0.640252 45
-0.562271 10.648140 0.640041 45
-0.527990 10.647156 0.639828 44
-0.494300 10.642097 0.639745 42
-0.459399 10.644822 0.639399 43
-0.425089 10.643472 0.639183 42
-0.392053 10.634109 0.639229 42
-0.356443 10.640407 0.638749 41
-0.324460 10.635035 0.638666 41
-0.290130 10.633205 0.638446 42
-0.255794 10.631253 0.638225 43
-0.219322 10.640982 0.637609 43
-0.184208 10.642710 0.637255 41
-0.149798 10.640380 0.637031 41
-0.116133 10.634002 0.636937 39
-0.079433 10.643202 0.636316 39
-0.046538 10.632656 0.636353 41
-0.011317 10.633754 0.635993 40
0.022324 10.626892 0.635895 39
0.056760 10.623825 0.635665 40
0.089518 10.620994 0.635439 39
0.125650 10.625502 0.634944 40
0.161801 10.621696 0.634705 43
0.196272 10.618131 0.634471 41
0.232519 10.622239 0.633972 43
0.266118 10.614526 0.633868 44
0.299840 10.614874 0.633504 43
0.335267 10.614703 0.633133 43
0.369780 10.610517 0.632894 43
0.404292 10.606207 0.632654 44
0.441706 10.613410 0.632016 45
0.475273 10.604966 0.631905 45
0.510800 10.604150 0.631530 45
0.546351 10.603203 0.631153 45
0.581270 10.606433 0.630648 46
0.617916 10.609087 0.630137 45
0.651467 10.600029 0.630021 46
0.687109 10.598561 0.629640 44
0.723848 10.600814 0.629125 46
0.760635 10.602925 0.628609 49
0.796368 10.601055 0.628224 48
0.829889 10.591373 0.628104 47
0.869021 10.600751 0.627319 47
0.902541 10.590816 0.627197 46
0.937817 10.592752 0.626681 46
0.974814 10.594048 0.626158 42
1.007128 10.579924 0.626165 44
1.046549 10.588582 0.625374 43
1.082442 10.585649 0.624980 42
1.117129 10.578776 0.624719 42
1.154275 10.579383 0.624190 46
1.191463 10.579846 0.623660 43
1.227431 10.576373 0.623262 47
1.265962 10.580344 0.622596 46
1.301983 10.576593 0.622195 47
1.340620 10.580269 0.621527 46
1.373708 10.573046 0.621264 46
1.411107 10.572662 0.620727 47
1.449885 10.575902 0.620055 46
1.487373 10.575226 0.619515 44
1.523532 10.570647 0.619108 45
1.559701 10.565932 0.618699 45
1.598664 10.568577 0.618022 42
1.636283 10.567324 0.617477 42
1.675355 10.569661 0.616797 41
1.713055 10.568110 0.616250 42
1.746231 10.559605 0.615977 41
1.783972 10.557776 0.615427 42
1.824685 10.563237 0.614608 45
1.861033 10.557392 0.614190 47
1.900378 10.558825 0.613502 48
1.935253 10.548992 0.613216 49
1.976193 10.553821 0.612392 50
2.014145 10.551096 0.611834 49
2.055098 10.559982 0.610880 45
2.094706 10.560632 0.610186 47
2.132891 10.553056 0.609751 45
2.172580 10.553389 0.609054 45
2.210721 10.549896 0.608491 44
2.247222 10.546988 0.607934 42
2.288663 10.550509 0.607098 42
2.326907 10.546563 0.606530 43
2.366824 10.546106 0.605826 43
2.403466 10.538216 0.605391 45
2.448478 10.548337 0.604279 45
2.488553 10.547387 0.603571 43
2.525275 10.539036 0.603132 44
2.568842 10.544995 0.602151 44
2.609055 10.543553 0.601438 43
2.649314 10.541947 0.600725 42
2.689617 10.540175 0.600010 40
2.729963 10.538239 0.599293 39
2.770353 10.536138 0.598575 42
2.808997 10.530293 0.597992 39
2.853058 10.535005 0.596999 40
2.891920 10.533245 0.596286 41
2.930664 10.526921 0.595698 42
2.974932 10.531096 0.594702 39
3.019289 10.535077 0.593703 39
3.060010 10.531789 0.592975 39
3.104517 10.535395 0.591973 37
3.143452 10.528232 0.591378 33
3.191890 10.538505 0.590101 31
3.230909 10.530996 0.589503 29
3.273784 10.530342 0.588631 25
3.316717 10.529505 0.587758 28
3.356097 10.525920 0.587029 28
3.403051 10.531699 0.585879 27
3.448139 10.533788 0.584864 25
3.493306 10.535678 0.583847 25
3.538881 10.541793 0.582702 24
3.581869 10.535401 0.581946 20
3.623220 10.529799 0.581198 22
3.668662 10.530910 0.580174 24
3.716223 10.535254 0.579012 28
3.759771 10.532526 0.578122 29
3.809572 10.539875 0.576819 30
3.849511 10.534348 0.576074 30
3.895322 10.534455 0.575041 29
3.941205 10.534358 0.574008 27
3.991386 10.540843 0.572697 27
4.033180 10.533551 0.571935 28
4.079271 10.532841 0.570895 29
4.129729 10.538664 0.569579 36
4.175979 10.537526 0.568536 38
4.222295 10.536180 0.567491 38
4.262121 10.524585 0.566859 37
4.321710 10.542889 0.564982 38
4.368253 10.540897 0.563932 42
4.410974 10.536485 0.563030 48
4.457630 10.534091 0.561976 47
4.506589 10.534797 0.560782 50
4.553377 10.531976 0.559725 50
4.607618 10.543265 0.558123 50
4.656236 10.538844 0.557050 46
4.701579 10.536521 0.555999 42
4.744679 10.530730 0.555084 42
4.798073 10.532190 0.553728 47
4.849902 10.534575 0.552382 46
4.900165 10.537910 0.551045 47
4.952189 10.539812 0.549695 42
5.001956 10.538236 0.548481 41
5.051094 10.531982 0.547393 38
5.105036 10.531922 0.546024 35
5.157408 10.532837 0.544664 33
5.205069 10.527110 0.543582 30
5.251114 10.522426 0.542511 27
5.306896 10.530260 0.540878 30
5.362041 10.533380 0.539371 27
5.412406 10.529903 0.538141 26
5.469412 10.531204 0.536617 20
5.517461 10.524085 0.535523 23
5.563888 10.518060 0.534439 19
5.621145 10.518572 0.532908 20
5.674345 10.517006 0.531528 19
5.720943 10.510303 0.530439 20
5.774283 10.508253 0.529054 20
5.830233 10.509039 0.527527 23
5.882080 10.507833 0.526151 24
5.935664 10.505012 0.524759 26
5.996111 10.506677 0.523071 26
6.044716 10.497193 0.521957 24
6.101108 10.496634 0.520418 27
6.153339 10.494172 0.519031 27
6.215118 10.499137 0.517205 27
6.273456 10.496304 0.515645 27
6.327596 10.491606 0.514238 26
6.390697 10.500115 0.512276 28
6.447661 10.497859 0.510723 28
6.510028 10.501290 0.508883 28
6.561846 10.492498 0.507608 27
6.617406 10.490891 0.506062 27
