# .PCD v.7 - Point Cloud Data file format
VERSION .7
FIELDS x y z intensity
SIZE 4 4 4 1
TYPE F F F U
COUNT 1 1 1 1
WIDTH 1572
HEIGHT 1
VIEWPOINT 0 0 0 1 0 0 0
POINTS 1572
DATA ascii
-0.907626 6.040892 0.344036 29
-0.889196 6.041071 0.343509 28
-0.871589 6.037300 0.343457 30
-0.853145 6.037347 0.342930 31
-0.835552 6.033450 0.342876 33
-0.817972 6.029492 0.342822 35
-0.799503 6.033416 0.341822 38
-0.781923 6.029332 0.341767 34
-0.763441 6.029051 0.341237 33
-0.744946 6.028702 0.340706 36
-0.724549 6.036001 0.339226 30
-0.706003 6.035510 0.338694 34
-0.688417 6.031099 0.338637 29
-0.668877 6.034323 0.337629 26
-0.650297 6.033627 0.337095 33
-0.631706 6.032863 0.336561 28
-0.614130 6.028193 0.336502 24
-0.595532 6.027296 0.335966 22
-0.575872 6.030159 0.334956 24
-0.557240 6.029120 0.334419 23
-0.536442 6.035658 0.332932 25
-0.518644 6.034727 0.332398 30
-0.502167 6.025847 0.332810 32
-0.483498 6.024536 0.332271 36
-0.462812 6.026702 0.331254 34
-0.442702 6.033117 0.329766 27
-0.425127 6.027788 0.329701 26
-0.406399 6.026192 0.329160 22
-0.388847 6.020736 0.329094 29
-0.368920 6.022792 0.328076 30
-0.347750 6.028553 0.326582 30
-0.330191 6.022892 0.326514 27
-0.310178 6.024718 0.325495 23
-0.290132 6.026465 0.324475 23
-0.272196 6.024663 0.323933 28
-0.251703 6.030321 0.322439 22
-0.231972 6.027780 0.321889 25
-0.213992 6.025772 0.321345 25
-0.193815 6.027140 0.320322 25
-0.174935 6.024685 0.319773 20
-0.155173 6.021844 0.319221 18
-0.133577 6.026712 0.317719 19
-0.116902 6.020626 0.317649 21
-0.097117 6.017558 0.317094 25
-0.079598 6.011022 0.317019 28
-0.060695 6.008140 0.316467 31
-0.044083 6.001811 0.316395 36
-0.023201 6.006543 0.314893 31
-0.003974 5.999066 0.314808 27
0.019310 6.006983 0.312825 30
0.039732 6.007420 0.311793 27
0.062272 6.015496 0.309811 25
0.080402 6.012439 0.309259 19
0.101793 6.012272 0.308221 17
0.119938 6.009074 0.307668 19
0.142026 6.012771 0.306156 20
0.163494 6.012347 0.305116 21
0.180993 6.004901 0.305034 24
0.202307 6.008713 0.303524 22
0.227006 6.015318 0.301527 22
0.245237 6.011672 0.300970 23
0.265076 6.011591 0.299935 22
0.282572 6.003791 0.299850 18
0.302548 5.999154 0.299282 28
0.330759 6.012505 0.296327 21
0.348258 6.004476 0.296239 27
0.373218 6.014802 0.293768 21
0.388165 6.003438 0.294162 18
0.413294 6.009156 0.292157 20
0.432490 6.004423 0.291590 21
0.453405 6.003195 0.290544 21
0.471731 5.998734 0.289980 23
0.491800 5.993351 0.289406 26
0.511878 5.992312 0.288363 21
0.534619 5.994313 0.286837 25
0.555621 5.992668 0.285787 26
0.581107 5.997577 0.283776 23
0.600361 5.992209 0.283203 23
0.618737 5.987218 0.282635 25
0.641645 5.988752 0.281104 27
0.666441 5.993702 0.279094 25
0.689445 5.995031 0.277562 26
0.708750 5.989253 0.276986 24
0.731811 5.990395 0.275452 18
0.754913 5.991436 0.273917 23
0.779088 5.996339 0.271907 18
0.800363 5.993699 0.270849 21
0.815862 5.980560 0.271227 16
0.839072 5.981228 0.269689 19
0.862321 5.981796 0.268150 21
0.883641 5.978811 0.267090 21
0.908932 5.982625 0.265070 17
0.926321 5.972577 0.264966 24
0.945678 5.965899 0.264382 27
0.970199 5.969923 0.262365 21
0.998829 5.980672 0.259388 17
1.020285 5.977129 0.258322 27
1.040571 5.969571 0.257730 21
1.066160 5.972641 0.255704 28
1.091806 5.975592 0.253676 22
1.115425 5.975045 0.252128 27
1.141174 5.977767 0.250098 29
1.158545 5.966908 0.249988 29
1.184358 5.969420 0.247957 32
1.208095 5.968462 0.246405 34
1.231864 5.967399 0.244852 31
1.259106 5.973463 0.242343 19
1.279494 5.964956 0.241743 28
1.301176 5.960255 0.240668 30
1.321999 5.956037 0.239597 29
1.345030 5.955040 0.238046 30
1.376458 5.962676 0.235040 32
1.393774 5.950996 0.234923 28
1.422227 5.955667 0.232401 31
1.447124 5.953055 0.230834 30
1.459888 5.934597 0.231677 28
1.455819 5.893901 0.235894 27
1.417312 5.804524 0.247330 28
1.533483 5.931537 0.226511 25
1.518438 5.874027 0.233129 23
1.535444 5.861853 0.233008 42
1.612886 5.933295 0.220367 42
1.633912 5.927838 0.219286 38
1.645551 5.909485 0.220132 49
1.677689 5.915399 0.217111 39
1.713799 5.928156 0.213130 29
1.739657 5.928656 0.211083 29
1.757710 5.915060 0.210949 31
1.786015 5.918508 0.208417 26
1.811273 5.914200 0.206836 32
1.838118 5.913579 0.204777 33
1.862568 5.909695 0.203200 32
1.882143 5.899446 0.202587 34
1.923816 5.917187 0.197631 21
1.953313 5.919147 0.195086 16
1.977054 5.915444 0.193511 17
2.001671 5.910948 0.191929 17
2.026304 5.906339 0.190346 20
2.048441 5.898543 0.189244 17
2.078139 5.899852 0.186693 15
2.110428 5.904071 0.183658 16
2.136852 5.902741 0.181595 17
2.162469 5.896810 0.179999 18
2.197502 5.903605 0.176477 22
2.230058 5.907194 0.173436 26
2.261831 5.911352 0.170400 21
2.286748 5.905596 0.168808 23
2.306464 5.893735 0.168181 26
2.344465 5.902701 0.164167 21
2.379954 5.908484 0.160636 16
2.404985 5.902206 0.159039 17
2.370015 5.794918 0.171334 50
2.461451 5.862100 0.157630 30
2.542693 5.916977 0.145859 14
2.584039 5.927521 0.141349 13
2.617417 5.929100 0.138291 13
2.640023 5.918894 0.137169 13
2.670772 5.917271 0.134593 17
2.709753 5.924143 0.130561 21
2.610410 5.755509 0.153543 29
2.629752 5.742380 0.152907 26
2.644346 5.722677 0.153233 55
2.854460 5.905946 0.119123 39
2.891081 5.908896 0.115567 39
2.955760 5.939823 0.107155 31
2.992636 5.942282 0.103594 30
3.032407 5.947342 0.099547 30
3.075100 5.954971 0.095011 29
3.113098 5.955922 0.091437 19
3.129514 5.939069 0.091279 15
3.148729 5.924920 0.090634 19
3.217472 5.956527 0.081718 14
3.257750 5.960328 0.077659 14
3.267250 5.932984 0.078938 39
3.309633 5.940084 0.074399 71
3.321047 5.916240 0.075200 71
3.338185 5.897773 0.075027 71
3.361955 5.883693 0.073873 69
3.301912 5.796395 0.086362 71
3.280402 5.743320 0.092519 47
3.332337 5.756880 0.086506 43
3.454608 5.834605 0.068811 69
3.486300 5.828857 0.066199 52
3.535881 5.838706 0.060664 71
3.534828 5.803792 0.063409 71
3.587517 5.815848 0.057383 62
3.686272 5.865538 0.044032 58
3.717451 5.859708 0.041421 53
3.740433 5.845006 0.040262 58
3.763382 5.830202 0.039102 53
3.777175 5.807638 0.039405 49
3.796979 5.790121 0.038732 55
3.795324 5.754803 0.041475 47
3.827229 5.747286 0.038849 43
3.866131 5.743608 0.035236 49
3.912680 5.749255 0.030174 47
3.944695 5.741168 0.027543 52
3.910772 5.681901 0.035180 57
3.939526 5.671247 0.033037 50
3.987805 5.674152 0.027951 49
4.000965 5.650913 0.028250 35
4.041447 5.650598 0.024157 22
4.123676 5.680521 0.013695 12
4.168356 5.680971 0.009098 11
4.178344 5.654744 0.009881 10
4.185862 5.625039 0.011143 10
4.188462 5.595111 0.012915 12
4.210843 5.578355 0.011740 12
4.258734 5.580360 0.006647 7
4.271490 5.556275 0.006939 4
4.213525 5.480780 0.018008 2
4.222699 5.454552 0.018791 1
4.235765 5.429545 0.019075 1
4.238256 5.398684 0.020840 2
4.256824 5.379307 0.020153 1
4.251815 5.344991 0.022908 2
4.266952 5.323278 0.022711 1
4.275480 5.297000 0.023496 2
4.263512 5.258333 0.027234 3
4.279212 5.206975 0.028814 20
4.287273 5.180744 0.029599 28
4.308445 5.163308 0.028420 31
4.319635 5.139210 0.028714 32
4.350651 5.128146 0.026059 25
4.369792 5.106045 0.025350 13
4.390051 5.089334 0.024178 4
4.383531 5.055400 0.026938 1
4.397656 5.033229 0.026739 1
4.401632 5.004653 0.028015 1
4.412216 4.980312 0.028307 1
4.419335 4.953852 0.029092 1
4.433105 4.931556 0.028892 1
4.436639 4.902998 0.030168 1
4.463127 4.890003 0.028009 1
4.463073 4.859362 0.029778 1
4.469698 4.832841 0.030563 1
4.480297 4.807222 0.030845 1
4.493555 4.784715 0.030644 1
4.512934 4.767292 0.029467 1
4.508876 4.734727 0.031730 1
4.514997 4.708168 0.032515 1
4.531358 4.687504 0.031821 1
4.540742 4.662867 0.032112 1
4.553496 4.640150 0.031910 1
4.559232 4.613531 0.032695 1
4.568337 4.588833 0.032986 1
4.573867 4.562212 0.033771 1
4.585651 4.540522 0.033579 1
4.581112 4.507105 0.035836 1
4.586925 4.479370 0.036612 1
4.594926 4.455782 0.036913 1
4.592895 4.425504 0.038688 1
4.615386 4.408099 0.037002 1
4.619603 4.382634 0.037798 1
4.617242 4.352416 0.039574 1
4.625371 4.327639 0.039866 1
4.636955 4.304628 0.039663 1
4.644906 4.279808 0.039955 1
4.649204 4.253215 0.040741 1
4.653398 4.226632 0.041528 1
4.653914 4.198327 0.042811 1
4.668624 4.176937 0.042112 1
4.668932 4.148654 0.043395 1
4.683480 4.127188 0.042696 1
4.679984 4.097246 0.044475 1
4.679960 4.069037 0.045759 1
4.697854 4.049152 0.044564 1
4.700713 4.023763 0.045362 1
4.711236 4.000492 0.045159 1
4.707183 3.970704 0.046940 1
4.717520 3.947409 0.046736 1
4.724142 3.922485 0.047028 2
4.734311 3.899132 0.046824 1
4.740753 3.874175 0.047117 1
4.739799 3.846095 0.048403 1
4.757015 3.825775 0.047205 1
4.759522 3.799246 0.047995 1
4.765594 3.774252 0.048287 2
4.775246 3.750755 0.048083 1
4.770104 3.721255 0.049867 1
4.783254 3.699223 0.049165 1
4.777425 3.670974 0.050961 1
4.790871 3.647713 0.050249 1
4.799622 3.625309 0.050054 1
4.800894 3.600017 0.050855 1
4.799263 3.570969 0.052134 1
4.811918 3.548759 0.051432 1
4.816624 3.524895 0.051735 1
4.810952 3.494529 0.053513 1
4.804718 3.465421 0.055303 1
4.824060 3.447026 0.053613 1
4.818046 3.416790 0.055393 1
4.826450 3.393113 0.055188 1
4.830611 3.369280 0.055493 1
4.827189 3.342845 0.056795 1
4.835335 3.319136 0.056591 1
4.840039 3.292938 0.056875 1
4.847614 3.270373 0.056681 1
4.848755 3.241722 0.057455 1
4.849003 3.215472 0.058249 1
4.841215 3.187996 0.060054 1
4.856002 3.167843 0.058860 1
4.864286 3.141652 0.058635 1
4.867570 3.117827 0.058941 1
4.863185 3.091666 0.060247 1
4.867018 3.065486 0.060532 1
4.881797 3.043922 0.059327 1
4.892704 3.021152 0.058622 1
4.888300 2.993873 0.059919 1
4.894883 2.971149 0.059724 1
4.897914 2.946118 0.060020 1
4.901190 2.919891 0.060306 1
4.903703 2.896064 0.060613 1
4.910616 2.870891 0.060398 1
4.905298 2.844989 0.061707 1
4.903718 2.820164 0.062516 1
4.914190 2.796001 0.061800 1
4.924268 2.772986 0.061093 1
4.914739 2.746216 0.062906 1
4.921102 2.721004 0.062691 1
4.926780 2.698173 0.062497 1
4.932675 2.674120 0.062293 1
4.934627 2.649118 0.062590 1
4.932911 2.622006 0.063380 1
4.922803 2.595530 0.065196 1
4.932482 2.571177 0.064479 1
4.941534 2.549184 0.063782 1
4.939161 2.523358 0.064584 1
4.936692 2.497569 0.065385 1
4.918609 2.468479 0.068199 1
4.927584 2.445277 0.067493 1
4.940118 2.424041 0.066293 1
4.941412 2.397945 0.066583 1
4.934347 2.372707 0.067899 1
4.927426 2.346330 0.069207 1
4.916508 2.319265 0.071018 1
4.917408 2.293310 0.071309 1
4.929693 2.270743 0.070099 1
4.945589 2.250023 0.068395 1
4.918671 2.220319 0.072224 1
4.930715 2.197667 0.071014 1
4.942684 2.174947 0.069803 1
4.919361 2.146238 0.073131 1
4.935075 2.124146 0.071415 1
4.927214 2.098177 0.072727 1
4.927095 2.073510 0.073030 1
4.926704 2.050059 0.073343 1
4.926413 2.025421 0.073647 1
4.925858 2.001999 0.073960 1
4.937350 1.977876 0.072738 1
4.928942 1.952145 0.074053 1
4.936164 1.928624 0.073346 0
4.931348 1.904703 0.074166 0
4.942498 1.880452 0.072943 1
4.937665 1.855361 0.073753 0
4.948349 1.833442 0.072550 1
4.947144 1.810058 0.072865 1
4.942330 1.782622 0.073656 1
4.956860 1.759837 0.071936 1
4.943699 1.733985 0.073760 1
4.958068 1.711113 0.072040 1
4.944726 1.685367 0.073865 1
4.931290 1.659722 0.075692 0
4.941349 1.637605 0.074488 0
4.923676 1.612925 0.076832 0
4.921934 1.587345 0.077130 1
4.935814 1.564304 0.075409 0
4.933701 1.541114 0.075726 0
4.931692 1.515539 0.076024 0
4.925545 1.490901 0.076839 1
4.935142 1.467408 0.075625 0
4.924786 1.443755 0.076959 0
4.926303 1.419716 0.076760 1
4.919744 1.396408 0.077587 1
4.921161 1.371186 0.077378 0
4.914500 1.346750 0.078196 1
4.919641 1.322940 0.077489 1
4.920683 1.300122 0.077301 1
4.921699 1.276099 0.077102 1
4.918710 1.250721 0.077403 0
4.903692 1.226160 0.079240 1
4.908415 1.202320 0.078534 1
4.916989 1.179758 0.077328 0
4.913618 1.155653 0.077639 0
4.906172 1.132691 0.078470 1
4.902656 1.107453 0.078773 0
4.914900 1.083657 0.077047 1
4.915160 1.059655 0.076850 0
4.907401 1.035600 0.077672 0
4.899558 1.011601 0.078495 0
-9.670949 1.022193 -0.011705 1
-9.674787 1.049134 -0.011985 1
-9.674561 1.076059 -0.011764 1
-9.682178 1.103098 -0.012543 1
-9.673827 1.129904 -0.011323 2
-9.685224 1.157082 -0.012602 1
-9.688588 1.184142 -0.012881 1
-9.695863 1.209990 -0.013670 1
-9.703009 1.237240 -0.014448 1
-9.702127 1.264262 -0.014227 1
-9.720979 1.292052 -0.016502 1
-9.739731 1.319977 -0.018775 1
-9.738560 1.347126 -0.018554 1
-9.729366 1.373879 -0.017335 1
-9.708191 1.399944 -0.014622 3
-9.721043 1.454965 -0.016175 16
-9.723361 1.482300 -0.016453 15
-9.717664 1.509126 -0.015735 14
-9.711873 1.535918 -0.015017 7
-9.713906 1.563262 -0.015296 5
-9.725595 1.618651 -0.016847 1
-9.715585 1.643727 -0.015644 2
-9.705377 1.670096 -0.014430 1
-9.714841 1.698206 -0.015703 2
-9.712349 1.725266 -0.015484 2
-9.709764 1.752317 -0.015265 1
-9.718929 1.780566 -0.016538 1
-9.700361 1.805976 -0.014331 2
-9.705385 1.833844 -0.015107 1
-9.714253 1.862202 -0.016379 2
-9.707247 1.888801 -0.015664 2
-9.708032 1.916305 -0.015942 2
-9.720536 1.945279 -0.017710 2
-9.709308 1.971361 -0.016499 1
-9.706038 1.997048 -0.016293 2
-9.698748 2.022200 -0.015590 2
-9.714787 2.051894 -0.017852 2
-9.698893 2.079996 -0.016126 2
-9.703119 2.106782 -0.016911 2
-9.703327 2.133028 -0.017201 2
-9.703242 2.160638 -0.017480 2
-9.706983 2.188869 -0.018254 2
-9.706486 2.217871 -0.018521 1
-9.698480 2.242913 -0.017821 2
-9.701697 2.272560 -0.018584 2
-9.708942 2.301558 -0.019852 2
-9.708488 2.327918 -0.020142 1
-9.696218 2.352224 -0.018947 2
-9.687537 2.378513 -0.018237 2
-9.702192 2.409052 -0.020494 2
-9.696969 2.437413 -0.020268 2
-9.691898 2.464406 -0.020052 1
-9.706215 2.495167 -0.022308 1
-9.689526 2.518532 -0.020622 1
-9.691684 2.548415 -0.021384 1
-9.682611 2.573243 -0.020686 2
-9.692329 2.604778 -0.022436 1
-9.679193 2.628757 -0.021245 1
-9.677334 2.656525 -0.021525 1
-9.675375 2.684300 -0.021804 1
-9.685238 2.713328 -0.023575 1
-9.671157 2.739868 -0.022364 1
-9.672767 2.768553 -0.023137 1
-9.666853 2.794115 -0.022934 1
-9.667942 2.824183 -0.023697 1
-9.669238 2.852937 -0.024469 1
-9.662717 2.879831 -0.024257 1
-9.659953 2.907661 -0.024537 1
-9.657089 2.935495 -0.024817 1
-9.650622 2.961004 -0.024616 1
-9.647566 2.988831 -0.024896 1
-9.636732 3.014636 -0.024193 1
-9.637316 3.043467 -0.024966 1
-9.630130 3.070248 -0.024755 1
-9.622850 3.097004 -0.024544 2
-9.627320 3.125594 -0.025819 1
-9.611831 3.151518 -0.024616 2
-9.608464 3.177968 -0.024908 2
-9.612247 3.207963 -0.026172 2
-9.615913 3.238011 -0.027437 2
-9.608048 3.264716 -0.027227 2
-9.619096 3.297119 -0.029473 2
-9.588647 3.315554 -0.026329 2
-9.580102 3.343494 -0.026110 2
-9.579447 3.372443 -0.026884 1
-9.574897 3.400218 -0.027166 1
-9.574027 3.429201 -0.027940 2
-9.554166 3.452086 -0.026261 2
-9.560642 3.483525 -0.028016 1
-9.559895 3.511211 -0.028800 2
-9.536464 3.531344 -0.026643 2
-9.541718 3.565519 -0.028376 2
-9.521898 3.586774 -0.026711 2
-9.528274 3.617038 -0.028475 2
-9.526115 3.647386 -0.029239 2
-9.521030 3.673784 -0.029534 2
-9.518646 3.704157 -0.030298 2
-9.505423 3.729165 -0.029604 2
-9.495844 3.755482 -0.029400 2
-9.504784 3.788668 -0.031642 1
-9.502432 3.817770 -0.032416 1
-9.493041 3.842761 -0.032223 1
-9.486773 3.870453 -0.032508 1
-9.477207 3.895392 -0.032315 1
-9.485539 3.928830 -0.034556 1
-9.467362 3.953472 -0.033366 2
-9.468063 3.984066 -0.034630 1
-9.450231 4.007284 -0.033451 1
-9.447036 4.036398 -0.034226 1
-9.451610 4.067238 -0.035988 1
-9.436644 4.093149 -0.035288 2
-9.425796 4.119223 -0.035088 1
-9.419061 4.145505 -0.035386 1
-9.400728 4.168399 -0.034210 1
-9.403640 4.201936 -0.035952 1
-9.385132 4.224723 -0.034777 1
-9.385296 4.254116 -0.036051 1
-9.367200 4.275497 -0.034888 1
-9.366586 4.306195 -0.036152 1
-9.358611 4.333658 -0.036441 1
-9.354148 4.362754 -0.037218 1
-9.342359 4.388539 -0.037021 1
-9.330480 4.414282 -0.036825 1
-9.318511 4.439984 -0.036628 1
-9.317219 4.470738 -0.037893 1
-9.308637 4.498104 -0.038184 2
-9.296375 4.523729 -0.037989 1
-9.284024 4.549311 -0.037794 1
-9.271585 4.574850 -0.037600 1
-9.266172 4.603866 -0.038378 1
-9.257730 4.629841 -0.038681 2
-9.249193 4.655800 -0.038983 2
-9.225760 4.675828 -0.037332 2
-9.219948 4.704780 -0.038112 2
-9.210493 4.731915 -0.038406 2
-9.210847 4.765794 -0.040148 1
-9.197652 4.791076 -0.039957 2
-9.178017 4.811336 -0.038805 2
-9.161830 4.833376 -0.038138 2
-9.154717 4.863506 -0.038910 2
-9.137691 4.886697 -0.038236 2
-9.124758 4.910473 -0.038056 2
-9.117324 4.940539 -0.038829 2
-9.104212 4.964247 -0.038651 1
-9.086164 4.988457 -0.037969 2
-9.079806 5.015970 -0.038761 1
-9.065033 5.042033 -0.038565 3
-8.992682 5.064415 -0.031904 31
-9.010020 5.105726 -0.036090 53
-9.012750 5.140374 -0.038328 51
-9.014594 5.176322 -0.040556 71
-9.023820 5.215184 -0.043762 22
-9.137486 5.349734 -0.063733 9
-9.063004 5.372621 -0.057070 2
-9.030833 5.386899 -0.054467 2
-9.000024 5.436145 -0.054100 5
-9.022349 5.519473 -0.061471 6
-9.030665 5.557945 -0.064681 9
-8.988085 5.565263 -0.060632 3
-8.990415 5.605284 -0.063331 4
-8.977603 5.631982 -0.063633 5
-8.972113 5.661828 -0.064910 8
-10.422583 6.112731 -0.052647 15
-10.408975 6.142832 -0.052845 11
-10.353676 6.149367 -0.048147 8
-10.227397 6.111571 -0.034902 10
-10.151082 6.143723 -0.029591 50
-10.149875 6.182933 -0.031413 38
-10.161905 6.230768 -0.034861 17
-10.256414 6.334054 -0.048464 10
-10.287806 6.395474 -0.054348 6
-10.268916 6.424505 -0.054133 12
-10.270815 6.465159 -0.056368 12
-10.245051 6.489729 -0.055341 6
-10.222526 6.516398 -0.054721 7
-10.209814 6.549648 -0.055321 10
-10.203555 6.587348 -0.056733 7
-10.203703 6.629565 -0.058957 17
-10.174167 6.651526 -0.057527 16
-10.151115 6.677890 -0.056911 20
-10.121459 6.699599 -0.055484 18
-10.104762 6.730340 -0.055681 13
-10.084704 6.758730 -0.055472 18
-10.072032 6.790265 -0.056086 31
-10.029163 6.802260 -0.053041 35
-10.005634 6.828049 -0.052430 26
-9.982024 6.853745 -0.051819 22
-9.964741 6.884065 -0.052020 25
-9.938787 6.905832 -0.051017 25
-9.918118 6.933642 -0.050814 26
-9.897351 6.961380 -0.050611 23
-9.876489 6.989045 -0.050410 26
-9.856580 7.015258 -0.050219 38
-9.841840 7.047631 -0.050829 52
-9.822762 7.078909 -0.051024 27
-9.792076 7.098971 -0.049611 33
-9.783251 7.136101 -0.051031 31
-9.783624 7.180652 -0.053664 10
-9.771333 7.215360 -0.054680 7
-7.880195 5.776105 0.186960 0
-7.836535 5.773098 0.190737 0
-7.799116 5.774899 0.193705 0
-7.591869 5.737951 0.212856 0
-7.541088 5.730218 0.217443 0
-7.392829 5.701385 0.231162 0
-7.362206 5.706285 0.233307 0
-7.309867 5.693578 0.238280 0
-7.255326 5.713190 0.241373 2
-7.247710 5.739619 0.240295 1
-7.240806 5.765132 0.239211 1
-7.174105 5.737982 0.246189 1
-7.083373 5.689802 0.256393 2
-7.170791 5.835674 0.240132 1
-7.232296 5.927277 0.229392 1
-7.215916 5.944729 0.229515 2
-7.149543 5.916463 0.236485 2
-7.033682 5.841928 0.250298 6
-7.016736 5.859606 0.250422 10
-6.994014 5.871683 0.251350 7
-6.812645 5.727106 0.274790 4
-6.640006 5.590568 0.297021 5
-6.598483 5.581674 0.300753 8
-6.559897 5.575357 0.304081 10
-6.521413 5.568827 0.307408 11
-6.471834 5.550766 0.312340 12
-6.430805 5.540934 0.316065 12
-6.398236 5.539416 0.318583 12
-6.357425 5.529152 0.322305 14
-6.336847 5.537971 0.323209 15
-6.305258 5.535197 0.325718 17
-6.272944 5.533016 0.328231 20
-6.237968 5.527770 0.331144 18
-6.203081 5.522335 0.334055 17
-6.173704 5.522541 0.336163 14
-6.147077 5.525521 0.337869 13
-6.125859 5.534239 0.338771 13
-6.091236 5.528149 0.341678 16
-6.059374 5.524825 0.344182 18
-6.027587 5.521333 0.346685 22
-6.009907 5.531824 0.347178 20
-6.001961 5.554869 0.346072 18
-5.980764 5.562969 0.346969 19
-5.949090 5.558985 0.349468 23
-5.922707 5.560850 0.351165 23
-5.891167 5.556554 0.353661 23
-5.869251 5.564878 0.354560 21
-5.838623 5.559608 0.357050 19
-5.812407 5.560943 0.358742 19
-5.788783 5.565203 0.360033 13
-5.765176 5.569354 0.361324 13
-5.741587 5.573396 0.362613 14
-5.718016 5.577329 0.363902 14
-5.695264 5.580502 0.365185 13
-5.669230 5.581126 0.366872 13
-5.643238 5.581624 0.368558 14
-5.622246 5.588223 0.369444 12
-5.593847 5.585367 0.371527 11
-5.567971 5.585499 0.373211 14
-5.542138 5.585506 0.374893 13
-5.516348 5.585389 0.376574 13
-5.495453 5.591460 0.377455 11
-5.469731 5.591113 0.379134 12
-5.446458 5.593814 0.380413 12
-5.426404 5.598986 0.381288 12
-5.407930 5.607866 0.381767 11
-5.383891 5.610876 0.383047 13
-5.360683 5.613178 0.384323 13
-5.335153 5.612161 0.385997 13
-5.310477 5.610437 0.387666 13
-5.289695 5.615641 0.388540 13
-5.266603 5.617517 0.389813 15
-5.245842 5.622536 0.390685 15
-5.215920 5.614449 0.393153 14
-5.192935 5.615996 0.394423 13
-5.169979 5.617439 0.395692 13
-5.144794 5.615500 0.397359 13
-5.126400 5.623301 0.397829 13
-5.099053 5.617853 0.399892 13
-5.082896 5.628779 0.399962 12
-5.063089 5.632489 0.400825 11
-5.047692 5.642752 0.400891 11
-5.031449 5.653499 0.400959 9
-5.006458 5.650863 0.402621 10
-4.983688 5.651448 0.403883 10
-4.963106 5.655278 0.404746 11
-4.942534 5.659021 0.405608 12
-4.917711 5.655955 0.407266 12
-4.897184 5.659510 0.408127 13
-4.872453 5.656226 0.409784 14
-4.849876 5.656210 0.411041 13
-4.828149 5.655592 0.412295 16
-4.805645 5.655379 0.413551 15
-4.783176 5.655066 0.414806 14
-4.759931 5.655141 0.416063 15
-4.738350 5.654140 0.417314 15
-4.715993 5.653527 0.418567 19
-4.695688 5.656250 0.419421 19
-4.671395 5.652005 0.421070 20
-4.653132 5.657991 0.421525 18
-4.632883 5.660452 0.422378 18
-4.609534 5.655444 0.424022 19
-4.593248 5.664661 0.424077 19
-4.571106 5.663398 0.425325 19
-4.549006 5.662037 0.426572 21
-4.528863 5.664067 0.427421 22
-4.506833 5.662519 0.428667 23
-4.488630 5.667876 0.429117 23
-4.462899 5.659132 0.431156 24
-4.444733 5.664323 0.431604 24
-4.422850 5.662403 0.432847 25
-4.399166 5.656858 0.434486 26
-4.381045 5.661808 0.434933 28
-4.358275 5.655649 0.436568 31
-4.338376 5.656897 0.437411 30
-4.316702 5.654510 0.438650 31
-4.295073 5.652030 0.439889 31
-4.277031 5.656584 0.440333 30
-4.253712 5.650357 0.441967 28
-4.233955 5.651178 0.442806 28
-4.214221 5.651918 0.443645 27
-4.197949 5.659756 0.443689 24
-4.178236 5.660347 0.444527 25
-4.155154 5.653653 0.446157 25
-4.142242 5.668499 0.445406 25
-4.130923 5.686925 0.444259 24
-4.107901 5.679996 0.445887 26
-4.088242 5.680214 0.446722 27
-4.069426 5.679983 0.447554 30
-4.052256 5.683315 0.447988 30
-4.031841 5.683667 0.448823 30
-4.013865 5.687221 0.449259 31
-3.994308 5.687054 0.450090 31
-3.974777 5.686809 0.450921 32
-3.955272 5.686483 0.451752 33
-3.938157 5.689404 0.452183 33
-3.918693 5.688930 0.453012 32
-3.900775 5.692057 0.453444 33
-3.877524 5.684397 0.455067 33
-3.859648 5.687369 0.455498 35
-3.842595 5.689946 0.455926 37
-3.822610 5.685061 0.457147 35
-3.800224 5.681059 0.458372 33
-3.781790 5.679714 0.459195 35
-3.761955 5.674582 0.460414 34
-3.743374 5.677432 0.460843 37
-3.725613 5.679902 0.461270 35
-3.706467 5.678574 0.462093 35
-3.685976 5.673435 0.463311 38
-3.668269 5.675689 0.463736 35
-3.650567 5.677877 0.464161 35
-3.631012 5.672209 0.465376 36
-3.615491 5.677722 0.465402 33
-3.595690 5.676240 0.466222 32
-3.578856 5.677874 0.466644 33
-3.559925 5.675960 0.467462 35
-3.541482 5.678019 0.467884 35
-3.525123 5.683508 0.467909 35
-3.505824 5.677330 0.469120 36
-3.489467 5.682695 0.469144 37
-3.470652 5.680426 0.469959 38
-3.453077 5.681875 0.470378 37
-3.435511 5.683259 0.470797 39
-3.418772 5.684323 0.471213 37
-3.400056 5.681774 0.472026 37
-3.382865 5.687018 0.472048 35
-3.365013 5.684083 0.472859 38
-3.347505 5.685139 0.473275 34
-3.328893 5.682309 0.474086 36
-3.312520 5.687057 0.474105 37
-3.293954 5.684089 0.474914 36
-3.277575 5.688715 0.474932 35
-3.260119 5.689447 0.475346 28
-3.240577 5.682435 0.476549 33
-3.224204 5.686874 0.476566 27
-3.333414 6.164459 0.427923 20
-3.315359 6.169219 0.427940 23
-3.296294 6.170062 0.428352 21
-3.275277 6.163120 0.429555 25
-3.259099 6.171312 0.429174 23
-3.226641 6.113764 0.435517 13
-3.204055 6.098814 0.437508 26
-3.183445 6.091512 0.438709 16
-3.163816 6.088001 0.439513 8
-3.171255 6.204815 0.428056 4
-3.939341 9.789728 0.063843 4
-3.901759 9.765489 0.067026 3
-3.868603 9.760541 0.068230 3
-3.836337 9.759361 0.069038 3
-3.808912 9.773321 0.068262 3
-3.776572 9.763809 0.069858 3
-3.745168 9.766192 0.070268 2
-3.712209 9.760656 0.071467 3
-3.679312 9.754997 0.072666 3
-3.647227 9.753124 0.073468 3
-3.612172 9.743600 0.075061 3
-3.578734 9.733654 0.076652 3
-3.541831 9.704000 0.080219 2
-3.515742 9.724869 0.078645 1
-3.458316 9.747019 0.077471 2
-3.426450 9.744340 0.078267 1
-3.390114 9.714050 0.081830 1
-3.362830 9.738636 0.079856 1
-3.292127 9.685257 0.086186 3
-3.262720 9.685686 0.086582 2
-2.688427 6.225554 0.434919 17
-2.662141 6.168898 0.440848 6
-3.073889 9.659716 0.091708 3
-3.041671 9.647749 0.093284 2
-3.009550 9.635662 0.094859 1
-2.512278 5.974813 0.461779 26
-2.493207 5.952869 0.464146 30
-2.474288 5.930854 0.466512 33
-2.454998 5.920822 0.467692 32
-2.437505 5.910549 0.468871 36
-2.418488 5.892368 0.470841 38
-2.400673 5.886008 0.471624 40
-2.382566 5.875618 0.472802 41
-2.364537 5.865160 0.473979 41
-2.347216 5.862573 0.474365 46
-2.328712 5.844048 0.476333 60
-2.311780 5.845304 0.476322 58
-2.295143 5.838500 0.477103 60
-2.278230 5.839638 0.477092 61
-2.261315 5.840717 0.477080 104
-2.243463 5.825843 0.478649 104
-2.226596 5.826801 0.478637 104
-2.208649 5.839712 0.477436 107
-2.192389 5.836532 0.477818 107
-2.176507 5.841250 0.477409 107
-2.158251 5.830078 0.478580 107
-2.142213 5.830707 0.478566 107
-2.125329 5.831311 0.478550 107
-2.108687 5.839814 0.477743 107
-2.091772 5.840302 0.477726 107
-2.074666 5.832771 0.478500 107
-2.058017 5.845078 0.477296 35
-2.043077 5.964784 0.465407 58
-2.026620 6.032702 0.458661 52
-2.008916 6.020961 0.459829 53
-1.991344 6.017119 0.460204 44
-1.973822 6.021176 0.459787 43
-1.957148 6.029153 0.458976 49
-1.939524 6.041051 0.457767 43
-1.922208 6.001144 0.461702 49
-1.904863 5.989039 0.462867 52
-1.886735 6.036574 0.458094 45
-1.870352 5.968630 0.464799 60
-1.852305 6.000120 0.461608 33
-1.835031 5.991753 0.462375 46
-1.816794 6.019136 0.459579 43
-1.799127 6.022582 0.459157 43
-1.781435 6.025965 0.458735 43
-1.763098 6.045196 0.456728 48
-1.746182 6.048490 0.456306 48
-1.728722 6.043734 0.456674 45
-1.710902 6.046870 0.456250 49
-1.692385 6.045920 0.456219 50
-1.675635 6.045003 0.456191 46
-1.658007 6.043978 0.456161 44
-1.640633 6.038918 0.456527 45
-1.622231 6.049685 0.455308 47
-1.604865 6.044503 0.455672 44
-1.586653 6.051169 0.454848 38
-1.569004 6.049833 0.454816 42
-1.551680 6.044468 0.455179 47
-1.533719 6.046976 0.454749 50
-1.516619 6.049498 0.454320 47
-1.499497 6.051961 0.453891 46
-1.481846 6.050321 0.453856 46
-1.464588 6.044658 0.454217 46
-1.446962 6.042896 0.454181 46
-1.428095 6.052948 0.452955 44
-1.410440 6.051058 0.452918 44
-1.392349 6.053062 0.452484 42
-1.374237 6.055002 0.452050 41
-1.357518 6.045020 0.452804 46
-1.338836 6.058795 0.451181 41
-1.321659 6.052645 0.451538 43
-1.302983 6.058278 0.450704 41
-1.285311 6.055952 0.450664 39
-1.267646 6.053564 0.450622 40
-1.249438 6.055056 0.450184 36
-1.231210 6.056482 0.449745 36
-1.212384 6.061780 0.448909 40
-1.195888 6.051267 0.449659 38
-1.178241 6.048566 0.449615 35
-1.158738 6.057599 0.448380 40
-1.141069 6.054769 0.448336 40
-1.122761 6.055805 0.447893 41
-1.105098 6.052849 0.447847 34
-1.086770 6.053755 0.447404 35
-1.069308 6.054749 0.446963 34
-1.050243 6.059443 0.446121 35
-1.031852 6.060149 0.445676 37
-1.014905 6.052964 0.446025 37
-0.995765 6.057452 0.445181 34
-0.976582 6.061868 0.444337 31
-0.958128 6.062307 0.443890 34
-0.939659 6.062679 0.443442 33
-0.921974 6.059084 0.443391 33
-0.903489 6.059325 0.442942 32
-0.884164 6.063391 0.442095 27
-0.864798 6.067384 0.441247 28
-0.847097 6.063528 0.441194 26
-0.828543 6.063495 0.440742 27
-0.809976 6.063395 0.440291 25
-0.794065 6.055672 0.440636 22
-0.773687 6.063196 0.439388 21
-0.755081 6.062895 0.438934 20
-0.738329 6.054787 0.439276 19
-0.720673 6.050489 0.439219 20
-0.702071 6.049993 0.438764 22
-0.682485 6.053288 0.437910 20
-0.662859 6.056507 0.437055 16
-0.648199 6.040389 0.438191 19
-0.627551 6.047324 0.436937 18
-0.606839 6.054175 0.435683 16
-0.589186 6.049419 0.435622 17
-0.569441 6.052277 0.434765 16
-0.551794 6.047390 0.434703 18
-0.532885 6.050352 0.433847 18
-0.513941 6.053244 0.432991 17
-0.495186 6.051987 0.432530 17
-0.475301 6.054480 0.431669 16
-0.458781 6.045448 0.432003 18
-0.437720 6.051610 0.430743 16
-0.418035 6.049801 0.430275 16
-0.401279 6.044658 0.430213 19
-0.380102 6.050582 0.428950 16
-0.362781 6.040961 0.429278 20
-0.342749 6.042934 0.428413 18
-0.322684 6.044828 0.427548 16
-0.302229 6.050716 0.426286 16
-0.284219 6.048967 0.425821 17
-0.264824 6.042493 0.425744 19
-0.245935 6.040312 0.425275 21
-0.225748 6.041825 0.424406 18
-0.206411 6.043564 0.423540 20
-0.188360 6.041475 0.423072 18
-0.169874 6.034945 0.422996 19
-0.151826 6.032726 0.422527 20
-0.130181 6.037607 0.421256 18
-0.111710 6.030864 0.421178 21
-0.090872 6.035902 0.419908 21
-0.073286 6.029345 0.419833 20
-0.053436 6.026115 0.419354 18
-0.032497 6.030916 0.418082 20
-0.012939 6.031920 0.417210 16
0.007526 6.032506 0.416333 18
0.025977 6.025259 0.416251 20
0.047350 6.025338 0.415369 23
0.069358 6.029374 0.414090 19
0.090539 6.033675 0.412814 19
0.111771 6.037891 0.411537 18
0.127193 6.022909 0.412252 18
0.152419 6.033946 0.410170 18
0.172217 6.034243 0.409292 21
0.192920 6.034088 0.408408 18
0.215223 6.037505 0.407124 18
0.232813 6.029880 0.407040 17
0.253576 6.029480 0.406154 17
0.275977 6.032635 0.404868 15
0.297680 6.031669 0.403976 15
0.317648 6.031406 0.403093 13
0.336867 6.027044 0.402605 16
0.357746 6.026224 0.401716 17
0.382001 6.032539 0.400025 13
0.401261 6.027935 0.399535 16
0.417114 6.016062 0.399847 18
0.436341 6.011323 0.399356 19
0.461594 6.021278 0.397265 17
0.482602 6.019952 0.396371 18
0.503630 6.018541 0.395477 16
0.526441 6.020612 0.394181 18
0.545745 6.015462 0.393687 17
0.566832 6.013793 0.392791 16
0.587937 6.012039 0.391894 16
0.612687 6.017283 0.390193 14
0.632028 6.011806 0.389696 16
0.652325 6.010242 0.388802 13
0.674489 6.012123 0.387505 14
0.699430 6.016965 0.385800 16
0.724438 6.021695 0.384095 17
0.746616 6.018829 0.383188 16
0.766035 6.012846 0.382686 12
0.789265 6.013771 0.381380 11
0.816381 6.021564 0.379269 13
0.833911 6.011840 0.379168 16
0.859194 6.015938 0.377457 13
0.878662 6.009529 0.376952 13
0.902062 6.009959 0.375642 13
0.926607 6.014242 0.373934 13
0.946104 6.007576 0.373427 13
0.968471 6.003762 0.372511 18
0.989976 6.000366 0.371600 13
1.016710 6.007667 0.369486 11
1.039442 6.008014 0.368175 13
1.063958 6.007210 0.366854 13
1.085568 6.003424 0.365939 13
1.107188 5.999548 0.365024 15
1.131781 5.998430 0.363700 18
1.157636 6.001121 0.361977 17
1.180560 6.000869 0.360662 17
1.203516 6.000520 0.359345 17
1.223978 5.992247 0.358824 16
1.249996 5.994499 0.357097 16
1.271748 5.989946 0.356176 17
1.297851 5.991971 0.354448 21
1.320952 5.991120 0.353127 18
1.341889 5.986851 0.352210 15
1.368987 5.987961 0.350472 16
1.392177 5.986807 0.349149 15
1.418494 5.988261 0.347415 16
1.440383 5.983014 0.346489 17
1.469030 5.987518 0.344349 17
1.487305 5.974915 0.344223 17
1.516041 5.979174 0.342081 25
1.542562 5.980037 0.340342 26
1.571429 5.984024 0.338197 23
1.588821 5.971664 0.338075 27
1.616902 5.976034 0.335934 22
1.638928 5.969966 0.335001 25
1.663298 5.967023 0.333661 26
1.687690 5.963970 0.332321 29
1.712105 5.960807 0.330980 24
1.738918 5.960726 0.329233 26
1.764909 5.961169 0.327492 30
1.791809 5.960839 0.325743 29
1.824437 5.966057 0.323175 32
1.844185 5.955974 0.322640 30
1.875196 5.962235 0.320083 28
1.907158 5.967670 0.317518 17
2.353649 6.502575 0.246390 34
2.431962 6.562490 0.236504 29
2.401883 6.484788 0.244471 22
2.348951 6.379393 0.256095 29
2.617297 6.674254 0.215346 24
2.529305 6.525341 0.232653 8
2.395020 6.321640 0.257279 7
2.360494 6.241869 0.265663 20
2.411783 6.266588 0.260234 25
2.394462 6.208519 0.265776 19
2.412632 6.193285 0.265629 12
2.312495 6.038264 0.284186 8
2.779212 6.550271 0.213274 8
2.345112 5.973670 0.286615 14
2.273662 5.856535 0.300308 30
2.809802 6.434348 0.219569 29
3.002509 6.614598 0.192537 13
2.313761 5.800029 0.301509 14
2.372959 5.832526 0.294849 14
2.392480 5.820326 0.294296 7
2.714130 6.141038 0.247696 10
2.775009 6.171688 0.241019 21
3.189133 6.585553 0.180933 27
3.501742 6.881804 0.136713 16
3.521227 6.863657 0.136541 29
2.584372 5.827486 0.279555 17
2.642228 5.854950 0.273283 21
2.661906 5.841735 0.272722 13
2.693412 5.839115 0.270520 16
2.844914 5.963885 0.250367 11
3.605814 6.711462 0.140758 12
3.032627 6.086550 0.227582 7
3.072720 6.091751 0.224148 7
3.093281 6.076973 0.223574 9
3.105357 6.053674 0.224225 9
3.122980 6.035959 0.224058 14
3.108500 5.988340 0.228397 17
3.154323 5.998455 0.224140 15
3.148933 5.958377 0.227245 17
3.186259 5.959859 0.224213 17
3.238016 5.974912 0.219132 14
3.272651 5.973199 0.216506 14
3.307338 5.971305 0.213877 19
3.272463 5.903856 0.221078 28
3.228453 5.828570 0.229510 33
3.353307 5.910459 0.214179 28
3.431934 5.948440 0.205398 30
3.463878 5.943001 0.203172 26
3.540062 5.977492 0.194794 19
3.589940 5.987548 0.190103 14
3.607329 5.968142 0.189923 21
3.674357 5.994570 0.182775 14
3.706689 5.988029 0.180539 14
3.712105 5.957729 0.181998 23
3.757276 5.960399 0.178109 21
3.806830 5.970016 0.173415 23
3.839258 5.962802 0.171174 19
3.853528 5.939947 0.171398 40
3.907209 5.950447 0.166277 28
3.945797 5.947842 0.163210 42
4.005831 5.962860 0.157262 30
4.059911 5.972445 0.152134 22
4.129500 5.994343 0.144946 12
4.205480 6.020847 0.136931 14
4.188972 5.971741 0.141260 17
4.085392 5.852984 0.157120 29
4.164485 5.881509 0.148690 41
4.300828 5.952947 0.132830 48
4.346229 5.953206 0.128921 35
4.415919 5.973918 0.121723 39
4.442682 5.958947 0.120282 36
4.475722 5.948707 0.118016 30
4.556170 5.974555 0.109561 38
4.616993 5.986613 0.103588 45
4.630326 5.962376 0.103802 43
4.669909 5.956035 0.100702 44
4.690370 5.935234 0.100078 41
4.761982 5.952156 0.092847 40
4.798492 5.942770 0.090155 40
4.880061 5.965955 0.081677 36
4.918446 5.953620 0.078959 35
4.954247 5.944685 0.076271 40
5.003032 5.944794 0.071929 36
5.046256 5.938818 0.068400 33
5.076492 5.923465 0.066523 35
5.080582 5.889780 0.067955 24
5.130351 5.887783 0.063594 23
5.153941 5.867499 0.062542 25
5.176629 5.848357 0.061501 24
5.216593 5.839005 0.058376 25
5.263188 5.833864 0.054421 28
5.313146 5.830661 0.050050 20
5.350731 5.817121 0.047323 16
5.383309 5.803754 0.045031 16
5.410046 5.784597 0.043556 14
5.426710 5.758839 0.043325 11
5.439935 5.730876 0.043507 9
5.442982 5.696476 0.044935 14
5.472798 5.679094 0.043042 9
5.502583 5.661561 0.041149 7
5.515438 5.633381 0.041330 6
5.524800 5.603081 0.041927 3
5.506094 5.557471 0.045860 2
5.511763 5.525186 0.046873 2
5.514673 5.489560 0.048291 2
5.513229 5.453238 0.050137 3
5.523575 5.388855 0.052166 2
5.531223 5.360003 0.052777 3
5.530444 5.289768 0.056058 17
5.541924 5.261623 0.056241 25
5.563690 5.239321 0.055175 24
5.561097 5.203308 0.057025 21
5.593119 5.186687 0.054707 18
5.639054 5.177573 0.050721 11
5.626343 5.067625 0.056689 2
5.640504 5.041115 0.056454 2
5.654573 5.014557 0.056219 2
5.654454 4.980564 0.057654 2
5.664091 4.953454 0.057848 2
5.677853 4.926813 0.057613 2
5.680895 4.894695 0.058631 2
5.701550 4.871592 0.057559 2
5.704361 4.839465 0.058577 2
5.710603 4.809139 0.059178 2
5.727428 4.784098 0.058523 2
5.733453 4.753742 0.059124 2
5.735779 4.721654 0.060143 2
5.737976 4.689596 0.061162 2
5.757999 4.666121 0.060089 2
5.763563 4.635758 0.060689 1
5.765407 4.603716 0.061710 1
5.763511 4.570033 0.063149 0
5.771701 4.542738 0.063344 0
5.791270 4.519021 0.062268 1
5.789619 4.484045 0.063697 1
5.790243 4.453455 0.064731 1
5.794387 4.424510 0.065345 0
5.799609 4.392868 0.065936 1
5.796820 4.359419 0.067378 1
5.807926 4.333675 0.067154 1
5.827421 4.308298 0.066065 0
5.823699 4.276264 0.067520 1
5.820416 4.242933 0.068964 1
5.828584 4.212871 0.069136 1
5.821356 4.178121 0.071002 1
5.828175 4.150801 0.071198 1
5.831208 4.121987 0.071815 0
5.834675 4.091827 0.072420 1
5.838562 4.060320 0.073014 1
5.848677 4.034440 0.072789 1
5.863992 4.005862 0.072107 1
5.855863 3.971441 0.073977 1
5.854519 3.941288 0.075016 1
5.864238 3.915355 0.074792 1
5.871654 3.883909 0.074953 1
5.877447 3.856553 0.075150 1
5.886886 3.830545 0.074925 1
5.867256 3.791041 0.078052 1
5.880710 3.765026 0.077394 1
5.886569 3.736323 0.077580 1
5.891850 3.708983 0.077778 1
5.897504 3.680268 0.077963 1
5.884216 3.645169 0.080262 1
5.900955 3.620293 0.079181 1
5.902510 3.590336 0.079790 1
5.900619 3.557793 0.080811 1
5.909066 3.531709 0.080586 1
5.898482 3.499548 0.082477 1
5.907600 3.470726 0.082230 1
5.908165 3.442252 0.082852 1
5.916651 3.414770 0.082617 1
5.913625 3.383786 0.083651 0
5.918098 3.355141 0.083839 1
5.914840 3.324233 0.084875 0
5.919097 3.295611 0.085063 0
5.915608 3.264780 0.086100 0
5.927301 3.238363 0.085441 1
5.927418 3.208660 0.086054 0
5.931257 3.180048 0.086243 0
5.931156 3.150386 0.086856 0
5.934783 3.121788 0.087046 0
5.953682 3.097285 0.085536 0
5.937521 3.064964 0.087861 0
5.944691 3.037381 0.087626 0
5.951764 3.009773 0.087391 0
5.951027 2.980200 0.088006 0
5.950180 2.950657 0.088622 0
5.960814 2.923974 0.087961 0
5.952354 2.891210 0.089417 0
5.950850 2.863126 0.090045 0
5.965063 2.837303 0.088959 0
5.975314 2.810515 0.088298 0
5.966076 2.779299 0.089767 0
5.968366 2.750756 0.089958 0
5.974439 2.723067 0.089724 0
5.972638 2.693687 0.090342 0
5.990186 2.668448 0.088828 0
5.956743 2.633986 0.092870 0
5.958511 2.605544 0.093063 0
5.959902 2.578492 0.093268 0
5.949765 2.547760 0.094742 0
5.967110 2.521018 0.093216 0
5.960658 2.491114 0.094264 0
5.957748 2.463382 0.094897 0
5.966731 2.436446 0.094237 0
5.956293 2.404582 0.095702 0
5.965075 2.377624 0.095041 0
5.961770 2.349987 0.095675 0
5.946603 2.320408 0.097593 0
5.967323 2.292616 0.095626 0
5.960017 2.263040 0.096678 0
5.964387 2.235384 0.096446 0
5.956869 2.205901 0.097498 0
5.949241 2.176486 0.098551 0
5.953310 2.148867 0.098320 0
5.968896 2.124307 0.096814 0
5.968652 2.097455 0.097023 0
5.945046 2.064634 0.099781 0
5.952486 2.038934 0.099133 0
5.967907 2.012832 0.097615 0
5.955792 1.981788 0.099088 0
5.959181 1.954148 0.098857 0
5.966260 1.928347 0.098209 0
5.965512 1.900217 0.098407 0
5.917082 1.868199 0.103773 0
5.935891 1.842402 0.101825 0
5.938936 1.813454 0.101584 0
5.925910 1.784279 0.103074 0
5.920561 1.757351 0.103716 0
5.911289 1.728721 0.104778 0
5.909834 1.700880 0.104980 0
5.920285 1.672714 0.103879 0
5.918633 1.644871 0.104081 0
5.900917 1.617157 0.106017 0
5.906999 1.590013 0.105359 0
5.912888 1.564209 0.104712 0
5.910853 1.536445 0.104915 0
5.908809 1.507330 0.105107 0
5.906573 1.479610 0.105311 0
5.908210 1.452145 0.105083 0
5.913721 1.424893 0.104425 0
5.887367 1.395965 0.107218 0
5.876796 1.367993 0.108287 0
5.897846 1.342893 0.105913 0
5.899005 1.315459 0.105687 0
5.904043 1.288172 0.105029 0
5.889114 1.260170 0.106531 0
5.901909 1.233136 0.105008 0
5.882810 1.205143 0.106944 0
5.891440 1.177953 0.105853 0
5.903951 1.150786 0.104330 0
5.904439 1.123333 0.104104 0
5.884952 1.095609 0.106043 0
5.897177 1.068341 0.104519 0
5.885449 1.040834 0.105593 0
5.885554 1.013445 0.105368 0
5.873634 0.986062 0.106443 0
5.877531 0.960067 0.105797 0
5.873389 0.934103 0.106017 0
5.881074 0.906673 0.104926 0
5.805167 0.880367 0.112942 0
5.872301 0.852069 0.105345 0
5.808139 0.826070 0.112065 0
5.807496 0.798952 0.111843 0
5.794833 0.772172 0.112924 0
5.778147 0.746954 0.114451 0
5.789149 0.719526 0.112928 0
5.760213 0.690848 0.115727 0
5.775047 0.664577 0.113780 0
5.765958 0.639287 0.114440 0
5.760691 0.612512 0.114655 0
5.763273 0.585353 0.114001 0
5.753849 0.558838 0.114652 0
5.740365 0.532619 0.115738 0
5.762422 0.502894 0.112897 0
5.732878 0.477787 0.115726 0
5.743014 0.451445 0.114212 0
-10.925274 1.025992 0.005629 3
-10.917166 1.057221 0.006732 3
-10.916904 1.088482 0.006988 3
-10.924487 1.119857 0.006398 2
-10.927984 1.151214 0.006231 2
-10.939323 1.182769 0.005218 3
-10.930671 1.213907 0.006320 3
-10.941790 1.245554 0.005308 3
-10.948871 1.275585 0.004706 3
-10.951821 1.307095 0.004540 3
-10.966586 1.339092 0.003107 3
-10.957392 1.370188 0.004207 2
-10.987825 1.403041 0.001087 2
-10.986356 1.434547 0.001343 3
-10.980804 1.465837 0.002022 3
-10.969377 1.528317 0.003377 10
-10.955561 1.559004 0.004897 11
-10.969422 1.591456 0.003467 14
-10.971264 1.623175 0.003301 14
-10.961092 1.654036 0.004398 2
-10.962712 1.685753 0.004232 2
-10.976242 1.716877 0.002790 2
-10.981735 1.747432 0.002191 2
-10.979064 1.778914 0.002446 2
-10.983921 1.814257 0.001885 3
-10.973245 1.843422 0.002968 2
-10.982267 1.874466 0.001948 2
-10.983110 1.906351 0.001783 2
-10.975928 1.937421 0.002457 3
-10.980503 1.969741 0.001871 2
-10.977056 2.001217 0.002125 2
-10.985172 2.035628 0.001132 2
-10.977545 2.066648 0.001805 2
-10.977900 2.097025 0.001627 3
-10.978151 2.127417 0.001448 3
-10.978099 2.159395 0.001282 2
-10.993706 2.193489 -0.000561 2
-10.989263 2.226585 -0.000295 2
-10.984919 2.258091 -0.000042 2
-10.988565 2.289140 -0.000640 2
-10.987939 2.321223 -0.000806 2
-10.995065 2.354505 -0.001809 2
-10.982411 2.384814 -0.000719 3
-10.989304 2.418159 -0.001723 2
-10.988217 2.450299 -0.001889 2
-10.987018 2.482448 -0.002055 2
-10.993814 2.514355 -0.003070 2
-10.992385 2.546550 -0.003236 2
-10.978813 2.578260 -0.002136 2
-10.989185 2.610965 -0.003568 2
-10.987412 2.643184 -0.003735 2
-10.993053 2.678448 -0.004724 2
-10.991040 2.710708 -0.004890 2
-10.981101 2.741459 -0.004221 3
-10.978863 2.773704 -0.004388 2
-10.965125 2.802027 -0.003316 2
-10.978259 2.837437 -0.005151 2
-10.975677 2.869712 -0.005318 2
-10.976872 2.902817 -0.005902 2
-10.985723 2.937632 -0.007319 2
-10.971127 2.967415 -0.006236 2
-10.956779 2.995550 -0.005166 2
-10.957512 3.028696 -0.005750 2
-10.969753 3.064548 -0.007583 2
-10.966358 3.096887 -0.007750 2
-10.951236 3.126467 -0.006669 2
-10.951486 3.159701 -0.007253 3
-10.959342 3.194855 -0.008668 3
-10.948146 3.223722 -0.008017 2
-10.948037 3.257024 -0.008601 3
-10.935843 3.288959 -0.007925 2
-10.931643 3.321271 -0.008094 3
-10.923478 3.352569 -0.007847 3
-10.919048 3.384865 -0.008016 3
-10.910662 3.416118 -0.007770 3
-10.906003 3.448396 -0.007939 3
-10.901661 3.479111 -0.008121 3
-10.901042 3.510903 -0.008717 3
-10.895152 3.546304 -0.008863 3
-10.882832 3.574808 -0.008215 3
-10.881873 3.606618 -0.008812 2
-10.876527 3.638873 -0.008983 2
-10.882493 3.674561 -0.010396 3
-10.884040 3.710721 -0.011383 2
-10.870715 3.740676 -0.010725 2
-10.864885 3.772945 -0.010896 2
-10.851352 3.802807 -0.010239 2
-10.857159 3.837122 -0.011664 2
-10.854764 3.870608 -0.012249 3
-10.844683 3.901634 -0.012007 2
-10.838782 3.932327 -0.012191 2
-10.832258 3.964561 -0.012363 2
-10.821325 3.997054 -0.012110 2
-10.837145 4.037004 -0.014761 2
-10.834001 4.070577 -0.015347 2
-10.816255 4.097348 -0.014292 2
-10.812881 4.130898 -0.014878 2
-10.805084 4.164663 -0.015039 2
-10.798275 4.195329 -0.015224 2
-10.798267 4.230264 -0.016222 2
-10.790662 4.262473 -0.016396 2
-10.786090 4.297604 -0.016970 2
-10.771379 4.325441 -0.016331 2
-10.767729 4.357479 -0.016930 2
-10.770795 4.393933 -0.018341 2
-10.755181 4.423216 -0.017691 2
-10.750574 4.456810 -0.018278 2
-10.745840 4.490414 -0.018865 2
-10.744670 4.525512 -0.019863 2
-10.732304 4.556149 -0.019627 2
-10.723511 4.588255 -0.019803 2
-10.718276 4.621867 -0.020391 2
-10.723924 4.660096 -0.022212 2
-10.711088 4.690660 -0.021977 2
-10.705464 4.724304 -0.022565 2
-10.681443 4.750078 -0.021097 2
-10.672602 4.780561 -0.021287 2
-10.678227 4.817424 -0.023119 2
-10.664843 4.847828 -0.022886 2
-10.654984 4.879810 -0.023064 2
-10.641381 4.910132 -0.022832 2
-10.627673 4.940407 -0.022601 2
-10.631239 4.980460 -0.024410 3
-10.620893 5.012375 -0.024589 3
-10.607534 5.041069 -0.024370 2
-10.590484 5.068018 -0.023741 2
-10.575509 5.099617 -0.023500 2
-10.561860 5.128160 -0.023283 2
-10.590346 5.179005 -0.027972 4
-10.557099 5.201850 -0.025683 11
-10.491935 5.244001 -0.021133 39
-10.506248 5.286564 -0.024193 72
-10.548007 5.345159 -0.030516 34
-10.656142 5.474631 -0.046030 2
-10.675765 5.523315 -0.049890 6
-10.649346 5.548161 -0.048434 15
-10.695915 5.613476 -0.055552 6
-10.718368 5.664546 -0.059818 3
-10.706350 5.695444 -0.060008 3
-10.696897 5.729735 -0.060595 3
-10.676838 5.758288 -0.059957 5
-10.667138 5.792525 -0.060545 7
-10.643396 5.819016 -0.059499 6
-10.650812 5.862915 -0.062129 10
-10.609531 5.879509 -0.059045 10
-10.592441 5.909667 -0.058818 8
-10.583009 5.942224 -0.059419 8
-10.569143 5.974282 -0.059602 6
-10.537975 5.996275 -0.057746 7
-10.508435 6.023112 -0.056276 8
-10.495149 6.053458 -0.056472 7
-10.485169 6.085812 -0.057076 8
-11.511195 8.132594 -0.082503 2
-11.484303 8.161825 -0.081924 2
-11.468765 8.202247 -0.082727 2
-11.443563 8.235389 -0.082486 2
-11.418244 8.268443 -0.082246 2
-7.877947 5.577024 0.306267 0
-7.508185 5.447483 0.339329 0
-7.474023 5.451779 0.341553 0
-7.462304 5.472554 0.341338 0
-7.418916 5.468981 0.344601 0
-7.403266 5.488006 0.344738 0
-7.366109 5.489132 0.347305 0
-7.341228 5.500293 0.348481 0
-7.319379 5.513905 0.349310 0
-7.300537 5.530001 0.349791 0
-7.278620 5.543429 0.350618 0
-7.211404 5.517727 0.356645 0
-7.150451 5.496837 0.361976 0
-7.122706 5.504432 0.363492 0
-7.101742 5.516258 0.364307 0
-6.991883 5.513895 0.371961 2
-6.955400 5.512707 0.374509 4
-6.922719 5.513138 0.376703 4
-6.866853 5.526886 0.379722 12
-6.845964 5.537699 0.380529 12
-6.827169 5.551999 0.380995 12
-6.805437 5.563487 0.381806 11
-6.783683 5.574879 0.382617 12
-6.759030 5.583419 0.383772 12
-6.748722 5.605671 0.383198 14
-6.715441 5.605702 0.385389 15
-6.676518 5.599987 0.388268 14
-6.646214 5.602442 0.390110 13
-6.607459 5.596327 0.392987 14
-6.580890 5.600451 0.394476 13
-6.547114 5.600404 0.396665 14
-6.520610 5.604250 0.398151 15
-6.492521 5.609553 0.399648 15
-6.449378 5.596017 0.403202 14
-6.411117 5.588749 0.406070 12
-6.378484 5.587017 0.408246 11
-6.348670 5.587996 0.410077 9
-6.313419 5.583038 0.412596 9
-6.279056 5.577137 0.415108 9
-6.243982 5.571805 0.417624 8
-6.200863 5.557525 0.421172 8
-6.168701 5.554718 0.423340 9
-6.139302 5.554682 0.425163 9
-6.099231 5.542703 0.428362 10
-6.067307 5.539373 0.430526 11
-6.040776 5.541811 0.432001 11
-6.003679 5.532212 0.434851 12
-5.974618 5.531368 0.436668 14
-5.951662 5.535670 0.437790 21
-5.912214 5.522540 0.440980 18
-5.885950 5.524254 0.442450 19
-5.851927 5.516775 0.444949 20
-5.830942 5.524268 0.445729 21
-5.825414 5.549910 0.444445 12
-5.799223 5.551177 0.445911 15
-5.773071 5.552316 0.447375 15
-5.744412 5.550262 0.449182 18
-5.724214 5.556634 0.449953 19
-5.695645 5.554323 0.451759 21
-5.669652 5.554961 0.453219 25
-5.643700 5.555474 0.454679 24
-5.615297 5.552751 0.456481 24
-5.591921 5.556123 0.457595 24
-5.561155 5.550005 0.459738 24
-5.536190 5.549376 0.461190 25
-5.515370 5.555541 0.461958 23
-5.487239 5.552156 0.463755 26
-5.464027 5.554955 0.464865 25
-5.434387 5.547531 0.466999 25
-5.410462 5.550697 0.468111 26
-5.392142 5.559525 0.468533 27
-5.365070 5.554906 0.470321 27
-5.345960 5.564150 0.470745 27
-5.315827 5.556670 0.472877 28
-5.292078 5.554313 0.474316 27
-5.273801 5.562686 0.474734 28
-5.248524 5.561283 0.476179 27
-5.225614 5.563002 0.477281 28
-5.195817 5.554863 0.479408 31
-5.172201 5.556911 0.480512 30
-5.150894 5.562114 0.481272 30
-5.131987 5.565563 0.482021 27
-5.109232 5.566756 0.483118 27
-5.081216 5.561808 0.484902 28
-5.060781 5.566074 0.485656 26
-5.040355 5.570254 0.486409 28
-5.017725 5.571032 0.487503 27
-4.998127 5.574500 0.488251 28
-4.971170 5.568426 0.490027 27
-4.951626 5.571710 0.490774 27
-4.929127 5.572088 0.491865 20
-4.912328 5.582937 0.491933 24
-4.892004 5.586493 0.492681 20
-4.863966 5.575985 0.494791 19
-4.843714 5.579343 0.495538 24
-4.818456 5.576350 0.496969 27
-4.796154 5.576129 0.498056 27
-4.780944 5.585506 0.498114 27
-4.752461 5.574901 0.500223 18
-4.736453 5.584618 0.500283 16
-4.714264 5.584024 0.501366 15
-4.694150 5.586758 0.502108 21
-4.670000 5.582542 0.503531 24
-4.647925 5.581653 0.504612 24
-4.626691 5.580201 0.505690 24
-4.610666 5.589479 0.505746 24
-4.591827 5.595701 0.506146 22
-4.569851 5.594456 0.507224 24
-4.548720 5.592662 0.508299 24
-4.526826 5.591226 0.509376 24
-4.506904 5.593182 0.510111 25
-4.485082 5.591560 0.511187 24
-4.467113 5.596843 0.511580 22
-4.439672 5.584520 0.513676 22
-4.421752 5.589632 0.514068 22
-4.399824 5.583262 0.515476 21
