# .PCD v.7 - Point Cloud Data file format
VERSION .7
FIELDS x y z intensity
SIZE 4 4 4 1
TYPE F F F U
COUNT 1 1 1 1
WIDTH 1539
HEIGHT 1
VIEWPOINT 0 0 0 1 0 0 0
POINTS 1539
DATA ascii
-15.020334 11.376572 0.769904 24
-15.330522 11.699651 0.765185 11
-14.863467 11.399684 0.771787 10
-14.651199 11.375521 0.774471 26
-14.651915 11.450282 0.774248 21
-14.495737 11.469364 0.776098 40
-14.448683 11.500572 0.776576 28
-14.410083 11.546272 0.776904 22
-14.116432 11.366772 0.781007 43
-14.674623 11.920189 0.772545 18
-14.494274 11.841457 0.774960 21
-14.396029 11.832572 0.776164 29
-14.322045 11.844246 0.777007 21
-14.206182 11.818442 0.778468 22
-13.624662 11.377014 0.786843 8
-14.035011 11.818217 0.780492 21
-13.405255 11.322158 0.789615 24
-13.355479 11.353271 0.790089 8
-13.227801 11.309241 0.791736 21
-13.680628 11.791841 0.784729 6
-13.646828 11.840166 0.784945 8
-13.011672 11.395064 0.793921 21
-12.911433 11.373034 0.795154 35
-12.819078 11.354060 0.796282 26
-8.634771 7.447877 0.859027 0
-8.587019 7.451120 0.859554 0
-8.386016 7.432569 0.861879 2
-8.334775 7.421475 0.862493 1
-8.280305 7.413434 0.863128 0
-8.228219 7.402893 0.863746 0
-8.190749 7.411470 0.864120 0
-8.143322 7.407257 0.864656 0
-8.108183 7.413277 0.865011 0
-8.060926 7.408607 0.865543 0
-8.023136 7.411352 0.865939 0
-7.953063 7.383920 0.866815 0
-7.930711 7.404799 0.866959 0
-7.877305 7.394323 0.867576 0
-7.849509 7.409044 0.867802 0
-7.801250 7.398976 0.868358 0
-7.765427 7.404498 0.868709 0
-7.732310 7.412823 0.869016 0
-7.704532 7.426964 0.869238 0
-7.603559 7.356186 0.870628 2
-7.552234 7.342821 0.871224 0
-7.543190 7.377359 0.871147 0
-7.508869 7.380736 0.871482 0
-7.488024 7.404060 0.871578 1
-7.426594 7.377733 0.872334 1
-7.384660 7.371445 0.872790 2
-7.352035 7.378114 0.873084 0
-7.320883 7.388635 0.873342 0
-7.285728 7.391934 0.873675 0
-7.241542 7.381808 0.874166 0
-7.219202 7.400204 0.874290 0
-7.186692 7.406118 0.874578 0
-7.151690 7.408773 0.874906 0
-7.126752 7.423737 0.875068 0
-7.086811 7.419840 0.875476 0
-7.014685 7.374975 0.876416 0
-6.987426 7.386290 0.876615 0
-6.960150 7.397493 0.876813 0
-6.915709 7.386450 0.877297 0
-6.893354 7.403708 0.877411 0
-6.853947 7.398637 0.877810 0
-6.819468 7.399743 0.878126 0
-6.790971 7.406236 0.878354 0
-6.764880 7.415813 0.878540 0
-6.744807 7.435757 0.878609 0
-6.672451 7.384800 0.879569 0
-6.650104 7.401210 0.879676 0
-6.610014 7.390838 0.880101 0
-6.575948 7.390809 0.880408 0
-6.489452 7.364188 0.881340 0
-6.464872 7.376691 0.881483 1
-6.424201 7.366164 0.881905 1
-6.404203 7.384991 0.881965 2
-6.375043 7.390587 0.882185 2
-6.334600 7.379556 0.882604 1
-6.315650 7.402163 0.882626 3
-6.285419 7.403306 0.882878 2
-6.251884 7.401745 0.883173 0
-6.228359 7.417432 0.883273 0
-6.192693 7.412253 0.883606 0
-6.165927 7.415478 0.883809 0
-6.136939 7.420057 0.884021 0
-6.107969 7.424512 0.884231 0
-6.079020 7.428843 0.884441 0
-6.060810 7.449935 0.884452 0
-6.029711 7.450672 0.884699 0
-5.968976 7.403786 0.885497 0
-5.933918 7.397346 0.885821 0
-5.917819 7.421397 0.885789 0
-5.884926 7.418103 0.886071 0
-5.858322 7.424922 0.886234 0
-5.833779 7.435061 0.886357 0
-5.803066 7.434802 0.886596 0
-5.777602 7.440625 0.886752 0
-5.744939 7.436665 0.887029 0
-5.726442 7.456749 0.887032 0
-5.691843 7.449077 0.887345 0
-5.667288 7.458593 0.887463 0
-5.636781 7.457585 0.887697 0
-5.614186 7.470379 0.887774 0
-5.562259 7.430730 0.888433 0
-5.533937 7.432772 0.888624 0
-5.513356 7.448711 0.888660 0
-5.486961 7.454052 0.888811 0
-5.449496 7.433446 0.889225 0
-5.425093 7.442063 0.889336 0
-5.396912 7.443527 0.889522 0
-5.378103 7.462558 0.889516 0
-5.349925 7.463819 0.889701 0
-5.321780 7.464962 0.889886 0
-5.297330 7.473101 0.889993 0
-5.271045 7.477584 0.890137 0
-5.251994 7.496240 0.890127 0
-5.227472 7.504116 0.890231 0
-5.220744 7.547714 0.889953 0
-5.188995 7.541117 0.890209 0
-5.161986 7.541008 0.890384 0
-5.125151 7.523347 0.890753 0
-5.117345 7.571515 0.890440 0
-5.079468 7.545283 0.890877 0
-5.058276 7.559750 0.890900 0
-5.018943 7.538445 0.891305 0
-4.973682 7.497739 0.891894 0
-4.947614 7.500947 0.892028 0
-4.931493 7.525900 0.891933 0
-4.898807 7.514351 0.892218 0
-4.877647 7.528222 0.892236 0
-4.853192 7.534708 0.892329 0
-4.827124 7.537438 0.892459 0
-4.807437 7.554745 0.892437 0
-4.782495 7.556801 0.892563 0
-4.764259 7.577653 0.892503 0
-4.733885 7.573143 0.892708 0
-4.713972 7.590168 0.892684 0
-4.695128 7.606656 0.892656 0
-4.665958 7.601356 0.892856 0
-4.642866 7.610760 0.892905 0
-4.616763 7.612659 0.893028 0
-4.602490 7.644197 0.892851 0
-4.574859 7.642212 0.893010 0
-4.555976 7.662482 0.892944 0
-4.567166 7.761086 0.892091 0
-4.561799 7.814543 0.891685 0
-4.552082 7.861007 0.891357 1
-4.524087 7.862966 0.891478 1
-4.513755 7.905200 0.891183 0
-4.503329 7.951641 0.890854 0
-4.491251 7.994331 0.890561 0
-4.481598 8.044554 0.890193 0
-4.462293 8.068398 0.890086 0
-4.449452 8.111070 0.889792 1
-4.435037 8.149959 0.889535 1
-4.425555 8.203972 0.889129 2
-4.423408 8.280743 0.888499 1
-4.423326 8.356726 0.887866 1
-4.413875 8.418876 0.887387 1
-4.422687 8.533862 0.886386 1
-5.243968 11.299117 0.859739 8
-5.186230 11.355041 0.859499 12
-5.146827 11.492685 0.858485 3
-5.125075 11.553555 0.858051 8
-5.018974 11.330571 0.860350 10
-5.080412 11.675218 0.857179 19
-4.983275 11.478503 0.859216 17
-4.949577 11.492317 0.859219 6
-4.877558 11.383822 0.860405 6
-4.902732 11.754541 0.857124 26
-4.887197 11.854082 0.856316 30
-4.728612 11.395516 0.860807 47
-4.671410 11.340292 0.861471 22
-4.599265 11.210273 0.862830 13
-4.573462 11.402576 0.861234 29
-4.548626 11.458230 0.860823 34
-4.512073 11.467201 0.860852 31
-4.411025 11.199465 0.863489 24
-4.369915 11.192807 0.863663 18
-4.388642 11.434911 0.861483 8
-4.303991 11.224569 0.863564 12
-4.298175 11.545682 0.860745 18
-4.258184 11.521712 0.861059 17
-4.205319 11.463577 0.861704 19
-4.158197 11.412259 0.862273 25
-4.098898 11.318410 0.863245 14
-4.087556 11.447318 0.862125 20
-4.052871 11.454315 0.862140 19
-4.012481 11.441932 0.862338 19
-3.989615 11.519728 0.861691 14
-3.906765 11.283078 0.863977 12
-3.874476 11.309474 0.863805 10
-3.858491 11.426280 0.862789 8
-3.815443 11.385266 0.863238 12
-3.723249 11.283635 0.864316 25
-3.686650 11.285783 0.864359 31
-3.648113 11.275958 0.864510 27
-3.620444 11.333128 0.864038 13
-3.600459 11.441598 0.863088 19
-3.571247 11.494703 0.862651 16
-3.506149 11.298253 0.864520 33
-3.493340 11.461892 0.863054 18
-3.459176 11.470879 0.863016 16
-3.398533 11.329975 0.864369 18
-3.343257 11.180112 0.865795 25
-3.343054 11.438418 0.863446 6
-3.226327 11.392769 0.863976 11
-3.175538 11.290089 0.864957 12
-3.139125 11.290294 0.864984 15
-3.137568 11.604431 0.862113 14
-3.110765 11.703923 0.861221 16
-3.082869 11.799378 0.860364 12
-3.039144 11.743534 0.860900 25
-3.003147 11.763160 0.860738 8
-2.943987 11.535748 0.862849 21
-2.884639 11.288138 0.865144 21
-2.850409 11.311228 0.864942 17
-2.817678 11.354135 0.864556 39
-2.789082 11.452761 0.863655 11
-2.743771 11.291793 0.865141 10
-2.716496 11.414145 0.864017 10
-2.679833 11.412731 0.864031 25
-2.639282 11.379377 0.864336 47
-2.603757 11.393661 0.864200 36
-2.567209 11.391851 0.864210 21
-2.531119 11.397902 0.864146 32
-2.491301 11.331923 0.864743 21
-2.458070 11.393643 0.864161 24
-2.413067 11.199519 0.865935 18
-2.384782 11.380880 0.864246 9
-2.272458 11.152766 0.866287 39
-2.235320 11.157841 0.866214 25
-2.199924 11.162738 0.866141 41
-2.164096 11.147517 0.866251 11
-2.095756 11.208662 0.865622 16
-1.952789 11.645541 0.861422 12
-1.916715 11.377465 0.863856 5
-1.879787 11.465243 0.862995 19
-1.843761 11.416904 0.863392 13
-1.807076 11.436432 0.863159 25
-1.772583 11.427869 0.863186 15
-1.672851 11.089483 0.866152 15
-1.561831 11.221812 0.864729 19
-1.529172 11.148428 0.865343 17
-1.501087 11.063114 0.866075 5
-1.410840 11.439124 0.862417 17
-1.369224 11.528996 0.861498 4
-1.132827 11.252265 0.863477 15
-1.100812 11.225551 0.863638 17
-1.053941 11.349997 0.862367 22
-1.022498 11.294987 0.862785 26
-0.987096 11.247509 0.863120 14
-0.937711 11.419555 0.861400 5
-0.870366 11.360450 0.861740 9
-0.828043 11.396150 0.861283 25
-0.797111 11.360539 0.861512 22
-0.757272 11.372100 0.861278 20
-0.755182 11.081882 0.863922 19
-0.716853 11.117531 0.863469 15
-0.667981 11.220274 0.862367 17
-0.637433 11.176036 0.862665 20
-0.599583 11.175084 0.862541 24
-0.580062 11.079613 0.863340 38
-0.492607 11.447069 0.859685 31
-0.456688 11.437924 0.859636 30
-0.418409 11.432343 0.859544 27
-0.407087 11.272930 0.860945 30
-0.376706 11.231871 0.861199 22
-0.284133 11.573651 0.857746 21
-0.323925 11.093929 0.862237 30
-0.286710 11.099996 0.862032 40
-0.193239 11.449346 0.858500 19
-0.189382 11.253919 0.860243 24
-0.159119 11.216162 0.860455 24
-0.095140 11.367283 0.858824 6
-0.053163 11.392184 0.858419 8
0.073641 11.474089 0.857121 9
0.095752 11.384165 0.857822 10
0.112057 11.287103 0.858612 16
10.428978 60.409344 0.372897 42
10.595617 60.174011 0.374183 43
10.807170 60.153282 0.373336 43
7.174325 42.613510 0.546510 16
11.221587 60.070515 0.372011 43
11.479905 60.254288 0.369084 42
0.518272 11.591673 0.853912 12
0.534930 11.497341 0.854653 4
0.536896 11.344699 0.855982 9
0.628548 11.252052 0.856297 40
0.667131 11.246370 0.856133 39
0.705145 11.253088 0.855863 41
0.745025 11.259193 0.855585 39
0.786012 11.269011 0.855266 40
0.823963 11.267083 0.855064 38
0.865112 11.276587 0.854743 39
0.902420 11.278723 0.854505 38
0.962194 11.353362 0.853509 30
1.021424 11.423862 0.852549 36
1.065609 11.440285 0.852141 40
1.107694 11.448851 0.851811 43
1.144179 11.438078 0.851678 47
1.180626 11.427179 0.851544 46
1.220533 11.427630 0.851289 47
1.266377 11.447042 0.850834 44
1.304047 11.439533 0.850657 43
1.345322 11.443331 0.850358 42
1.381787 11.431729 0.850218 42
1.424373 11.439026 0.849877 45
1.467716 11.454353 0.849461 46
1.506735 11.449918 0.849237 48
1.550851 11.460506 0.848852 55
1.591228 11.459551 0.848585 53
1.635536 11.469791 0.848196 55
1.677336 11.472292 0.847886 57
1.717872 11.470854 0.847615 55
1.758443 11.469260 0.847343 53
1.800398 11.471275 0.847029 53
1.846971 11.479981 0.846625 47
1.889071 11.481649 0.846308 52
1.926617 11.476329 0.846079 58
1.968805 11.477680 0.845759 57
2.015299 11.490087 0.845315 59
2.058664 11.499263 0.844919 59
2.105411 11.511288 0.844472 59
2.145017 11.504484 0.844228 63
2.191963 11.516136 0.843777 60
2.236079 11.520158 0.843407 55
2.283607 11.526969 0.842986 55
2.326054 11.531364 0.842621 51
2.365858 11.523739 0.842371 55
2.412097 11.526285 0.841986 55
2.459370 11.541243 0.841492 59
2.505518 11.547855 0.841071 56
2.554907 11.561630 0.840566 57
2.599696 11.564170 0.840183 55
2.646154 11.570193 0.839756 56
2.692709 11.576020 0.839328 51
2.737739 11.577995 0.838941 52
2.779142 11.581440 0.838569 55
2.824513 11.578579 0.838211 54
2.869550 11.584492 0.837786 56
2.921543 11.600271 0.837223 57
2.972189 11.607701 0.836734 55
3.022799 11.619392 0.836209 51
3.064854 11.617274 0.835861 51
3.110526 11.617720 0.835460 49
3.159733 11.625183 0.834972 54
3.209053 11.632432 0.834483 51
3.263865 11.645738 0.833897 55
3.311663 11.648950 0.833446 50
3.359471 11.656466 0.832960 51
3.414708 11.669052 0.832368 48
3.462811 11.671625 0.831911 51
3.514643 11.681112 0.831367 52
3.557401 11.677115 0.831003 52
3.614987 11.696815 0.830326 52
3.667209 11.701096 0.829809 55
3.719540 11.718715 0.829192 55
3.770136 11.723523 0.828680 51
3.817043 11.721066 0.828254 50
3.875419 11.734968 0.827599 53
3.930175 11.746107 0.826995 51
3.983147 11.753493 0.826432 52
4.040133 11.767629 0.825780 50
4.091416 11.771034 0.825257 48
4.140914 11.775277 0.824743 50
4.194273 11.777164 0.824204 50
4.255814 11.797221 0.823456 51
4.319577 11.820441 0.822661 46
4.371594 11.827187 0.822094 45
4.427509 11.831476 0.821502 45
4.487775 11.846943 0.820788 47
4.546484 11.867824 0.820050 46
4.611257 11.889576 0.819241 47
4.674010 11.903014 0.818507 45
4.728775 11.907075 0.817915 45
4.792247 11.929081 0.817110 43
4.851512 11.939406 0.816424 47
4.919219 11.958418 0.815590 46
4.974777 11.965978 0.814956 41
5.032376 11.972070 0.814307 49
5.098742 11.991358 0.813477 48
5.167251 12.009072 0.812631 49
5.231873 12.024337 0.811839 41
5.294493 12.035941 0.811090 46
5.364179 12.061862 0.810170 46
5.433834 12.082824 0.809280 46
5.494804 12.090151 0.808567 41
5.558459 12.105125 0.807775 45
5.630684 12.123761 0.806862 44
5.705730 12.149947 0.805868 41
5.769997 12.163938 0.805067 38
5.849782 12.191308 0.804007 41
5.923314 12.213074 0.803048 41
5.990510 12.229320 0.802192 37
6.062186 12.247101 0.801273 38
6.150410 12.287262 0.800029 39
6.222604 12.304256 0.799102 38
6.292660 12.317651 0.798219 36
6.367642 12.337143 0.797240 34
6.442860 12.356250 0.796258 25
6.557996 12.345304 0.794980 7
6.674736 12.417620 0.793197 4
6.692765 12.358765 0.793320 15
6.766459 12.372932 0.792369 10
6.859914 12.412048 0.791040 10
7.027414 12.545367 0.788299 21
7.035624 12.472993 0.788603 18
7.236687 12.645621 0.785235 28
7.334992 12.690223 0.783806 25
7.428698 12.728052 0.782466 26
7.534393 12.771420 0.780947 29
7.633428 12.809634 0.779534 30
7.735837 12.855186 0.778037 27
7.842808 12.896766 0.776502 27
7.960894 12.954844 0.774740 27
8.072278 13.007853 0.773084 30
8.185760 13.053651 0.771436 26
8.295014 13.097516 0.769847 29
8.412483 13.149894 0.768109 26
8.538261 13.210699 0.766220 28
8.639376 13.250276 0.764746 28
8.771398 13.315767 0.762748 28
8.889863 13.355646 0.761045 26
9.018661 13.423437 0.759070 24
9.151876 13.481734 0.757082 28
9.278616 13.540166 0.755173 26
9.423659 13.608774 0.752975 24
9.561762 13.672577 0.750886 24
9.698224 13.737603 0.748810 24
9.837478 13.799805 0.746706 24
9.993626 13.878782 0.744301 22
10.145007 13.950979 0.741986 24
10.293829 14.014309 0.739740 24
10.451996 14.090499 0.737310 23
10.605321 14.159954 0.734970 21
10.762969 14.241591 0.732515 19
10.939354 14.327122 0.729789 19
11.108611 14.408086 0.727175 22
11.287434 14.501763 0.724374 18
11.486254 14.609136 0.721242 18
11.680344 14.709609 0.718199 16
11.872046 14.800825 0.715222 16
12.079214 14.910162 0.711957 16
12.284864 15.020706 0.708703 20
12.510633 15.138973 0.705139 20
12.729228 15.252764 0.701686 18
12.948792 15.365198 0.698221 7
4.114383 6.767717 0.853648 0
4.122880 6.735493 0.853653 0
4.225302 6.749055 0.852173 0
4.314430 6.752815 0.850908 2
4.318728 6.718498 0.850970 8
4.324855 6.682022 0.851013 6
4.335760 6.652026 0.850963 6
4.316700 6.595381 0.851429 6
4.333232 6.570784 0.851277 5
4.349669 6.546140 0.851124 5
4.369021 6.524081 0.850920 4
4.382257 6.496711 0.850819 4
4.301470 6.388353 0.852332 4
4.386168 6.424796 0.850992 4
4.399946 6.396319 0.850881 4
4.408668 6.367458 0.850843 4
4.363031 6.291232 0.851740 4
4.375346 6.264010 0.851641 4
4.390631 6.239316 0.851490 4
4.427462 6.232341 0.850968 4
4.430216 6.197380 0.851027 4
4.439022 6.167495 0.850981 4
4.438344 6.130097 0.851094 3
4.446863 6.100250 0.851048 2
4.452116 6.067923 0.851056 2
4.466654 6.043037 0.850904 2
5.187316 6.569408 0.838773 4
5.200422 6.539526 0.838651 3
5.216576 6.512059 0.838476 2
5.217997 6.477340 0.838539 2
4.355305 5.748362 0.853300 0
4.471852 5.766154 0.851488 3
4.491700 5.746047 0.851229 2
4.556674 5.758929 0.850208 2
4.641231 5.785518 0.848857 4
4.702505 5.796361 0.847894 4
4.752595 5.795191 0.847125 5
4.809287 5.798350 0.846244 5
4.865252 5.802350 0.845370 5
4.913093 5.803829 0.844626 5
4.946270 5.791224 0.844133 6
5.007456 5.794186 0.843175 6
5.068709 5.803914 0.842203 4
5.128467 5.808581 0.841260 4
5.178395 5.806178 0.840481 4
5.228393 5.803485 0.839700 5
5.291782 5.809357 0.838693 4
5.349463 5.809164 0.837784 4
5.425637 5.824327 0.836558 4
5.519606 5.848629 0.835037 5
5.577704 5.847180 0.834117 5
5.620719 5.839400 0.833442 6
5.684870 5.842918 0.832415 6
5.749138 5.846047 0.831385 7
5.806736 5.844547 0.830464 6
5.861865 5.839230 0.829585 7
5.931552 5.848182 0.828457 7
6.003069 5.853963 0.827300 7
6.067882 5.855159 0.826253 7
6.146510 5.864205 0.824974 7
6.208123 5.862515 0.823978 7
6.284442 5.867164 0.822736 7
6.391098 5.890990 0.820986 8
6.479878 5.905541 0.819531 8
6.555854 5.910065 0.818288 9
6.638904 5.918096 0.816926 9
6.719496 5.922115 0.815604 7
6.812445 5.936524 0.814073 7
6.920412 5.956633 0.812291 6
7.032123 5.977987 0.810445 6
7.143216 6.000210 0.808606 6
7.287027 6.037389 0.806222 6
7.435612 6.073888 0.803757 9
7.527306 6.080773 0.802235 8
7.619160 6.087080 0.800709 10
7.724431 6.101963 0.798957 8
7.810431 6.101661 0.797523 9
7.913416 6.111725 0.795804 9
8.002363 6.113815 0.794317 10
8.104801 6.124371 0.792603 9
8.183331 6.119893 0.791283 7
8.998475 6.484196 0.777708 13
9.040140 6.409327 0.776973 36
9.087736 6.384937 0.776156 35
9.149695 6.367250 0.775097 30
9.229695 6.357846 0.773736 22
9.349497 6.366839 0.771708 21
10.023063 6.635875 0.760456 8
10.196541 6.671014 0.757531 9
10.336058 6.684007 0.755163 6
10.475812 6.696094 0.752788 9
10.608517 6.703964 0.750526 6
10.752366 6.715904 0.748075 5
10.900103 6.728538 0.745554 7
11.029791 6.732125 0.743331 6
11.192633 6.749314 0.740550 7
11.338410 6.755157 0.738047 9
11.497090 6.771016 0.735330 12
11.638630 6.775680 0.732891 7
11.798793 6.787189 0.730137 6
11.955509 6.796111 0.727436 8
12.123543 6.808589 0.724541 8
12.280725 6.815422 0.721821 4
12.456661 6.828734 0.718784 4
12.625438 6.837912 0.715860 6
12.799190 6.844881 0.712843 11
12.959973 6.851479 0.710048 14
13.147054 6.867225 0.706807 10
13.331695 6.877688 0.703595 8
13.761614 6.917533 0.696136 7
13.740147 6.722399 0.696098 5
13.726197 6.655334 0.696193 15
13.866394 6.643600 0.693691 3
14.473297 6.799028 0.683334 6
14.899496 6.876964 0.675983 6
15.536155 7.030838 0.665088 4
16.639599 7.201833 0.645944 7
17.265026 7.336208 0.635182 7
16.967661 7.164867 0.640004 7
18.039703 7.437454 0.621662 5
17.227507 7.101769 0.635190 7
18.484785 7.423733 0.613676 5
17.529392 7.048400 0.629636 2
19.859974 7.606192 0.589617 10
20.304380 7.656175 0.581805 10
20.350513 7.585221 0.580747 7
21.386972 7.803086 0.562838 7
21.875629 7.855494 0.554223 4
23.302359 8.175810 0.529626 9
24.291224 8.353203 0.512420 4
26.072998 8.647545 0.481312 5
26.632465 8.693224 0.471370 5
27.657969 8.742629 0.452999 6
28.163683 8.768360 0.443936 6
30.841751 9.337857 0.397584 16
30.816362 9.209688 0.397541 8
33.857372 9.707009 0.344290 10
32.226837 9.183890 0.371800 9
41.939793 11.349988 0.204010 20
41.765297 11.147818 0.206334 20
48.039146 12.238003 0.096611 30
33.068836 6.093029 0.341158 9
33.008495 5.835189 0.340792 36
33.020390 5.718668 0.339891 18
33.036663 5.596537 0.338870 18
33.064411 5.475873 0.337636 9
33.453197 4.655009 0.325331 9
17.915213 2.072919 0.597146 2
17.886908 2.001907 0.597157 2
17.882318 1.932243 0.596730 2
17.840300 1.795212 0.596495 7
17.823124 1.721896 0.596264 7
17.805563 1.652167 0.596062 7
17.811638 1.586740 0.595448 16
17.809591 1.517614 0.594954 16
17.815300 1.448696 0.594312 9
17.820770 1.379744 0.593669 7
17.833941 1.314344 0.592907 7
17.834984 1.241794 0.592311 4
17.847729 1.172807 0.591520 4
17.860233 1.103734 0.590729 4
17.880489 1.038056 0.589816 4
17.908524 0.972238 0.588753 2
17.900331 0.902920 0.588334 2
17.931862 0.829872 0.587138 2
19.208090 -1.549585 0.541137 2
17.783688 -1.655320 0.566444 2
17.588112 -1.698611 0.569609 2
-18.809687 1.048117 0.686945 1
-18.849384 1.107207 0.686780 1
-18.908869 1.166784 0.686294 1
-18.914047 1.347376 0.687643 16
-19.044720 1.406811 0.685986 5
-19.928761 1.557054 0.672800 2
-21.205732 1.664604 0.652903 2
-39.247829 2.420828 0.365948 10
-39.258610 2.551641 0.366755 10
-39.260937 2.682183 0.367690 10
-39.269539 3.067727 0.370374 10
-40.288155 3.258676 0.355243 11
-43.049786 3.573294 0.312749 14
-74.292946 14.457434 -0.125411 33
-73.896362 14.916885 -0.116821 67
-73.815956 15.161701 -0.114352 33
-53.595741 11.539409 0.189713 32
-53.295948 11.861382 0.195968 32
-53.380848 12.057639 0.195517 32
-53.216900 12.209687 0.198798 32
-42.745781 10.066945 0.354965 15
-41.083244 9.840375 0.380257 12
-40.011387 9.737624 0.396744 11
-39.271793 9.704824 0.408277 11
-39.163330 9.816542 0.410457 11
-39.112869 9.941660 0.411771 11
-39.065872 10.067485 0.413025 11
-39.080555 10.208514 0.413362 11
-38.937321 10.303226 0.415989 11
-39.068199 10.757434 0.415686 11
-39.035618 10.880428 0.416655 11
-38.869617 10.974271 0.419595 11
-39.069847 11.167571 0.417167 11
-39.161274 11.332393 0.416327 11
-49.222713 14.307480 0.269908 27
-48.829830 14.373531 0.276253 26
-43.764088 13.401888 0.351732 18
-40.124084 13.049745 0.406948 24
-39.304634 12.934321 0.419241 23
-39.190826 13.026970 0.421259 23
-37.748329 12.844102 0.442919 21
-22.978466 8.029333 0.656527 3
-22.518141 7.955062 0.663384 9
-22.021891 7.947349 0.670952 11
-21.752165 7.931294 0.675028 11
-21.510395 7.919388 0.678684 13
-21.270275 7.914044 0.682326 15
-21.031668 7.903707 0.685929 17
-20.787060 7.885751 0.689602 15
-20.532883 7.869956 0.693421 19
-20.325224 7.866024 0.696555 21
-20.132782 7.866389 0.699465 21
-19.957909 7.864928 0.702101 20
-19.784555 7.870097 0.704725 20
-19.633745 7.882860 0.707019 18
-19.507906 7.907981 0.708956 18
-19.405628 7.938111 0.710544 13
-19.352812 7.983984 0.711414 6
-19.245550 8.014554 0.713070 22
-19.185165 8.056653 0.714040 14
-19.181326 8.128925 0.714209 6
-19.167377 8.193626 0.714513 6
-19.142136 8.253644 0.714975 6
-19.116684 8.313574 0.715435 6
-19.102041 8.378163 0.715738 6
-19.098162 8.447527 0.715883 6
-19.070993 8.499722 0.716348 11
-19.054331 8.567245 0.716672 6
-19.038738 8.631766 0.716973 6
-19.038828 8.699876 0.717043 6
-19.039579 8.775690 0.717107 6
-19.053646 8.850664 0.716972 4
-19.102299 8.945640 0.716344 4
-19.117897 9.025783 0.716183 4
-19.136761 9.107840 0.715971 4
-19.207237 9.211220 0.715021 4
-19.270706 9.319465 0.714171 4
-24.224861 11.799142 0.643876 12
-23.865601 11.814330 0.649076 11
-23.756102 11.855038 0.650673 27
-23.487673 11.810498 0.654517 11
-23.389137 11.854826 0.655947 37
-23.123184 11.813004 0.659747 18
-22.808023 11.743792 0.664240 24
-23.142933 12.010320 0.659505 22
-22.555372 11.796151 0.667851 10
-22.503395 11.860490 0.668595 10
-22.500622 11.950960 0.668635 14
-15.201668 11.471119 0.865556 27
-15.071176 11.442472 0.866558 29
-14.975354 11.440590 0.867311 60
-14.895256 11.450744 0.867948 25
-14.771828 11.425101 0.868891 21
-14.479733 11.333404 0.871088 40
-14.498900 11.423092 0.871009 24
-14.330579 11.356324 0.872258 28
-14.303493 11.407180 0.872502 43
-14.260963 11.445021 0.872854 22
-14.133235 11.409862 0.873806 46
-14.102851 11.457512 0.874067 25
-14.005832 11.447389 0.874797 28
-13.927100 11.452513 0.875394 24
-13.842476 11.451928 0.876031 23
-13.759828 11.448822 0.876650 26
-13.638532 11.410663 0.877539 37
-13.594314 11.448047 0.877885 24
-13.495467 11.432220 0.878612 28
-13.402786 11.421222 0.879294 33
-13.301482 11.401589 0.880033 26
-13.203394 11.384092 0.880748 26
-13.185330 11.432984 0.880894 26
-13.069998 11.398266 0.881725 34
-12.995052 11.407896 0.882272 31
-12.900644 11.391230 0.882951 42
-12.826713 11.393395 0.883484 41
-12.773815 11.408054 0.883865 26
-12.653378 11.371484 0.884722 37
-12.577036 11.369598 0.885265 17
-8.529748 7.498592 0.913758 0
-8.446395 7.463291 0.914344 0
-8.392726 7.454703 0.914720 0
-8.356066 7.462891 0.914976 0
-8.316083 7.462974 0.915253 0
-8.207438 7.401387 0.916012 0
-8.185022 7.423154 0.916164 0
-8.134816 7.416002 0.916509 0
-8.117872 7.443304 0.916619 0
-8.074427 7.440464 0.916916 0
-7.997043 7.403515 0.917449 0
-8.016723 7.467323 0.917298 0
-7.926034 7.415145 0.917924 0
-7.890015 7.421227 0.918162 0
-7.856726 7.430086 0.918381 0
-7.820758 7.435832 0.918617 0
-7.779460 7.435467 0.918889 0
-7.740907 7.437871 0.919141 0
-7.657192 7.389297 0.919711 0
-7.625342 7.396169 0.919915 0
-7.612381 7.428913 0.919982 0
-7.562083 7.414459 0.920314 0
-7.505587 7.394662 0.920688 0
-7.485806 7.417014 0.920800 0
-7.460743 7.433220 0.920949 0
-7.383904 7.388307 0.921465 0
-7.356387 7.401079 0.921629 0
-7.318586 7.401462 0.921865 0
-7.275740 7.395502 0.922137 0
-7.249382 7.406920 0.922291 0
-7.223297 7.423167 0.922439 0
-7.173068 7.407348 0.922760 0
-7.155396 7.426806 0.922852 0
-7.129270 7.442682 0.922997 0
-7.054427 7.394946 0.923492 0
-7.022124 7.400133 0.923681 0
-6.989848 7.405172 0.923869 0
-6.943973 7.390256 0.924156 0
-6.920483 7.408479 0.924277 0
-6.905168 7.430376 0.924345 0
-6.870709 7.436588 0.924540 0
-6.833702 7.434547 0.924757 0
-6.794211 7.424242 0.924997 0
-6.719274 7.375407 0.925483 0
-6.692199 7.385549 0.925626 0
-6.664978 7.390715 0.925775 0
-6.650918 7.420842 0.925819 0
-6.634261 7.442840 0.925886 0
-6.582565 7.420953 0.926202 0
-6.548474 7.420768 0.926391 0
-6.504000 7.403310 0.926660 0
-6.493093 7.435491 0.926677 0
-6.464825 7.440649 0.926825 0
-6.397869 7.394648 0.927250 0
-6.368687 7.400212 0.927400 0
-6.342910 7.413023 0.927520 0
-6.315979 7.421659 0.927651 0
-6.290164 7.429429 0.927777 0
-6.258780 7.431196 0.927939 0
-6.227436 7.432822 0.928100 0
-6.191739 7.427624 0.928294 0
-6.170369 7.441620 0.928382 0
-6.141302 7.446206 0.928524 0
-6.112254 7.450666 0.928665 0
-6.095111 7.471144 0.928719 0
-6.056357 7.462595 0.928927 0
-6.029486 7.470080 0.929049 0
-5.961423 7.408861 0.929488 0
-5.943203 7.429593 0.929543 0
-5.923759 7.450967 0.929601 0
-5.892864 7.451096 0.929751 0
-5.867281 7.457254 0.929863 0
-5.834402 7.453699 0.930027 0
-5.815907 7.474059 0.930078 0
-5.774959 7.456473 0.930303 0
-5.754385 7.473202 0.930368 0
-5.717675 7.462192 0.930559 0
-5.693065 7.471803 0.930654 0
-5.670418 7.484793 0.930733 0
-5.645754 7.494225 0.930827 0
-5.623029 7.507051 0.930905 0
-5.594417 7.509315 0.931028 0
-5.573575 7.525462 0.931088 0
-5.506506 7.457369 0.931519 0
-5.486953 7.472607 0.931573 0
-5.455939 7.466667 0.931720 0
-5.425760 7.464724 0.931853 0
-5.399389 7.469716 0.931955 0
-5.373025 7.474602 0.932056 0
-5.353356 7.489429 0.932107 0
-5.326972 7.494130 0.932206 0
-5.318861 7.534312 0.932154 1
-5.274230 7.503216 0.932403 0
-5.253277 7.518316 0.932454 0
-5.219736 7.508306 0.932611 0
-5.193411 7.512477 0.932706 0
-5.179446 7.541673 0.932696 0
-5.147800 7.534890 0.932834 0
-5.125531 7.550132 0.932885 0
-5.107213 7.567810 0.932915 0
-5.072239 7.553455 0.933080 0
-5.046463 7.561197 0.933159 0
-5.028571 7.582809 0.933175 0
-5.007846 7.592417 0.933228 0
-4.978127 7.588465 0.933346 0
-4.960030 7.609889 0.933360 0
-4.931991 7.609373 0.933461 0
-4.905617 7.612397 0.933546 0
-4.853453 7.556751 0.933864 0
-4.862516 7.640131 0.933628 0
-4.840874 7.653893 0.933668 0
-4.823894 7.678617 0.933664 0
-4.825516 7.747493 0.933486 0
-4.803461 7.761142 0.933524 0
-4.791151 7.865898 0.933298 0
-4.775889 7.893766 0.933275 0
-4.760761 7.925807 0.933240 1
-4.745444 7.957826 0.933204 1
-4.732881 7.997261 0.933140 1
-4.717159 8.029243 0.933104 1
-4.701247 8.061202 0.933067 1
-4.689444 8.104339 0.932987 1
-4.678792 8.151217 0.932893 1
-4.670660 8.205597 0.932770 2
-4.664968 8.267506 0.932619 2
-4.650594 8.306937 0.932553 1
-4.644020 8.360456 0.932425 1
-4.738924 8.704710 0.931221 0
-5.559513 11.320810 0.921786 34
-5.489557 11.234983 0.922207 55
-5.456356 11.254814 0.922236 35
-5.429441 11.293491 0.922195 50
-5.379560 11.263791 0.922402 36
-5.357430 11.317460 0.922303 31
-5.316415 11.314040 0.922411 34
-5.264455 11.276185 0.922643 43
-5.226696 11.275649 0.922732 47
-5.185985 11.271723 0.922836 45
-5.157130 11.318422 0.922765 36
-5.122327 11.320765 0.922835 33
-5.085092 11.327912 0.922894 34
-5.043753 11.327797 0.922983 33
-5.000411 11.307271 0.923134 28
-4.963264 11.313980 0.923190 40
-4.926106 11.320555 0.923245 30
-4.885668 11.315452 0.923340 26
-4.843148 11.302486 0.923461 31
-4.801818 11.293208 0.923567 31
-4.766888 11.306924 0.923591 30
-4.728787 11.308931 0.923654 26
-4.682270 11.271655 0.923850 20
-4.649396 11.292706 0.923843 25
-4.583729 11.194022 0.924257 20
-4.554975 11.230260 0.924193 28
-4.540399 11.316422 0.923951 19
-4.502427 11.317597 0.924007 17
-4.460708 11.303084 0.924116 24
-4.389393 11.163908 0.924657 44
-4.381330 11.289140 0.924278 34
-4.339955 11.274147 0.924384 30
-4.296939 11.251190 0.924515 35
-4.252363 11.220253 0.924673 31
-4.236523 11.309826 0.924410 23
-4.200488 11.317709 0.924431 20
-4.159287 11.310203 0.924505 19
-4.115206 11.270460 0.924684 22
-4.081731 11.289673 0.924661 21
-4.053701 11.336222 0.924543 17
-4.008219 11.296387 0.924719 23
-3.983723 11.362363 0.924532 19
-3.938479 11.322220 0.924706 26
-3.911266 11.376238 0.924558 15
-3.864129 11.323978 0.924770 16
-3.821648 11.295135 0.924900 34
-3.795555 11.336379 0.924788 15
-3.742569 11.256334 0.925091 26
-3.718123 11.329532 0.924870 20
-3.711709 11.525305 0.924233 21
-3.620972 11.199717 0.925362 44
-3.601039 11.304209 0.925031 39
-3.587113 11.427880 0.924632 11
-3.523580 11.267686 0.925196 15
-3.482994 11.241428 0.925303 12
-3.410834 11.247849 0.925314 11
-3.348796 11.062652 0.925954 18
-3.337592 11.245834 0.925348 34
-3.295268 11.186889 0.925558 24
-3.284138 11.398049 0.924855 11
-3.222762 11.200151 0.925531 34
-3.181254 11.140740 0.925738 38
-3.144507 11.149121 0.925716 18
-3.159016 11.562165 0.924325 12
-3.089237 11.300286 0.925212 12
-3.077697 11.534871 0.924421 16
-3.054384 11.633826 0.924087 9
-2.978677 11.267581 0.925321 3
-2.934044 11.569194 0.924295 21
-2.869263 11.237682 0.925407 60
-2.831361 11.236960 0.925402 53
-2.796239 11.247912 0.925356 45
-2.765338 11.290507 0.925202 13
-2.749275 11.584580 0.924195 15
-2.712007 11.583281 0.924185 7
-2.664649 11.378069 0.924866 15
-2.590900 11.362772 0.924883 32
-2.555847 11.416929 0.924679 25
-2.519877 11.426934 0.924624 60
-2.480040 11.324865 0.924949 37
-2.448266 11.418516 0.924607 40
-2.412209 11.428149 0.924549 15
-2.338751 11.415062 0.924538 1
-2.263773 11.281458 0.924934 16
-2.231221 11.482434 0.924214 10
-2.120186 11.292694 0.924757 7
-2.048946 11.373558 0.924402 6
-2.013250 11.481803 0.923989 2
-1.907977 11.297808 0.924493 7
-1.868010 11.341530 0.924291 1
-1.797314 11.472675 0.923744 4
-1.760048 11.412020 0.923899 9
-1.687142 11.486391 0.923535 16
-1.655791 11.245427 0.924314 9
-1.623974 11.124370 0.924679 22
-1.588895 11.115140 0.924654 10
-1.531413 11.665335 0.922671 3
-1.466884 11.450319 0.923296 9
-1.421677 11.620313 0.922633 15
-1.357150 11.448575 0.923101 17
-1.336028 11.194878 0.923928 7
-1.283897 11.448103 0.922961 2
-1.227271 11.740992 0.921849 2
-1.202891 11.606972 0.922257 2
-1.162529 11.170750 0.923658 23
-1.125550 11.163772 0.923602 21
-1.082544 11.248476 0.923220 15
-1.046743 11.245351 0.923151 18
-0.986619 11.504974 0.922133 16
-0.981679 11.171038 0.923253 25
-0.946149 11.167561 0.923181 26
-0.916787 11.104277 0.923325 19
-0.865368 11.251715 0.922702 44
-0.821231 11.323374 0.922351 19
-0.788779 11.303642 0.922336 12
-0.749012 11.347377 0.922087 12
-0.707707 11.370667 0.921902 37
-0.697607 11.155849 0.922595 27
-0.659091 11.175188 0.922427 32
-0.615218 11.234039 0.922111 25
-0.583926 11.209703 0.922106 15
-0.547716 11.208799 0.922008 15
-0.497907 11.290681 0.921595 9
-0.382473 11.585130 0.920283 11
-0.394937 11.255308 0.921411 16
-0.309166 11.569906 0.920115 14
-0.347903 11.090083 0.921815 20
-0.187827 11.627313 0.919553 22
-0.213122 11.254337 0.920855 12
-0.165663 11.315173 0.920505 9
-0.094341 11.298459 0.920327 12
0.012346 11.469938 0.919415 11
0.021033 11.317640 0.919878 7
11.692530 67.274094 0.699214 39
11.935294 67.280846 0.698321 39
12.200697 67.335091 0.697185 39
12.469521 67.457253 0.695809 39
10.298170 56.565750 0.738384 35
10.522709 56.659229 0.737247 36
13.075846 67.019173 0.694921 39
10.586154 55.167862 0.741699 32
0.570346 11.588034 0.917001 6
0.585645 11.489728 0.917247 5
0.600090 11.375016 0.917546 5
0.610400 11.277666 0.917805 7
0.679163 11.247849 0.917616 40
0.716740 11.238109 0.917491 37
0.752754 11.236909 0.917344 35
0.795479 11.246213 0.917135 34
0.835466 11.251969 0.916947 30
0.870543 11.246499 0.916813 30
0.909557 11.248112 0.916639 27
0.948618 11.249578 0.916463 30
1.061346 11.500259 0.915215 22
1.097699 11.502238 0.915048 24
1.127589 11.468480 0.915013 39
1.161857 11.449973 0.914913 34
1.192065 11.411660 0.914888 36
1.220751 11.382027 0.914842 30
1.277132 11.435812 0.914423 36
1.318988 11.435327 0.914228 37
1.361483 11.442878 0.914006 30
1.405295 11.454068 0.913764 31
1.442449 11.450459 0.913596 35
1.482691 11.449917 0.913403 40
1.524235 11.453016 0.913191 37
1.563287 11.448372 0.913012 40
1.602350 11.443582 0.912832 41
1.645333 11.449991 0.912599 44
1.686577 11.456865 0.912373 47
1.728405 11.459163 0.912154 50
1.772121 11.460646 0.911927 50
1.813597 11.467029 0.911695 49
1.855618 11.468827 0.911473 49
1.901842 11.481721 0.911196 45
1.942623 11.479424 0.910988 45
1.983435 11.476969 0.910778 43
2.028540 11.485575 0.910514 42
2.070885 11.486525 0.910284 44
2.113286 11.487307 0.910052 48
2.158661 11.495369 0.909783 49
2.197528 11.497255 0.909565 51
2.243085 11.504965 0.909293 50
2.290244 11.516192 0.909002 51
2.334512 11.519812 0.908745 51
2.378856 11.523250 0.908486 50
2.421740 11.522813 0.908244 48
2.468062 11.525120 0.907973 46
2.513906 11.536154 0.907682 50
2.561713 11.546211 0.907380 51
2.606470 11.548720 0.907113 50
2.654500 11.558376 0.906807 48
2.699427 11.560506 0.906537 47
2.745830 11.570580 0.906237 47
2.792561 11.575984 0.905945 47
2.836086 11.573903 0.905688 46
2.882980 11.578923 0.905393 49
2.929968 11.583744 0.905096 49
2.982116 11.599244 0.904740 51
3.029326 11.603648 0.904439 54
3.074913 11.604238 0.904155 50
3.124019 11.611854 0.903832 50
3.171499 11.615654 0.903526 47
3.219068 11.619252 0.903218 46
3.270253 11.629827 0.902869 46
3.318021 11.633007 0.902558 47
3.369383 11.647645 0.902196 48
3.420962 11.657548 0.901842 49
3.474488 11.670785 0.901466 51
3.522693 11.673102 0.901146 48
3.569141 11.671661 0.900845 51
3.619348 11.677117 0.900503 51
3.677115 11.696509 0.900079 51
3.731333 11.708563 0.899692 51
3.783815 11.716842 0.899324 51
3.834496 11.716833 0.898982 48
3.887208 11.724643 0.898609 45
3.936245 11.729738 0.898265 48
3.989193 11.737088 0.897888 47
4.053960 11.765155 0.897388 50
4.099460 11.762585 0.897078 48
4.152809 11.769203 0.896695 45
4.208262 11.779053 0.896289 48
4.259864 11.781715 0.895921 47
4.319598 11.797983 0.895470 45
4.383431 11.816309 0.894983 48
4.439630 11.829659 0.894558 48
4.497881 11.841627 0.894120 46
4.558189 11.852183 0.893667 46
4.619005 11.871585 0.893193 46
4.679842 11.886127 0.892726 43
4.740859 11.900376 0.892256 42
4.799952 11.910931 0.891805 43
4.861317 11.924600 0.891330 46
4.927117 11.944745 0.890809 46
4.986719 11.954427 0.890350 45
5.049095 11.976387 0.889849 40
5.108784 11.980902 0.889394 42
5.177812 12.007756 0.888831 42
5.242463 12.022967 0.888318 40
5.307035 12.033251 0.887811 41
5.369851 12.044488 0.887314 40
5.435345 12.063363 0.886784 45
5.502980 12.080623 0.886238 47
5.573070 12.100856 0.885666 41
5.636622 12.110826 0.885158 41
5.715889 12.138916 0.884500 43
5.791232 12.164641 0.883874 40
5.853439 12.174947 0.883370 38
5.935826 12.205107 0.882679 42
6.007319 12.223154 0.882087 38
6.081359 12.244092 0.881470 38
6.153675 12.266067 0.880864 37
6.237586 12.299211 0.880148 32
6.312009 12.314309 0.879529 35
6.378345 12.330159 0.878973 36
6.446444 12.339556 0.878408 17
6.517102 12.351821 0.877817 6
6.568299 12.333464 0.877418 10
6.685114 12.405665 0.876377 18
6.761295 12.423123 0.875729 5
6.892303 12.428390 0.874634 16
7.038358 12.537798 0.873304 13
7.127551 12.564516 0.872529 20
7.242326 12.626849 0.871504 22
7.352663 12.682262 0.870519 26
7.441429 12.713727 0.869738 26
7.554717 12.766308 0.868727 27
7.651304 12.801280 0.867871 26
7.756787 12.854581 0.866922 27
7.859223 12.894649 0.866008 26
7.982035 12.953947 0.864901 26
8.085344 12.992788 0.863976 26
8.204986 13.054237 0.862890 24
8.306555 13.088829 0.861979 24
8.433999 13.148412 0.860822 27
8.544705 13.195734 0.859818 27
8.668456 13.252693 0.858690 25
8.795362 13.311949 0.857531 27
8.903839 13.344538 0.856548 25
9.037056 13.408356 0.855326 25
9.176173 13.477364 0.854046 27
9.303025 13.535612 0.852878 26
9.443315 13.603036 0.851584 24
9.581517 13.666675 0.850307 26
9.715377 13.728590 0.849068 22
9.867805 13.800327 0.847654 22
10.015944 13.870278 0.846278 22
10.167921 13.947306 0.844861 24
10.316855 14.010448 0.843474 22
10.466885 14.077740 0.842073 24
10.640110 14.172360 0.840449 22
10.808093 14.255099 0.838874 20
10.974022 14.333953 0.837316 20
11.140656 14.411808 0.835748 20
11.330420 14.511481 0.833959 20
11.523851 14.612835 0.832133 20
11.720974 14.715835 0.830269 19
11.924645 14.823268 0.828341 19
12.126388 14.926631 0.826427 17
12.337579 15.037163 0.824422 18
12.558301 15.154768 0.822323 18
12.785761 15.276567 0.820157 19
13.022893 15.405270 0.817896 19
13.237964 15.510383 0.815842 20
13.482966 15.641699 0.813500 17
13.752358 15.793422 0.810923 15
14.008704 15.935297 0.808467 13
14.286667 16.094698 0.805803 16
14.612338 16.284626 0.802679 14
9.946184 11.749567 0.846894 36
9.980688 11.705271 0.846535 63
9.893732 11.556491 0.847330 11
9.923960 11.431797 0.846969 41
9.942247 11.374475 0.846756 44
9.972372 11.327627 0.846428 48
9.980536 11.269214 0.846311 46
10.004177 11.217075 0.846041 46
10.031152 11.160713 0.845732 56
10.059982 11.120415 0.845412 72
10.069415 11.053194 0.845268 63
10.084257 10.997910 0.845076 61
10.114680 10.948610 0.844728 55
10.140080 10.898799 0.844428 57
10.169765 10.856096 0.844088 48
5.264137 6.782639 0.890892 14
5.287440 6.759878 0.890630 6
5.422948 6.781936 0.889249 2
5.462052 6.770877 0.888831 2
5.454867 6.727949 0.888860 2
5.345781 6.600845 0.889860 2
5.294512 6.483377 0.890263 6
5.304049 6.450810 0.890123 6
5.297420 6.406283 0.890139 6
5.307577 6.372505 0.889989 4
5.310205 6.335258 0.889913 2
6.054739 6.841817 0.882682 2
6.190572 6.852046 0.881249 4
6.181683 6.802642 0.881274 6
6.204174 6.777925 0.880997 9
6.194885 6.728675 0.881023 5
6.198469 6.688723 0.880924 4
6.198586 6.646536 0.880857 6
6.202783 6.605261 0.880746 7
6.208144 6.569139 0.880630 6
6.211012 6.529370 0.880533 7
6.209424 6.488844 0.880482 7
6.212889 6.447759 0.880373 7
6.218551 6.410358 0.880246 7
6.227394 6.375184 0.880086 7
6.239439 6.342199 0.879894 6
6.237927 6.300498 0.879833 4
6.242953 6.263198 0.879707 5
6.237702 6.219475 0.879681 5
6.245764 6.184411 0.879523 3
6.249395 6.148659 0.879412 3
6.241088 6.101610 0.879409 4
6.244385 6.065969 0.879298 4
6.251824 6.031022 0.879142 4
6.235207 5.981521 0.879222 10
6.256001 5.954953 0.878932 2
7.065732 6.401358 0.870848 2
6.376399 5.948595 0.877569 2
6.452215 5.954023 0.876729 2
6.552334 5.973127 0.875646 4
6.593885 5.957444 0.875141 3
6.673556 5.963495 0.874255 3
6.742954 5.963095 0.873468 3
6.808974 5.960299 0.872713 3
6.892513 5.966904 0.871780 3
6.969216 5.969090 0.870913 3
7.047803 5.975880 0.870034 3
7.121250 5.975204 0.869194 4
7.194800 5.974075 0.868350 4
7.296610 5.987696 0.867219 4
7.373941 5.987450 0.866331 3
7.454916 5.988600 0.865404 4
7.543090 5.992972 0.864400 4
7.634955 5.998641 0.863357 5
7.726099 6.005418 0.862323 5
7.812027 6.004580 0.861327 7
7.915904 6.012245 0.860145 6
8.015518 6.019156 0.859009 8
8.113543 6.028950 0.857898 8
9.575539 6.654936 0.842761 13
9.611254 6.627429 0.842259 14
9.630857 6.587004 0.841903 7
10.193662 6.754494 0.835837 3
10.228185 6.718842 0.835316 3
10.303488 6.699455 0.834367 7
10.402246 6.695632 0.833190 8
10.527571 6.700687 0.831728 10
10.661364 6.706034 0.830165 10
10.793365 6.714929 0.828633 10
10.930219 6.722387 0.827037 8
11.063617 6.727345 0.825471 8
11.222867 6.742640 0.823633 10
11.376043 6.751392 0.821841 10
11.515408 6.761435 0.820216 11
11.675392 6.773715 0.818352 9
11.831938 6.783398 0.816517 11
11.999794 6.796668 0.814559 9
12.156815 6.804265 0.812706 9
12.329887 6.814384 0.810668 11
12.494785 6.822841 0.808720 11
12.670038 6.837223 0.806668 9
12.839127 6.844979 0.804663 11
13.012170 6.853084 0.802609 12
13.193933 6.860297 0.800443 12
13.682266 6.927342 0.794809 108
13.868521 6.875097 0.792337 8
13.731297 6.761816 0.793531 14
13.733547 6.697432 0.793233 8
15.401861 7.235634 0.775213 13
14.104616 6.705722 0.788750 9
14.478121 6.777277 0.784503 8
14.805205 6.823460 0.780710 5
15.188552 6.889823 0.776316 15
15.731605 7.007678 0.770193 10
16.646128 7.249988 0.760074 6
16.470499 7.119368 0.761639 6
16.313185 6.996296 0.763010 6
18.079317 7.345091 0.742898 7
17.796024 7.179440 0.745611 4
20.076818 7.641410 0.719652 9
20.277739 7.625904 0.717091 9
21.509333 7.904298 0.703202 6
21.621653 7.848024 0.701532 10
22.814177 8.101142 0.687995 11
23.100529 8.088749 0.684377 7
24.719933 8.446969 0.666059 4
26.374043 8.585031 0.646172 4
30.188971 9.253776 0.602060 7
30.392088 9.185707 0.599158 7
32.605316 9.618101 0.573785 8
32.068142 9.357945 0.579105 8
35.440258 10.048869 0.540607 10
39.128819 10.790583 0.498412 12
40.916744 11.051102 0.477410 12
43.755699 11.557451 0.444568 13
41.649395 10.918347 0.467464 13
100.910118 23.655785 -0.206112 60
34.167652 6.605978 0.536270 9
33.617592 6.393354 0.541904 8
33.260361 6.213392 0.545287 8
32.985439 6.048022 0.547713 8
32.992138 5.800124 0.545997 74
32.992847 5.675965 0.545164 15
33.008183 5.560034 0.544194 82
33.072296 5.437886 0.542555 33
33.122570 5.326108 0.541157 25
33.145420 5.204577 0.540039 25
33.175797 5.083865 0.538826 16
33.221657 4.964787 0.537421 16
33.275734 4.840161 0.535866 8
33.359894 4.730879 0.534029 8
33.404552 4.610828 0.532617 8
33.436867 4.489331 0.531348 8
71.030624 7.434812 0.070602 35
21.228312 2.630175 0.674483 3
20.084051 2.479655 0.688057 2
18.444834 2.293774 0.707720 2
17.958185 2.192885 0.713215 2
17.853821 1.978465 0.712934 178
17.857143 1.909297 0.712362 135
17.784069 1.629802 0.711137 2
17.789665 1.423016 0.709433 2
17.815042 1.354517 0.708561 2
17.820084 1.292453 0.707999 2
17.781096 1.216044 0.707886 2
17.805756 1.147326 0.707012 2
17.814144 1.085269 0.706400 2
17.886347 1.012877 0.704880 2
17.890289 0.940128 0.704232 2
17.906027 0.877677 0.703514 2
17.893442 0.801513 0.703044 2
18.068945 0.527110 0.698483 27
45.889828 -1.445613 0.323745 14
42.801270 -1.923330 0.359176 13
42.240154 -2.041785 0.365316 12
41.594986 -2.150318 0.372618 12
41.021969 -2.252311 0.379047 12
40.221134 -2.629082 0.385876 24
40.223507 -2.785082 0.384407 24
40.245899 -2.935638 0.382725 24
40.263771 -3.086012 0.381097 24
40.297028 -3.238152 0.379250 24
40.321777 -3.389749 0.377510 24
40.346775 -3.534187 0.375829 24
40.381573 -3.694934 0.373863 24
40.416603 -3.848601 0.371954 24
18.992943 -1.547023 0.667860 2
18.328058 -1.610354 0.675743 2
17.722794 -1.672573 0.682864 6
17.594524 -1.724761 0.683990 6
17.339422 -1.758045 0.686915 4
17.037321 -1.779334 0.690556 2
16.759029 -1.802191 0.693875 2
14.644778 -2.145667 0.717249 4
14.625870 -2.202097 0.716902 1
14.642094 -2.265359 0.716038 1
14.667081 -2.324537 0.715103 1
-18.971064 1.012236 0.782921 1
-19.002886 1.071766 0.783076 1
-19.014524 1.128377 0.783415 1
-18.989946 1.187626 0.784150 1
-18.989157 1.247068 0.784637 1
-19.020153 1.307101 0.784795 1
-19.074932 1.367883 0.784708 1
-19.193468 1.430688 0.783971 1
-19.591728 1.499382 0.780365 1
-20.281347 1.586516 0.773866 1
-20.822777 1.670062 0.768880 2
-39.204983 2.462987 0.583640 9
-39.259567 2.595561 0.584096 9
-39.453823 2.728500 0.583095 9
-39.347992 2.847856 0.585109 9
-39.560966 2.990031 0.583975 9
-39.753063 3.139181 0.583105 9
-40.871647 3.332263 0.572924 10
-42.308247 3.560113 0.559691 11
-103.885117 7.839745 -0.048575 30
-103.469612 8.167823 -0.041828 30
-103.340256 8.514400 -0.037932 90
-103.277512 8.865432 -0.034710 60
-103.355637 9.245473 -0.032754 30
-103.464737 9.575422 -0.031497 30
-105.302856 10.094297 -0.046835 30
-106.087013 10.529768 -0.051850 30
-99.392616 10.980661 0.020736 30
-99.360779 11.286691 0.023208 30
-99.137390 11.606189 0.027744 30
-99.026314 11.954193 0.031301 30
-99.233803 12.321630 0.031682 30
-94.465530 13.077458 0.086073 4
-93.953217 13.647925 0.095156 30
-93.815140 13.972123 0.098718 30
-122.076607 21.380367 -0.144376 60
-121.537766 22.579464 -0.131426 4
-54.650757 11.627992 0.485842 26
-53.896332 11.664482 0.493742 24
-53.811787 11.835873 0.495603 24
-53.791264 12.030005 0.496938 24
-53.781746 12.207738 0.498058 24
-53.742290 12.388554 0.499493 24
-41.785412 9.902408 0.606656 11
-40.997425 9.869261 0.614455 11
-39.952953 9.771276 0.624482 10
-39.283474 9.753885 0.631158 10
-39.155399 9.860911 0.633044 10
-39.143654 9.995396 0.633900 10
-39.068573 10.100717 0.635231 10
-39.159134 10.267633 0.635221 10
-38.985306 10.368549 0.637513 10
-38.998287 10.495753 0.638060 10
-39.003597 10.635056 0.638743 10
-38.969715 10.764297 0.639762 10
-38.946972 10.896524 0.640679 10
-38.958496 11.038147 0.641297 10
-39.069748 11.207577 0.641053 10
-50.225761 14.460622 0.546094 15
-46.572849 13.954602 0.579995 27
-44.824249 13.592613 0.595611 39
-43.223614 13.278646 0.609986 25
-42.587639 13.406420 0.616916 36
-41.691952 13.284482 0.625205 23
-40.601254 13.087524 0.635063 23
-39.758072 12.968570 0.642835 22
-38.996357 13.012322 0.650553 21
-38.087746 12.856928 0.658785 20
-37.920853 12.941330 0.660810 29
-36.881809 12.731524 0.670066 27
-36.416496 12.709097 0.674529 9
-22.197474 8.031020 0.793031 7
-21.931297 8.016653 0.795568 7
-21.699385 8.012582 0.797813 12
-21.440180 8.000901 0.800287 7
-20.425611 7.701355 0.808884 2
-20.264460 7.860611 0.811111 65
-20.100277 7.943843 0.813037 19
-20.042330 7.994117 0.813797 4
-19.942005 8.172692 0.815466 2
-19.879736 8.220448 0.816247 2
-19.839577 8.276915 0.816847 2
-19.851025 8.354504 0.817032 2
-19.774797 8.392303 0.817901 2
-19.778360 8.466822 0.818144 2
-19.780304 8.544565 0.818412 2
-19.735445 8.598851 0.819035 2
-19.812933 8.702166 0.818673 2
-19.804241 8.772429 0.819006 2
-19.795275 8.842727 0.819339 2
-19.822588 8.929301 0.819384 2
-19.896954 9.037447 0.819058 2
-19.974426 9.147859 0.818708 2
-20.000414 9.235630 0.818762 2
-19.971527 9.298550 0.819242 2
-20.094721 9.432269 0.818534 2
-20.028944 9.478509 0.819299 2
-20.218227 9.723535 0.818327 29
-24.679705 11.955220 0.784017 14
-24.393158 11.913628 0.786539 14
-24.067690 11.850769 0.789351 28
-23.900841 11.854492 0.790901 40
-23.681980 11.845429 0.792887 23
-23.404655 11.800547 0.795300 26
-23.304510 11.838974 0.796331 22
-23.042274 11.798447 0.798612 22
-22.828444 11.785586 0.800527 15
-22.694889 11.808405 0.801808 25
-22.448160 11.770820 0.803946 21
-22.316895 11.788092 0.805184 21
-22.185493 11.813559 0.806443 15
-22.024393 11.817604 0.807910 15
-21.488945 11.705351 0.812435 24
-21.384928 11.736661 0.813449 22
-21.197094 11.720611 0.815090 30
-21.048220 11.716327 0.816410 55
-20.937582 11.741484 0.817459 42
-20.701963 11.694583 0.819441 36
-20.614084 11.735250 0.820319 36
-20.458862 11.732004 0.821686 26
-20.329929 11.738745 0.822841 15
-20.083721 11.684037 0.824885 20
-19.938143 11.678664 0.826154 35
-19.679289 11.612854 0.828278 28
-19.556520 11.622922 0.829374 19
-19.334827 11.571925 0.831200 24
-19.277334 11.619953 0.831803 15
-19.100662 11.594054 0.833284 20
-19.053366 11.647470 0.833804 33
-18.816549 11.573501 0.835702 38
-18.781031 11.637349 0.836136 23
-18.672949 11.650825 0.837092 17
-18.416840 11.649810 0.839285 21
-18.277555 11.636565 0.840450 19
-18.093237 11.596771 0.841947 22
-17.996096 11.613257 0.842802 20
-17.842480 11.591443 0.844065 20
-17.418861 11.382944 0.847285 30
-17.463451 11.495627 0.847100 22
-17.251608 11.430143 0.848772 20
-17.292715 11.532918 0.848594 18
-17.204660 11.554866 0.849365 18
-16.990593 11.484362 0.851040 45
-16.975346 11.547949 0.851264 26
-16.876389 11.556366 0.852096 24
-16.761278 11.552603 0.853043 24
-16.591164 11.508474 0.854382 30
-16.531685 11.543056 0.854919 24
-16.436600 11.551421 0.855709 22
-16.306177 11.533195 0.856751 28
-16.169632 11.509426 0.857833 28
-16.589581 11.456304 0.959183 17
-16.481567 11.455853 0.959559 23
-16.380211 11.459476 0.959930 21
-16.437208 11.578225 0.960299 49
-16.274569 11.536163 0.960662 35
-16.167004 11.533620 0.961022 47
-16.255060 11.676552 0.961395 19
-15.964377 11.689663 0.962449 19
-15.520516 11.577256 0.963426 15
-15.461469 11.607218 0.963762 15
-15.408648 11.641862 0.964098 4
-15.141208 11.573050 0.964672 4
-14.656726 11.408297 0.965518 23
-14.629533 11.460196 0.965841 27
-14.509899 11.435266 0.966118 25
-14.548776 11.538482 0.966454 27
-14.333341 11.427996 0.966656 42
-14.443153 11.595434 0.967048 34
-14.207882 11.476788 0.967275 87
-14.110616 11.467234 0.967543 68
-14.096951 11.525823 0.967844 57
-14.227603 11.710779 0.968242 29
-14.264396 11.826539 0.968632 14
