# .PCD v.7 - Point Cloud Data file format
VERSION .7
FIELDS x y z intensity
SIZE 4 4 4 1
TYPE F F F U
COUNT 1 1 1 1
WIDTH 1496
HEIGHT 1
VIEWPOINT 0 0 0 1 0 0 0
POINTS 1496
DATA ascii
-14.020555 -13.748886 -0.124570 11
-14.210753 -13.860193 -0.137243 28
-14.305221 -13.869399 -0.141416 20
-15.724244 -15.152306 -0.256986 2
-15.673012 -15.001552 -0.248036 2
-12.970149 -12.082115 -0.006104 4
-12.852468 -11.736595 0.014291 8
-12.841359 -11.651127 0.018582 4
-14.895056 -13.576992 -0.152027 6
-14.944565 -13.537457 -0.152307 12
-15.005474 -13.508790 -0.153556 6
-15.086567 -13.499139 -0.156498 4
-14.338608 -12.622492 -0.086626 5
-12.774032 -11.080616 0.046651 1
-14.108003 -12.172928 -0.057268 12
-15.471246 -13.255882 -0.162064 8
-13.097519 -11.029352 0.035166 9
-13.141325 -10.998547 0.034615 16
-14.817834 -12.339797 -0.094775 15
-14.830266 -12.271295 -0.092401 9
-14.736988 -12.111074 -0.081574 17
-14.392068 -11.734891 -0.050709 12
-16.074343 -13.103870 -0.181603 14
-14.831205 -11.958961 -0.079286 5
-16.204103 -13.044020 -0.184783 42
-16.474718 -13.100630 -0.199055 12
-16.609045 -13.126462 -0.206065 14
-16.519054 -12.801800 -0.188762 4
-15.052174 -11.536111 -0.071659 5
-16.691401 -12.772487 -0.195299 4
-15.423693 -11.601722 -0.091030 5
-15.465010 -11.562074 -0.091314 7
-15.463912 -11.485606 -0.088217 5
-16.824810 -12.460642 -0.188861 4
-14.909126 -10.910552 -0.040153 1
-15.047986 -10.873129 -0.045046 19
-15.043978 -10.798785 -0.041959 7
-15.103670 -10.772266 -0.043682 5
-15.192239 -10.766804 -0.047567 5
-15.277708 -10.758479 -0.051210 7
-15.379419 -10.761428 -0.056052 5
-15.474840 -10.759107 -0.060411 5
-15.554186 -10.744599 -0.063568 10
-15.656361 -10.745871 -0.068403 10
-15.757146 -10.741840 -0.072985 8
-15.841617 -10.732864 -0.076626 10
-15.950807 -10.736979 -0.081934 7
-16.037203 -10.724553 -0.085560 7
-16.150021 -10.729716 -0.091103 7
-16.244850 -10.725458 -0.095455 5
-16.348114 -10.722647 -0.100273 5
-16.454847 -10.721458 -0.105329 5
-16.555099 -10.715215 -0.109902 5
-16.668806 -10.717197 -0.115432 5
-16.779366 -10.716313 -0.120719 3
-16.896790 -10.719131 -0.126483 3
-17.034533 -10.734250 -0.133681 3
-17.138950 -10.726972 -0.138481 4
-17.230026 -10.710508 -0.142321 2
-18.438690 -11.399111 -0.225382 2
-17.429296 -10.686627 -0.151190 2
-17.557909 -10.691738 -0.157655 2
-18.016729 -10.822591 -0.184684 8
-18.119123 -10.808073 -0.189223 4
-18.142946 -10.745568 -0.188262 2
-19.808203 -11.664273 -0.301776 16
-19.734129 -11.452639 -0.290965 11
-19.880808 -11.455075 -0.298340 40
-19.910231 -11.388598 -0.297593 21
-18.831394 -10.685745 -0.220452 6
-18.958723 -10.680298 -0.226643 31
-18.919353 -10.579796 -0.221376 4
-19.119829 -10.614380 -0.232573 6
-20.985470 -11.573008 -0.357537 7
-21.044703 -11.432551 -0.356012 15
-20.073549 -10.819782 -0.287317 42
-20.223715 -10.819039 -0.294910 35
-20.007671 -10.621983 -0.277720 18
-19.942259 -10.506810 -0.270780 15
-20.010645 -10.462666 -0.272893 13
-20.086027 -10.421842 -0.275480 11
-20.175539 -10.387924 -0.279018 6
-20.329037 -10.386201 -0.286838 7
-20.457808 -10.370887 -0.292988 9
-20.549383 -10.340106 -0.296770 2
-16.070065 -8.031136 0.003642 1
-15.976325 -7.923625 0.011699 1
-15.907111 -7.829147 0.018088 1
-15.844593 -7.738723 0.024000 1
-15.836751 -7.672366 0.026355 1
-15.845482 -7.617158 0.027511 1
-15.893713 -7.580725 0.026055 1
-15.893707 -7.524460 0.027676 1
-15.963428 -7.497769 0.024797 1
-15.953315 -7.433980 0.027140 3
-15.968364 -7.381927 0.027822 4
-15.958842 -7.315915 0.030175 4
-15.958873 -7.257379 0.031806 4
-15.958666 -7.198920 0.033436 4
-15.957151 -7.142975 0.035055 4
-15.960141 -7.086263 0.036447 4
-15.949283 -7.020856 0.038797 4
-15.954425 -6.968305 0.039941 4
-15.916258 -6.894714 0.043937 1
-15.822487 -6.798361 0.051484 1
-15.824139 -6.742442 0.052872 1
-15.801854 -6.617864 0.057314 4
-15.854503 -6.529695 0.056765 1
-15.914534 -6.497391 0.054368 1
-15.979178 -6.463744 0.051746 1
-16.001835 -6.416353 0.051716 1
-16.042982 -6.375984 0.050504 1
-16.035456 -6.317065 0.052365 1
-16.056696 -6.271892 0.052325 1
-16.208870 -6.275115 0.044019 1
-16.204639 -6.217255 0.045645 1
-16.432968 -6.243742 0.032635 1
-16.632494 -6.255377 0.021530 1
-16.817236 -6.260294 0.011374 1
-17.000378 -6.269163 0.001202 1
-17.225246 -6.291244 -0.011560 1
-17.307791 -6.260052 -0.015345 1
-17.527382 -6.271719 -0.027602 1
-17.628946 -6.245343 -0.032559 1
-21.752050 -7.551107 -0.287503 2
-21.722733 -7.461316 -0.283902 2
-21.718513 -7.383849 -0.281965 2
-21.649321 -7.285867 -0.276027 2
-21.616690 -7.203869 -0.272459 2
-19.175301 -6.368416 -0.120151 2
-19.251129 -6.326041 -0.123429 2
-19.224625 -6.248861 -0.120343 2
-19.208363 -6.178387 -0.117975 2
-19.276054 -6.133021 -0.120781 2
-19.446236 -6.120526 -0.129944 2
-21.397566 -6.617586 -0.248127 2
-21.398766 -6.540990 -0.246656 2
-21.370853 -6.463670 -0.243569 2
-21.343578 -6.383220 -0.240470 2
-21.316900 -6.299656 -0.237358 2
-21.299620 -6.226213 -0.234979 2
-21.286821 -6.150603 -0.232822 2
-21.323942 -6.088316 -0.233715 2
-21.356997 -6.024833 -0.234373 2
-21.347279 -5.950334 -0.232451 2
-21.336428 -5.879339 -0.230544 2
-21.326992 -5.801724 -0.228610 2
-21.293146 -5.721943 -0.225284 2
-21.255905 -5.638164 -0.221711 2
-21.212837 -5.560510 -0.217934 2
-21.208359 -5.492248 -0.216499 2
-21.169376 -5.412687 -0.212944 2
-21.106703 -5.328182 -0.207987 2
-21.082657 -5.252817 -0.205371 2
-21.011501 -5.167458 -0.199950 2
-21.014166 -5.098560 -0.198974 2
-21.040024 -5.034638 -0.199402 2
-21.026567 -4.962482 -0.197491 2
-20.989361 -4.885691 -0.194179 2
-21.022333 -4.823299 -0.195074 2
-21.048452 -4.690412 -0.194527 19
-21.049393 -4.621675 -0.193553 12
-21.043280 -4.479565 -0.191125 2
-21.051325 -4.412373 -0.190619 2
-21.086668 -4.349971 -0.191745 2
-21.098192 -4.283328 -0.191471 2
-21.132553 -4.223938 -0.192610 2
-21.190924 -4.164885 -0.195133 2
-21.237288 -4.103568 -0.196956 2
-21.215862 -4.034809 -0.194831 2
-21.194708 -3.962876 -0.192693 2
-21.142193 -3.883056 -0.188679 2
-21.156036 -3.816799 -0.188638 2
-21.141979 -3.746539 -0.186968 2
-21.143484 -3.678608 -0.186229 2
-21.101221 -3.604810 -0.182932 2
-21.129938 -3.540730 -0.183823 2
-21.118832 -3.471401 -0.182387 2
-21.095589 -3.400700 -0.180255 2
-21.067715 -3.333038 -0.177905 2
-21.063791 -3.265067 -0.176937 2
-21.051689 -3.196244 -0.175504 2
-21.051247 -3.128852 -0.174769 2
-21.039013 -3.056890 -0.173323 2
-21.053967 -2.991244 -0.173517 2
-21.048826 -2.923532 -0.172550 2
-21.027546 -2.854348 -0.170656 2
-20.985826 -2.786803 -0.167616 2
-21.023712 -2.723371 -0.169202 2
-20.985794 -2.653193 -0.166382 2
-20.979454 -2.585928 -0.165417 2
-20.996763 -2.520613 -0.165844 2
-20.981991 -2.452793 -0.164417 2
-20.959011 -2.384521 -0.162527 2
-20.999531 -2.320791 -0.164343 2
-21.007956 -2.254723 -0.164306 2
-21.008179 -2.188123 -0.163805 2
-21.012156 -2.121768 -0.163537 2
-21.019890 -2.055616 -0.163500 2
-21.063286 -1.991252 -0.165544 2
-21.030676 -1.923002 -0.163195 2
-21.013779 -1.855693 -0.161770 2
-21.036547 -1.790127 -0.162658 2
-20.995237 -1.722052 -0.159848 2
-20.973530 -1.658255 -0.158208 2
-20.899818 -1.589737 -0.153553 2
-20.877756 -1.523125 -0.151902 2
-20.883406 -1.457322 -0.151867 2
-20.852892 -1.390778 -0.149756 2
-20.822088 -1.327738 -0.147658 2
-20.831049 -1.262139 -0.147856 2
-20.835819 -1.193158 -0.147809 2
-20.844311 -1.127456 -0.148006 2
-20.848572 -1.064977 -0.147985 2
12.788527 0.256203 0.159452 1
12.788900 0.204243 0.159452 1
12.812983 0.154190 0.158192 1
12.848648 0.107481 0.156311 1
12.840530 0.054776 0.156732 1
12.840196 0.002690 0.156732 1
12.899467 -0.045469 0.153577 1
12.946623 -0.094770 0.151052 1
12.925824 -0.148347 0.152103 1
13.000557 -0.196513 0.148103 1
13.003328 -0.248881 0.147891 1
13.001928 -0.301449 0.147890 1
13.060201 -0.351341 0.144729 1
13.062432 -0.403916 0.144516 1
13.072463 -0.456199 0.143882 1
13.090297 -0.508275 0.142827 1
13.115855 -0.557587 0.141359 1
13.133338 -0.609922 0.140303 1
13.150640 -0.662374 0.139246 1
13.147791 -0.715343 0.139244 1
13.108811 -0.768885 0.141143 1
13.073638 -0.822100 0.142832 1
13.070232 -0.874757 0.142832 1
13.050664 -0.927487 0.143677 1
13.102812 -0.979887 0.140718 1
13.090865 -1.032597 0.141140 1
13.110702 -1.082724 0.139882 1
13.146328 -1.135745 0.137766 1
13.165792 -1.188838 0.136496 1
13.177080 -1.241952 0.135649 1
13.176250 -1.292281 0.135448 1
13.183183 -1.345426 0.134812 1
13.213888 -1.399221 0.132905 1
13.238793 -1.506318 0.130997 4
13.221025 -1.558944 0.131632 3
13.322814 -1.616110 0.125906 1
13.292693 -1.668409 0.127178 1
13.310276 -1.722704 0.125904 1
13.335646 -1.777523 0.124205 1
13.352840 -1.832106 0.122930 1
13.377968 -1.884583 0.121241 1
13.402756 -1.939925 0.119540 1
13.435488 -1.993261 0.117425 1
13.452092 -2.045765 0.116159 1
13.468140 -2.103790 0.114871 1
13.468234 -2.158072 0.114444 1
13.468139 -2.212367 0.114016 1
13.459889 -2.266034 0.114014 1
13.467375 -2.320997 0.113162 1
13.418958 -2.371145 0.115289 1
11.079351 -2.209849 0.240047 1
10.884231 -2.237461 0.250087 2
10.637618 -2.256456 0.262910 1
10.386610 -2.277750 0.275935 1
10.060367 -2.287172 0.293025 1
9.559709 -2.273340 0.319511 1
9.328993 -2.288353 0.331504 0
9.090380 -2.300854 0.343931 0
8.867459 -2.315490 0.355503 0
8.545699 -2.314485 0.372423 0
8.434112 -2.337776 0.378040 0
8.092980 -2.328713 0.396049 0
7.914133 -2.340729 0.405306 0
7.830541 -2.362787 0.409448 0
7.746435 -2.387708 0.413579 0
7.654615 -2.409206 0.418146 0
7.578572 -2.432411 0.421861 1
7.506435 -2.455699 0.425364 1
7.446095 -2.480331 0.428228 1
7.382013 -2.502298 0.431313 0
7.321571 -2.526119 0.434180 0
7.304427 -2.556696 0.434695 0
7.291122 -2.587837 0.434995 0
7.281650 -2.619582 0.435082 0
7.264201 -2.649895 0.435598 0
7.250585 -2.680813 0.435899 0
7.248653 -2.713813 0.435559 0
7.239053 -2.743742 0.435653 0
7.232972 -2.775982 0.435527 0
7.238544 -2.810481 0.434757 0
7.232230 -2.842719 0.434631 0
7.225804 -2.874935 0.434505 0
7.227092 -2.908731 0.433950 0
7.216861 -2.938505 0.434045 0
7.210442 -2.969059 0.433926 0
7.215290 -3.003720 0.433156 0
7.212204 -3.036731 0.432816 0
7.205101 -3.068875 0.432691 0
7.209573 -3.103640 0.431921 0
7.194451 -3.133985 0.432225 0
7.210346 -3.171519 0.430810 0
7.210546 -3.205501 0.430255 0
7.199358 -3.235098 0.430352 0
7.203202 -3.270042 0.429581 0
7.195285 -3.302155 0.429457 0
7.225987 -3.343995 0.427179 0
7.233291 -3.380143 0.426193 0
7.232722 -3.414365 0.425637 0
7.235889 -3.449628 0.424866 0
7.238922 -3.484942 0.424094 0
7.237966 -3.519263 0.423538 0
7.252289 -3.557835 0.422120 0
7.243367 -3.590116 0.421995 0
7.261243 -3.629951 0.420360 0
7.252531 -3.660648 0.420242 0
7.306684 -3.746516 0.415891 2
7.346881 -3.793758 0.412959 3
7.428938 -3.853961 0.407650 14
7.256228 -3.872665 0.416039 0
7.364406 -3.941839 0.409215 0
13.905089 -6.043628 0.037279 1
13.925489 -6.111280 0.034903 1
13.942710 -6.175124 0.032754 1
13.943586 -6.236955 0.031458 1
13.951808 -6.301365 0.029730 1
13.944625 -6.360823 0.028867 1
13.956135 -6.426703 0.026922 1
13.967379 -6.492729 0.024976 1
13.970809 -6.556282 0.023463 1
13.996604 -6.627854 0.020650 1
13.995742 -6.690332 0.019353 1
13.991879 -6.748734 0.018283 1
13.991560 -6.808532 0.016997 1
13.992726 -6.875346 0.015472 1
14.028365 -6.951931 0.012006 1
14.042264 -7.017640 0.009850 1
14.054845 -7.086308 0.007684 1
14.062338 -7.156516 0.005723 1
14.096698 -7.234125 0.002254 1
14.165301 -7.322289 -0.003160 1
14.187785 -7.396245 -0.005981 1
14.193979 -7.467354 -0.007945 1
14.208418 -7.538747 -0.010332 1
14.242209 -7.615001 -0.013796 1
14.275673 -7.691550 -0.017261 1
14.276928 -7.761858 -0.019010 1
14.290129 -7.834049 -0.021400 1
14.288307 -7.900197 -0.022920 1
14.305804 -7.971404 -0.025518 1
14.316887 -8.046920 -0.027921 1
14.310559 -8.111798 -0.029224 1
14.378378 -8.205966 -0.034872 1
14.387315 -8.274792 -0.037037 1
1.340332 -2.541532 0.739755 0
1.373100 -2.584986 0.737051 7
1.309739 -2.569654 0.740495 7
1.264583 -2.562429 0.742851 8
1.219518 -2.554909 0.745207 11
1.181744 -2.550555 0.747128 12
1.155088 -2.550638 0.748398 14
1.128199 -2.551107 0.749666 21
1.101345 -2.551407 0.750935 23
1.070953 -2.549758 0.752423 25
1.040610 -2.547915 0.753912 26
1.013881 -2.547685 0.755183 27
0.983900 -2.544948 0.756675 27
0.960806 -2.546205 0.757729 29
0.941283 -2.549162 0.758565 28
0.918238 -2.550146 0.759619 29
0.888162 -2.547254 0.761112 28
0.865189 -2.547930 0.762168 27
0.845765 -2.550355 0.763006 27
0.809071 -2.542654 0.764940 29
0.779203 -2.539042 0.766436 28
0.759890 -2.541023 0.767275 28
0.744088 -2.544828 0.767897 28
0.714355 -2.540732 0.769394 33
0.691640 -2.540376 0.770454 30
0.672697 -2.541391 0.771297 30
0.650047 -2.540771 0.772358 30
0.627169 -2.540471 0.773418 30
0.611760 -2.543139 0.774044 30
0.575437 -2.534030 0.775983 36
0.559826 -2.536902 0.776608 35
0.544227 -2.539685 0.777233 35
0.521796 -2.538256 0.778297 35
0.499406 -2.536690 0.779362 37
0.484138 -2.538720 0.779990 36
0.468353 -2.541528 0.780615 36
0.456239 -2.545920 0.781022 37
0.437355 -2.546007 0.781869 39
0.418766 -2.545558 0.782718 39
0.396571 -2.543280 0.783786 38
0.384510 -2.547328 0.784194 42
0.359028 -2.542647 0.785483 41
0.343919 -2.543931 0.786113 42
0.321878 -2.541160 0.787183 41
0.299887 -2.538254 0.788253 42
0.277943 -2.535213 0.789323 44
0.269321 -2.540932 0.789514 42
0.257376 -2.544374 0.789925 44
0.238831 -2.543258 0.790777 44
0.223615 -2.544289 0.791409 45
0.208420 -2.545233 0.792041 44
0.196523 -2.548370 0.792453 45
0.178358 -2.546478 0.793308 46
0.163226 -2.547162 0.793941 46
0.144861 -2.545445 0.794795 48
0.133295 -2.547899 0.795210 49
0.114991 -2.545988 0.796064 49
0.096726 -2.543969 0.796919 50
0.084947 -2.546560 0.797334 53
0.063533 -2.541975 0.798410 50
0.048322 -2.542382 0.799044 55
0.036865 -2.544380 0.799461 49
0.021962 -2.544268 0.800097 50
0.013446 -2.548901 0.800293 54
-0.004594 -2.546215 0.801150 55
-0.019427 -2.545859 0.801787 54
-0.031078 -2.547866 0.802204 56
-0.042452 -2.549469 0.802622 55
-0.057220 -2.548883 0.803261 56
-0.075090 -2.545732 0.804120 56
-0.086672 -2.547459 0.804538 56
-0.101355 -2.546620 0.805177 56
-0.109801 -2.550725 0.805374 59
-0.130633 -2.544693 0.806456 56
-0.148313 -2.541068 0.807317 55
-0.156446 -2.544655 0.807516 58
-0.174057 -2.540857 0.808378 56
-0.182438 -2.544655 0.808577 57
-0.193875 -2.545835 0.808997 58
-0.211116 -2.541466 0.809861 58
-0.219472 -2.545104 0.810060 58
-0.234147 -2.543792 0.810701 56
-0.242493 -2.547327 0.810900 57
-0.253581 -2.547887 0.811322 57
-0.268184 -2.546356 0.811964 62
-0.279498 -2.547090 0.812386 63
-0.287551 -2.550126 0.812587 61
-0.298842 -2.550751 0.813009 63
-0.310117 -2.551316 0.813432 60
-0.321374 -2.551822 0.813854 60
-0.338496 -2.546863 0.814721 60
-0.343570 -2.552364 0.814701 60
-0.357698 -2.549970 0.815346 62
-0.368875 -2.550228 0.815770 63
-0.379768 -2.550145 0.816194 62
-0.387747 -2.552758 0.816397 62
-0.404648 -2.547329 0.817265 60
-0.413133 -2.550393 0.817467 64
-0.424484 -2.550633 0.817891 62
-0.440991 -2.544680 0.818761 63
-0.448904 -2.547040 0.818965 67
-0.459918 -2.546821 0.819390 63
-0.470911 -2.546545 0.819815 63
-0.479067 -2.549042 0.820019 67
-0.493102 -2.546080 0.820666 69
-0.503766 -2.545367 0.821093 67
-0.514408 -2.544600 0.821521 66
-0.522518 -2.546906 0.821725 67
-0.533393 -2.546295 0.822152 67
-0.544245 -2.545626 0.822579 67
-0.555075 -2.544900 0.823006 67
-0.560409 -2.549935 0.822989 63
-0.568486 -2.552033 0.823194 66
-0.579277 -2.551165 0.823622 66
-0.587338 -2.553178 0.823827 64
-0.598092 -2.552207 0.824256 67
-0.606137 -2.554135 0.824461 64
-0.619528 -2.550096 0.825113 69
-0.624611 -2.554665 0.825097 64
-0.637943 -2.550507 0.825749 62
-0.645940 -2.552259 0.825955 63
-0.656567 -2.550973 0.826385 66
-0.667168 -2.549631 0.826814 66
-0.675130 -2.551254 0.827021 63
-0.688293 -2.546782 0.827674 63
-0.696224 -2.548313 0.827881 67
-0.706731 -2.546760 0.828312 63
-0.714640 -2.548209 0.828520 74
-0.725104 -2.546556 0.828950 77
-0.738090 -2.541774 0.829604 85
-0.743145 -2.545950 0.829590 83
-0.751009 -2.547237 0.829799 82
-0.758866 -2.548487 0.830007 79
-0.771731 -2.543483 0.830662 83
-0.784545 -2.538408 0.831317 83
-0.789854 -2.542641 0.831303 86
-0.800126 -2.540586 0.831735 90
-0.805443 -2.544765 0.831721 96
-0.815678 -2.542621 0.832154 100
-0.825883 -2.540424 0.832587 100
-0.836059 -2.538174 0.833020 100
-0.843521 -2.538848 0.833230 100
-0.846423 -2.546062 0.832993 100
-0.854155 -2.546885 0.833203 100
-0.864266 -2.544471 0.833637 78
-0.871970 -2.545215 0.833848 77
-0.879666 -2.545924 0.834058 81
-0.882649 -2.553053 0.833822 76
-0.888008 -2.556944 0.833809 100
-0.897773 -2.554137 0.834244 76
-0.907774 -2.551472 0.834679 79
-0.915436 -2.552016 0.834890 76
-0.918495 -2.559060 0.834654 78
-0.925892 -2.559363 0.834866 78
-0.938095 -2.553253 0.835525 74
-0.945985 -2.553844 0.835736 77
-0.951347 -2.557514 0.835724 74
-0.958960 -2.557858 0.835936 78
-0.964336 -2.561482 0.835924 71
-0.976371 -2.555120 0.836584 73
-0.981469 -2.558506 0.836573 76
-0.989309 -2.558891 0.836785 71
-0.994419 -2.562234 0.836774 74
-1.001710 -2.562208 0.836987 74
-1.016002 -2.552414 0.837872 71
-1.019213 -2.559208 0.837637 74
-1.028862 -2.555871 0.838074 71
-1.038475 -2.552486 0.838511 73
-1.043564 -2.555666 0.838501 67
-1.053130 -2.552201 0.838939 69
-1.058486 -2.555497 0.838928 69
-1.068004 -2.551951 0.839366 71
-1.073359 -2.555195 0.839356 71
-1.080509 -2.554833 0.839571 71
-1.089954 -2.551167 0.840009 69
-1.097334 -2.550895 0.840223 71
-1.102953 -2.554193 0.840213 71
-1.110319 -2.553861 0.840427 70
-1.115411 -2.556803 0.840418 67
-1.126723 -2.549477 0.841082 73
-1.132069 -2.552516 0.841072 69
-1.137425 -2.555536 0.841063 66
-1.144735 -2.555049 0.841278 70
-1.152032 -2.554530 0.841493 69
-1.161233 -2.550476 0.841933 66
-1.166582 -2.553395 0.841924 66
-1.173836 -2.552779 0.842140 67
-1.181075 -2.552132 0.842355 63
-1.182689 -2.562039 0.841898 66
-1.195243 -2.550601 0.842788 63
-1.198746 -2.556942 0.842555 63
-1.204117 -2.559730 0.842546 65
-1.211319 -2.558945 0.842763 62
-1.216697 -2.561689 0.842754 62
-1.225678 -2.557280 0.843196 62
-1.232566 -2.556267 0.843413 62
-1.237934 -2.558936 0.843405 60
-1.245340 -2.558134 0.843621 59
-1.247222 -2.567942 0.843164 59
-1.257565 -2.559638 0.843831 62
-1.264667 -2.558617 0.844048 59
-1.271753 -2.557565 0.844265 62
-1.275429 -2.563714 0.844033 62
-1.284192 -2.558991 0.844475 63
-1.291241 -2.557853 0.844693 63
-1.294956 -2.563951 0.844461 61
-1.303643 -2.559126 0.844904 62
-1.307118 -2.565071 0.844672 62
-1.314139 -2.563830 0.844890 58
-1.321142 -2.562560 0.845108 64
-1.326532 -2.564920 0.845102 64
-1.335096 -2.559929 0.845545 62
-1.337336 -2.569585 0.845089 64
-1.342750 -2.571888 0.845082 67
-1.354083 -2.559329 0.845976 63
-1.357929 -2.565263 0.845745 63
-1.363328 -2.567495 0.845739 65
-1.370241 -2.566009 0.845958 56
-1.377137 -2.564494 0.846177 62
-1.381052 -2.570368 0.845946 66
-1.389405 -2.565091 0.846390 64
-1.394533 -2.567108 0.846385 63
-1.400209 -2.569316 0.846379 63
-1.405622 -2.571401 0.846373 63
-1.413874 -2.565998 0.846818 59
-1.419005 -2.567933 0.846813 63
-1.425803 -2.566208 0.847033 61
-1.431205 -2.568203 0.847028 56
-1.436344 -2.570081 0.847023 59
-1.445545 -2.560668 0.847693 56
-1.449858 -2.566453 0.847463 58
-1.452610 -2.575899 0.847008 58
-1.459358 -2.574028 0.847228 58
-1.465816 -2.572037 0.847449 58
-1.472524 -2.570111 0.847670 59
-1.477940 -2.571943 0.847665 59
-1.482101 -2.577546 0.847435 58
-1.488789 -2.575550 0.847656 61
-1.494495 -2.577414 0.847652 56
-1.502105 -2.571476 0.848098 58
-1.507524 -2.573205 0.848094 56
-1.511757 -2.578726 0.847865 58
-1.519292 -2.572706 0.848312 58
-1.522653 -2.582097 0.847857 58
-1.531571 -2.572283 0.848529 56
-1.536994 -2.573909 0.848525 58
-1.541295 -2.579347 0.848297 58
-1.547856 -2.577104 0.848518 54
-1.549720 -2.590111 0.847839 59
-1.559555 -2.576303 0.848737 60
-1.563917 -2.581678 0.848508 58
-1.566190 -2.594741 0.847829 58
-1.574560 -2.584610 0.848502 58
-1.580025 -2.586086 0.848499 56
-1.587537 -2.579820 0.848947 58
-1.592252 -2.585186 0.848718 56
-1.598712 -2.582732 0.848941 59
-1.603191 -2.587995 0.848713 59
-1.605493 -2.600927 0.848034 59
-1.614150 -2.590728 0.848708 56
-1.618697 -2.595947 0.848480 59
-1.625127 -2.593383 0.848703 58
-1.629711 -2.598571 0.848475 58
-1.634050 -2.603681 0.848247 56
-1.642238 -2.593266 0.848922 56
-1.647733 -2.594506 0.848919 41
-1.649799 -2.611327 0.848016 100
-1.655357 -2.612540 0.848014 80
-1.658426 -2.625452 0.847335 74
-1.666208 -2.614849 0.848010 49
-1.671778 -2.616005 0.848008 28
-1.678934 -2.609312 0.848458 10
-1.681376 -2.626092 0.847554 10
-1.683932 -2.642875 0.846651 6
-1.688101 -2.651814 0.846198 6
-1.693800 -2.652893 0.846197 6
-1.700948 -2.646096 0.846647 3
-1.704501 -2.658921 0.845969 6
-1.708140 -2.671741 0.845291 6
-1.717030 -2.653025 0.846418 3
-1.723117 -2.650017 0.846643 3
-1.727499 -2.658853 0.846191 3
-1.731940 -2.667678 0.845739 3
-1.733302 -2.696212 0.844160 3
-1.748976 -2.633994 0.847767 3
-1.748013 -2.678292 0.845286 3
-1.747942 -2.718665 0.843031 2
-1.754447 -2.715583 0.843256 8
-1.762603 -2.700612 0.844157 33
-1.767973 -2.749727 0.841451 2
-1.783350 -2.771842 0.840323 78
-1.788038 -2.784483 0.839647 100
-1.793738 -2.789180 0.839422 71
-1.799467 -2.793857 0.839197 99
-1.804792 -2.802486 0.838746 114
-1.811017 -2.803157 0.838747 114
-1.818465 -2.791888 0.839424 114
-1.826670 -2.836843 0.836945 21
-1.828995 -2.881183 0.834465 31
-1.833737 -2.901660 0.833339 28
-1.838957 -2.918146 0.832438 26
-1.843632 -2.938572 0.831312 19
-1.849737 -2.951077 0.830637 15
-1.853225 -2.995400 0.828158 9
-1.846208 -3.187090 0.817336 21
-1.848130 -3.271290 0.812603 33
-1.851403 -3.343545 0.808546 14
-1.846504 -3.559314 0.796373 45
-1.852420 -3.611668 0.793444 108
-1.860617 -3.628119 0.792545 76
-1.801983 -5.612414 0.680504 0
-1.816753 -5.645002 0.678707 1
-1.833046 -5.641623 0.678938 1
-1.849313 -5.638186 0.679170 1
-1.865438 -5.638685 0.679176 1
-1.881667 -5.635134 0.679408 1
-1.897605 -5.643505 0.678964 2
-1.913673 -5.647828 0.678746 2
-1.930013 -5.636122 0.679430 2
-1.962248 -5.636499 0.679445 8
-1.978441 -5.620628 0.680354 7
-1.993674 -5.640644 0.679235 8
-2.009000 -5.640639 0.679243 9
-2.025961 -5.644569 0.679027 13
-2.042071 -5.640458 0.679261 20
-2.057644 -5.660260 0.678143 32
-2.073337 -5.628086 0.679955 23
-2.089995 -5.615808 0.680642 17
-2.106224 -5.623451 0.680201 15
-2.122402 -5.627045 0.679985 14
-2.137802 -5.630606 0.679770 15
-2.153765 -5.626106 0.680006 11
-2.170650 -5.625512 0.680017 8
-2.187052 -5.632870 0.679577 6
-2.201651 -5.616265 0.680489 4
-2.219448 -5.635442 0.679374 4
-2.235765 -5.638637 0.679161 4
-2.251236 -5.625823 0.679848 4
-2.265589 -5.609016 0.680761 3
-2.281784 -5.624056 0.679871 2
-2.299437 -5.634949 0.679209 2
-2.317173 -5.645773 0.678547 2
-2.332227 -5.640713 0.678784 2
-2.348658 -5.643508 0.678572 2
-2.364485 -5.638282 0.678811 2
-2.381263 -5.644943 0.678374 2
-2.397408 -5.643584 0.678388 2
-2.412031 -5.634285 0.678852 2
-2.428139 -5.632820 0.678866 1
-2.445391 -5.643223 0.678205 1
-2.461530 -5.641641 0.678220 1
-2.479306 -5.655892 0.677335 1
-2.494215 -5.642278 0.678025 1
-2.509473 -5.632586 0.678491 1
-2.526932 -5.642684 0.677832 1
-2.542136 -5.632885 0.678298 1
-2.558871 -5.642956 0.677638 1
-2.574515 -5.637015 0.677879 1
-2.592659 -5.650827 0.676996 1
-2.607262 -5.636852 0.677688 0
-2.623377 -5.634705 0.677705 0
-2.641131 -5.644369 0.677047 0
-2.656148 -5.634195 0.677515 0
-2.671449 -5.631994 0.677531 0
-2.689315 -5.641473 0.676875 0
-2.704843 -5.635091 0.677118 0
-2.722992 -5.640368 0.676687 0
-2.739119 -5.637817 0.676706 0
-2.754593 -5.631268 0.676950 0
-2.770029 -5.624668 0.677194 0
-2.785970 -5.626026 0.676987 0
-2.803417 -5.631124 0.676557 0
-2.818114 -5.620428 0.677027 0
-2.835597 -5.625403 0.676597 0
-2.853851 -5.634240 0.675943 0
-2.866192 -5.615685 0.676862 0
-2.886753 -5.636166 0.675534 0
-2.902864 -5.633043 0.675555 0
-2.918965 -5.629864 0.675576 0
-2.936654 -5.630379 0.675374 0
-2.949516 -5.615515 0.676068 0
-2.970486 -5.635623 0.674743 0
-2.984924 -5.624397 0.675214 0
-3.000994 -5.620931 0.675236 0
-3.020502 -5.633007 0.674361 0
-3.038355 -5.637210 0.673934 0
-3.053579 -5.629664 0.674182 0
-3.067057 -5.618365 0.674653 0
-3.079441 -5.599064 0.675574 0
-3.099942 -5.610613 0.674702 0
-3.116908 -5.610627 0.674501 0
-3.138675 -5.629963 0.673179 0
-3.182105 -5.602527 0.674149 0
-3.200119 -5.606100 0.673725 0
-3.218173 -5.609604 0.673302 0
-3.231076 -5.593755 0.674000 0
-3.250192 -5.600988 0.673353 0
-3.267243 -5.600446 0.673155 0
-3.282150 -5.592150 0.673406 0
-3.302472 -5.603014 0.672535 0
-3.315150 -5.586926 0.673235 0
-3.333324 -5.589976 0.672813 0
-3.352668 -5.596785 0.672168 0
-3.377802 -5.622643 0.670402 0
-3.386113 -5.595117 0.671773 0
-3.407935 -5.609341 0.670681 0
-3.425134 -5.608213 0.670485 0
-3.444739 -5.614640 0.669842 0
-3.464406 -5.620986 0.669198 0
-3.478012 -5.608245 0.669675 0
-3.491547 -5.595464 0.670152 0
-3.507513 -5.590230 0.670182 0
-3.534839 -5.619036 0.668196 0
-3.547531 -5.606353 0.668673 0
-3.569497 -5.615768 0.667809 0
-3.582926 -5.602713 0.668287 0
-3.598917 -5.597160 0.668318 0
-3.616218 -5.595317 0.668125 0
-3.630839 -5.585887 0.668380 0
-3.650042 -5.591724 0.667738 0
-3.671470 -5.600944 0.666875 0
-3.680544 -5.576347 0.668025 0
-3.699831 -5.581977 0.667385 0
-3.721379 -5.590966 0.666523 0
-3.740168 -5.592395 0.666108 0
-3.750388 -5.571383 0.667035 0
-3.764167 -5.557493 0.667517 0
-3.793141 -5.584763 0.665538 0
-3.806121 -5.571052 0.666019 0
-3.827149 -5.579867 0.665157 0
-3.852049 -5.595674 0.663851 0
-3.860456 -5.570698 0.665002 0
-3.879382 -5.571559 0.664590 0
-3.896800 -5.568658 0.664401 0
-3.923519 -5.587775 0.662873 0
-3.934767 -5.570008 0.663578 0
-3.954574 -5.574577 0.662942 0
-3.980780 -5.593725 0.661414 0
-4.011940 -5.619366 0.659443 0
-4.033630 -5.622921 0.658812 0
-4.046435 -5.608500 0.659295 0
-4.073919 -5.626822 0.657771 0
-4.093296 -5.626827 0.657362 0
-4.107703 -5.615862 0.657623 0
-4.112874 -5.587100 0.658997 0
-4.126322 -5.576450 0.659256 0
-4.142218 -5.569000 0.659295 0
-4.157166 -5.557512 0.659558 0
-4.179111 -5.564739 0.658703 0
-4.192435 -5.553893 0.658963 0
-4.220510 -5.571338 0.657442 0
-4.226594 -5.541672 0.658821 0
-4.249476 -5.548180 0.657969 0
-4.266061 -5.539906 0.658011 0
-4.286446 -5.543059 0.657381 0
-4.309482 -5.549283 0.656531 0
-4.328935 -5.548297 0.656126 0
-4.395675 -5.599166 0.651979 0
-4.419103 -5.604906 0.651131 0
-4.440725 -5.607011 0.650506 0
-4.456726 -5.598464 0.650549 0
-4.472696 -5.589861 0.650591 0
-4.486724 -5.577697 0.650857 0
-4.515299 -5.593923 0.649341 0
-4.533191 -5.588608 0.649163 0
-4.547178 -5.576252 0.649429 0
-4.563070 -5.567334 0.649473 0
-4.588798 -5.575722 0.648406 0
-4.609454 -5.573134 0.648009 0
-4.619341 -5.553624 0.648720 0
-4.662497 -5.593234 0.645653 0
-4.663506 -5.560266 0.647251 0
-4.695605 -5.578444 0.645520 0
-4.736042 -5.610175 0.642902 0
-4.749996 -5.597174 0.643171 0
-4.787452 -5.621223 0.641001 0
-4.804302 -5.610977 0.641050 0
-4.823700 -5.608455 0.640652 0
-4.838905 -5.599067 0.640698 0
-4.867573 -5.609452 0.639415 0
-4.879324 -5.592656 0.639907 0
-4.902490 -5.592188 0.639293 0
-4.907675 -5.565207 0.640451 0
-4.962479 -5.615453 0.636510 0
-4.963276 -5.581640 0.638111 0
-4.995885 -5.598525 0.636386 0
-5.031639 -5.618050 0.634442 0
-5.057318 -5.620213 0.633609 0
-5.108917 -5.662610 0.630117 0
-5.124299 -5.652275 0.630166 0
-5.149433 -5.654555 0.629333 0
-5.218005 -5.685058 0.625897 1
-9.054317 -11.170459 0.255022 7
-9.080553 -11.132688 0.256025 23
-9.120962 -11.118945 0.255473 11
-9.037300 -10.850152 0.270535 1
-12.622447 -15.323854 -0.045748 41
-12.717670 -15.352523 -0.050000 28
-12.786872 -15.340548 -0.051591 13
-12.868191 -15.344172 -0.054284 13
-13.046673 -15.474334 -0.065809 7
-13.125316 -15.368460 -0.063458 5
-12.740231 -14.772393 -0.024213 15
-12.761022 -14.700291 -0.021610 5
-12.865767 -14.734647 -0.026508 12
-13.155226 -14.999453 -0.047726 7
-13.306550 -15.088067 -0.056585 20
-13.438526 -15.150960 -0.063677 3
-12.196190 -13.437887 0.053293 61
-11.837807 -12.920716 0.088048 31
-11.902777 -12.918727 0.085997 30
-11.836507 -12.755531 0.095410 12
-12.302508 -13.224695 0.059229 6
-12.492514 -13.362107 0.046844 32
-12.098556 -12.731997 0.087686 3
-11.945608 -12.473517 0.104136 16
-13.973100 -14.520167 -0.053747 11
-11.089041 -11.125250 0.191791 15
-11.100138 -11.066821 0.193915 15
-11.137855 -11.037948 0.193842 6
-12.558826 -12.514919 0.081262 7
-13.114199 -13.035062 0.039690 14
-13.183307 -13.025419 0.037671 14
-12.492845 -12.205646 0.096705 4
-13.894942 -13.611929 -0.012251 22
-14.087487 -13.726598 -0.023915 21
-14.059946 -13.609341 -0.018016 82
-14.544726 -14.024214 -0.052713 54
-13.308590 -12.580167 0.051875 16
-13.772325 -12.891459 0.022188 87
-13.706461 -12.742901 0.030705 8
-13.951237 -12.739924 0.021844 3
-13.883354 -12.592251 0.030356 3
-12.218254 -10.901475 0.160623 1
-12.327596 -10.937675 0.155091 1
-12.373724 -10.912593 0.154379 1
-12.469104 -10.933994 0.149947 4
-12.518205 -10.911073 0.149018 4
-12.573112 -10.893380 0.147652 4
-12.639738 -10.886288 0.145413 5
-12.697628 -10.870734 0.143831 4
-12.776173 -10.873762 0.140719 5
-12.857824 -10.879046 0.137391 6
-12.920127 -10.869740 0.135368 12
-12.990155 -10.863540 0.132917 13
-13.072210 -10.867588 0.129595 12
-13.138183 -10.853376 0.127593 12
-13.205487 -10.843400 0.125365 13
-13.284908 -10.843564 0.122266 16
-13.367488 -10.845904 0.118950 18
-13.445475 -10.847184 0.115846 18
-13.516191 -10.838269 0.113406 16
-13.596131 -10.836721 0.110314 16
-13.673142 -10.832165 0.107442 16
-13.750262 -10.827190 0.104572 16
-13.833640 -10.826894 0.101267 18
-13.917158 -10.826134 0.097964 18
-13.994629 -10.819856 0.095099 13
-14.072201 -10.813156 0.092236 13
-14.159203 -10.813550 0.088721 12
-14.236996 -10.805971 0.085861 9
-14.324268 -10.805420 0.082350 9
-14.416531 -10.804684 0.078633 9
-14.504098 -10.803124 0.075126 10
-14.579189 -10.791271 0.072492 9
-14.668456 -10.793420 0.068762 8
-14.765924 -10.797714 0.064609 8
-14.854037 -10.794193 0.061110 9
-14.948657 -10.794990 0.057179 8
-15.032144 -10.790332 0.053892 8
-15.123855 -10.787708 0.050182 9
-15.222130 -10.789310 0.046040 9
-15.314135 -10.785620 0.042335 4
-15.399816 -10.776703 0.039066 4
-15.495308 -10.774326 0.035148 4
-15.603927 -10.780715 0.030364 3
-15.696487 -10.774879 0.026668 3
-15.808741 -10.782348 0.021672 1
-15.901596 -10.775387 0.017981 1
-17.259653 -11.649087 -0.069391 2
-17.516796 -11.747944 -0.083679 2
-17.133108 -10.945075 -0.040463 5
-17.177717 -10.898728 -0.040882 18
-24.422276 -15.392132 -0.501869 4
-24.516138 -15.341647 -0.504339 4
-24.177584 -15.017803 -0.479142 4
-24.348192 -15.016628 -0.486584 4
-24.645988 -14.983961 -0.498648 65
-18.681103 -11.225695 -0.117190 10
-24.747660 -14.397321 -0.484936 12
-24.783886 -14.311800 -0.483945 42
-19.157124 -10.869317 -0.127443 6
-19.177530 -10.801464 -0.126322 6
-19.060356 -10.659958 -0.116814 4
-19.163601 -10.639405 -0.120864 17
-25.783033 -14.137345 -0.523753 4
-19.620901 -10.654603 -0.142039 2
-19.766800 -10.653964 -0.148659 6
-19.881245 -10.635399 -0.153340 4
-20.020449 -10.629307 -0.159523 4
-20.156296 -10.620493 -0.165487 4
-20.297697 -10.617750 -0.171892 7
-20.440956 -10.610956 -0.178279 7
-20.582512 -10.598206 -0.184434 5
-20.729662 -10.591447 -0.191029 5
-20.880554 -10.585584 -0.197835 5
-16.095259 -8.099450 0.092256 1
-16.012630 -7.996800 0.098905 1
-15.947366 -7.903652 0.104478 1
-15.924678 -7.832109 0.107475 1
-15.786653 -7.705041 0.117334 1
-15.752314 -7.629195 0.120970 1
-15.728432 -7.558824 0.123961 1
-15.715881 -7.435749 0.127798 70
-15.687469 -7.364318 0.131001 52
-15.691394 -7.308167 0.132275 48
-15.686735 -7.251147 0.133967 78
-15.682926 -7.191839 0.135668 45
-15.679938 -7.130247 0.137379 39
-15.686584 -7.075994 0.138438 42
-15.685701 -7.018563 0.139924 45
-15.691912 -6.964394 0.140982 30
-15.716359 -6.867194 0.142223 4
-15.751416 -6.825495 0.141571 30
-15.771608 -6.777460 0.141775 92
-15.763103 -6.714731 0.143697 64
-15.880347 -6.596537 0.140883 1
-15.900705 -6.545627 0.141098 3
-15.928310 -6.497567 0.140887 1
-15.931520 -6.445553 0.141935 1
-15.954112 -6.398328 0.141927 1
-15.980276 -6.352435 0.141706 1
-15.980130 -6.296552 0.142977 1
-16.103249 -6.286849 0.137219 1
-16.293909 -6.301270 0.127631 1
-16.367624 -6.274420 0.124637 1
-16.585884 -6.293709 0.113578 1
-16.732092 -6.288496 0.106558 1
-16.859612 -6.275666 0.100605 1
-16.972137 -6.256735 0.095507 1
-17.129097 -6.255389 0.087848 1
-17.336254 -6.267201 0.077442 1
-17.487835 -6.255730 0.070240 1
-17.467241 -6.191677 0.072580 1
-17.902399 -6.275532 0.049444 1
-18.016497 -6.248201 0.044379 1
-18.239941 -6.258480 0.033150 1
-18.344763 -6.232512 0.028495 1
-18.793373 -6.311067 0.004758 1
-18.797409 -6.244737 0.005864 1
-18.711569 -6.157318 0.011822 1
-19.103979 -6.212671 -0.008710 1
-19.179407 -6.170143 -0.011640 1
-19.703785 -6.256701 -0.039347 2
-19.576267 -6.152328 -0.031040 1
-26.566774 -8.105249 -0.415600 4
-26.688744 -7.954097 -0.418907 12
-26.682022 -7.859345 -0.416855 4
-26.612116 -7.752169 -0.411437 4
-26.647053 -7.669340 -0.411714 4
-26.621094 -7.565621 -0.408590 4
-26.620628 -7.473564 -0.406965 4
-26.499931 -7.350611 -0.398789 3
-26.405773 -7.235481 -0.392095 3
-26.291739 -7.116224 -0.384349 3
-26.219826 -7.008386 -0.378930 3
-26.185236 -6.914797 -0.375641 3
-26.117361 -6.804689 -0.370420 3
-26.055786 -6.701192 -0.365640 3
-26.001566 -6.600004 -0.361285 3
-25.943039 -6.498374 -0.356721 3
-25.915272 -6.404238 -0.353845 3
-25.836441 -6.299135 -0.348231 3
-25.776682 -6.198899 -0.343673 3
-25.746874 -6.109981 -0.340820 3
-25.686340 -6.010590 -0.336265 3
-25.648874 -5.916544 -0.332977 3
-25.669754 -5.834763 -0.332847 3
-25.690351 -5.752896 -0.332717 3
-25.655788 -5.660181 -0.329641 3
-25.648325 -5.573050 -0.328039 3
-25.605215 -5.479355 -0.324545 3
-25.526394 -5.379466 -0.319161 3
-25.486464 -5.287323 -0.315882 3
-25.410784 -5.189209 -0.310712 3
-25.307159 -5.086868 -0.304075 3
-25.222797 -4.988667 -0.298492 3
-25.141972 -4.891764 -0.293121 3
-25.139595 -4.808381 -0.291950 3
-25.121141 -4.722536 -0.289940 3
-25.094479 -4.635630 -0.287512 3
-25.127092 -4.475500 -0.287271 32
-25.139030 -4.394753 -0.286940 6
-25.032045 -4.297084 -0.280324 3
-25.082369 -4.226188 -0.282106 3
-25.121145 -4.149349 -0.283243 3
-25.143826 -4.070190 -0.283541 3
-25.190008 -3.993961 -0.285095 3
-25.255758 -3.919917 -0.287695 3
-25.329205 -3.846411 -0.290711 3
-25.342913 -3.765430 -0.290588 3
-25.360308 -3.684839 -0.290674 3
-25.301989 -3.595822 -0.286788 3
-25.271137 -3.510220 -0.284367 3
-25.212158 -3.421987 -0.280485 3
-25.184647 -3.337374 -0.278276 3
-25.164778 -3.253749 -0.276485 3
-25.112789 -3.167335 -0.273025 3
-25.052525 -3.080600 -0.269150 3
-25.023773 -2.997046 -0.266945 3
-25.010647 -2.915030 -0.265576 3
-25.008856 -2.838087 -0.264849 3
-24.999146 -2.756560 -0.263690 3
-24.965242 -2.673402 -0.261280 3
-24.954948 -2.592139 -0.260122 3
-24.976259 -2.513041 -0.260631 3
-24.957424 -2.431361 -0.259057 3
-24.950264 -2.350526 -0.258108 3
-24.970741 -2.271278 -0.258616 3
-25.018869 -2.193327 -0.260581 3
-25.030821 -2.113351 -0.260672 3
-24.994606 -2.031200 -0.258268 3
-25.045908 -1.952869 -0.260439 3
-25.049042 -1.872421 -0.260114 3
-25.051893 -1.791962 -0.259790 3
-25.046478 -1.711255 -0.259050 3
-25.056755 -1.631018 -0.259141 3
-25.034803 -1.549982 -0.257571 3
-24.932690 -1.467549 -0.251851 3
-24.874216 -1.386539 -0.248416 3
-24.835430 -1.306193 -0.246021 3
-24.776390 -1.225942 -0.242589 3
-24.757013 -1.146328 -0.241233 3
-24.733364 -1.066844 -0.239670 3
13.459591 0.588740 0.214333 1
13.377639 0.525973 0.218219 1
13.366764 0.473423 0.218758 1
13.403699 0.422754 0.217046 1
13.381016 0.363780 0.218124 1
13.413608 0.312490 0.216598 1
13.430100 0.259668 0.215819 1
13.450182 0.209760 0.214864 1
13.478069 0.160341 0.213534 1
13.486266 0.103891 0.213117 1
13.514002 0.051478 0.211776 1
13.517637 -0.002683 0.211556 1
13.552987 -0.054877 0.209839 1
13.528329 -0.110809 0.210930 1
13.559325 -0.163482 0.209400 1
13.590142 -0.216360 0.207869 1
13.612666 -0.267102 0.206723 1
13.678933 -0.316013 0.203513 1
13.669308 -0.371243 0.203855 1
13.691533 -0.427926 0.202685 1
13.701387 -0.479691 0.202100 1
13.727129 -0.533762 0.200753 1
13.708750 -0.589211 0.201471 1
13.742103 -0.643284 0.199747 1
13.719343 -0.698727 0.200653 1
13.716364 -0.753668 0.200620 1
13.689220 -0.808908 0.201716 1
13.641907 -0.864153 0.203752 1
13.642345 -0.918755 0.203533 1
13.658575 -0.973311 0.202561 1
13.682606 -1.027983 0.201212 1
13.730430 -1.080173 0.198744 1
13.750091 -1.135229 0.197582 1
13.749582 -1.190207 0.197361 1
13.756911 -1.242547 0.196775 1
13.792031 -1.295426 0.194869 1
13.774985 -1.350215 0.195403 1
13.833572 -1.409506 0.192342 1
13.844166 -1.462345 0.191566 2
13.818554 -1.516897 0.192478 2
13.912449 -1.578235 0.187715 1
13.950426 -1.632533 0.185616 1
13.988101 -1.689880 0.183505 1
14.017714 -1.744340 0.181782 1
14.015077 -1.800249 0.181559 1
14.048009 -1.860824 0.179623 1
14.052944 -1.917284 0.179022 1
14.081779 -1.972403 0.177296 1
14.126198 -2.031536 0.174802 1
14.102624 -2.086501 0.175524 1
14.130679 -2.144928 0.173786 1
14.130421 -2.204336 0.173362 1
14.142330 -2.259044 0.172391 1
14.129930 -2.314745 0.172546 1
14.133501 -2.368893 0.171955 1
14.104801 -2.423122 0.172869 1
11.095508 -2.207013 0.315837 1
10.939902 -2.240743 0.322856 3
10.581860 -2.249075 0.339576 1
10.291271 -2.264019 0.353069 1
10.016630 -2.278615 0.365811 1
9.591095 -2.274965 0.385777 0
9.396040 -2.294110 0.394737 0
9.161304 -2.307330 0.405602 0
8.954618 -2.320317 0.415150 0
8.632728 -2.319764 0.430211 0
8.354359 -2.324272 0.443182 1
8.211053 -2.342447 0.449698 1
7.921438 -2.338407 0.463267 0
7.825716 -2.360609 0.467509 0
7.718091 -2.380497 0.472325 1
7.638134 -2.403624 0.475810 1
7.566039 -2.427373 0.478917 1
7.478094 -2.448255 0.482788 1
7.413813 -2.472194 0.485517 1
7.365526 -2.496559 0.487492 2
7.317181 -2.520620 0.489468 0
7.288226 -2.549240 0.490485 0
7.255244 -2.577014 0.491694 0
7.257622 -2.610665 0.491185 0
7.236266 -2.640209 0.491822 1
7.222682 -2.671032 0.492078 1
7.220787 -2.703934 0.491761 1
7.207290 -2.733041 0.492023 1
7.201248 -2.765170 0.491897 1
7.202940 -2.798795 0.491389 1
7.192748 -2.830137 0.491455 0
7.186367 -2.862215 0.491329 0
7.179874 -2.894271 0.491204 0
7.185005 -2.928743 0.490505 0
7.178280 -2.960793 0.490379 0
7.175349 -2.993660 0.490063 0
7.176204 -3.027385 0.489555 0
7.165235 -3.058536 0.489622 0
7.165851 -3.092279 0.489114 0
7.158923 -3.122663 0.488995 0
7.170976 -3.159160 0.487912 0
7.171222 -3.193002 0.487404 0
7.155806 -3.223134 0.487663 0
7.167459 -3.259822 0.486579 0
7.171213 -3.294694 0.485879 0
7.178708 -3.330596 0.484986 0
7.174451 -3.363611 0.484670 0
7.177812 -3.398629 0.483969 0
7.181038 -3.433700 0.483268 0
7.192281 -3.469276 0.482189 0
7.191383 -3.503433 0.481680 0
7.186506 -3.536558 0.481363 0
7.185359 -3.570748 0.480854 0
7.211006 -3.612538 0.478998 0
7.228788 -3.652346 0.477526 0
7.231052 -3.687873 0.476824 0
7.392220 -3.805649 0.467519 7
7.382432 -3.838418 0.467392 3
7.271871 -3.872388 0.471781 0
7.315256 -3.921370 0.468956 0
7.335548 -3.963480 0.467287 0
14.633130 -6.328302 0.096611 1
14.633497 -6.392471 0.095423 1
14.660203 -6.465396 0.092882 1
14.660048 -6.529791 0.091693 1
14.652068 -6.591717 0.090891 1
14.681704 -6.666463 0.088155 1
14.680780 -6.731130 0.086966 1
14.687159 -6.798475 0.085389 1
14.686749 -6.860380 0.084210 1
14.715212 -6.935922 0.081472 1
14.739588 -7.010388 0.078927 1
14.766345 -7.089382 0.076176 1
14.783637 -7.158672 0.074028 1
14.870769 -7.257401 0.068188 1
14.878821 -7.327442 0.066414 1
14.905279 -7.404674 0.063670 1
14.954927 -7.487755 0.059775 1
14.965787 -7.559834 0.057804 1
14.983794 -7.634967 0.055446 1
14.990331 -7.705916 0.053669 1
15.015141 -7.784371 0.050921 1
15.017365 -7.854148 0.049337 1
15.041524 -7.933033 0.046588 1
15.024671 -7.995508 0.045974 1
15.044506 -8.073225 0.043418 1
15.129108 -8.181886 0.037354 3
15.046358 -8.213796 0.040247 13
15.010104 -8.268557 0.040605 15
15.003036 -8.335786 0.039408 3
15.066625 -8.430320 0.034528 1
15.077232 -8.505890 0.032358 1
15.049667 -8.568432 0.032121 1
14.874969 -8.558120 0.039885 1
6.569956 -4.884179 0.482046 0
1.378200 -2.557438 0.759148 0
1.390963 -2.577559 0.758130 0
1.311243 -2.569029 0.761743 6
1.258846 -2.558406 0.764232 7
1.217652 -2.552030 0.766141 10
1.183472 -2.549411 0.767658 11
1.145755 -2.544831 0.769372 11
1.111699 -2.541761 0.770891 13
1.077703 -2.538472 0.772411 14
1.043768 -2.534964 0.773932 17
1.017036 -2.534824 0.775063 18
0.994171 -2.535798 0.776002 20
0.971069 -2.537156 0.776939 20
0.954831 -2.542545 0.777484 20
0.924946 -2.539443 0.778815 20
0.898654 -2.538014 0.779951 21
0.868341 -2.535563 0.781280 21
0.845402 -2.536172 0.782220 21
0.818974 -2.534749 0.783356 21
0.792855 -2.532673 0.784495 21
0.766518 -2.530922 0.785633 20
0.750726 -2.534789 0.786184 21
0.727690 -2.535161 0.787125 21
0.708704 -2.536391 0.787875 22
0.675558 -2.530128 0.789406 25
0.652907 -2.529578 0.790351 21
0.630292 -2.528890 0.791296 21
0.607977 -2.527607 0.792243 23
0.592341 -2.530667 0.792798 23
0.562937 -2.525542 0.794137 29
0.543913 -2.526337 0.794888 29
0.532040 -2.530670 0.795249 28
0.513054 -2.531264 0.796001 30
0.493831 -2.532179 0.796752 30
0.471755 -2.530027 0.797703 30
0.449456 -2.528172 0.798652 30
0.433727 -2.530819 0.799208 30
0.411765 -2.528289 0.800161 30
0.396344 -2.530308 0.800719 30
0.367449 -2.523670 0.802064 32
0.355454 -2.527618 0.802426 32
0.340366 -2.528926 0.802988 32
0.321946 -2.527975 0.803745 33
0.306373 -2.529910 0.804304 34
0.291346 -2.530952 0.804866 36
0.275809 -2.532706 0.805426 35
0.257235 -2.531748 0.806184 36
0.245584 -2.534757 0.806550 37
0.230368 -2.535849 0.807112 36
0.205019 -2.530467 0.808264 36
0.190131 -2.530965 0.808828 37
0.178281 -2.534041 0.809194 37
0.162898 -2.535138 0.809756 38
0.141538 -2.530787 0.810715 37
0.120230 -2.526311 0.811675 37
0.105211 -2.526728 0.812240 37
0.093456 -2.529394 0.812607 37
0.078211 -2.530012 0.813171 36
0.063255 -2.530178 0.813737 37
0.048586 -2.529901 0.814304 37
0.036885 -2.532280 0.814673 38
0.028393 -2.536988 0.814844 39
0.010584 -2.534093 0.815610 40
0.001837 -2.539037 0.815781 41
-0.015911 -2.535965 0.816547 46
-0.030715 -2.535572 0.817115 46
-0.051806 -2.530199 0.818078 49
-0.057092 -2.536990 0.818053 50
-0.074962 -2.533885 0.818820 53
-0.092786 -2.530673 0.819586 52
-0.113688 -2.524864 0.820551 49
-0.125183 -2.526435 0.820923 48
-0.139771 -2.525430 0.821493 49
-0.148136 -2.529391 0.821668 50
-0.162418 -2.527920 0.822240 49
-0.176933 -2.526690 0.822811 49
-0.185275 -2.530489 0.822986 49
-0.196684 -2.531682 0.823359 49
-0.201973 -2.537967 0.823337 53
-0.219459 -2.533883 0.824107 53
-0.233596 -2.531986 0.824680 50
-0.244674 -2.532619 0.825056 52
-0.256001 -2.533501 0.825430 52
-0.264569 -2.537253 0.825606 53
-0.276139 -2.538323 0.825980 53
-0.296131 -2.530779 0.826951 56
-0.298172 -2.539081 0.826733 55
-0.315371 -2.534329 0.827506 55
-0.329554 -2.532157 0.828080 54
-0.337796 -2.535288 0.828258 57
-0.351926 -2.532976 0.828833 57
-0.360153 -2.536007 0.829011 58
-0.376889 -2.530550 0.829786 58
-0.385088 -2.533475 0.829965 59
-0.399098 -2.530877 0.830541 59
-0.410175 -2.530951 0.830919 75
-0.418347 -2.533730 0.831098 60
-0.426518 -2.536469 0.831278 63
-0.437557 -2.536388 0.831656 59
-0.454289 -2.530663 0.832432 63
-0.462421 -2.533248 0.832612 61
-0.467714 -2.538606 0.832594 63
-0.478681 -2.538301 0.832973 63
-0.489363 -2.537675 0.833353 63
-0.500288 -2.537256 0.833733 65
-0.511192 -2.536780 0.834113 65
-0.519285 -2.539107 0.834294 64
-0.530155 -2.538525 0.834674 64
-0.538235 -2.540767 0.834855 63
-0.557346 -2.531411 0.835833 63
-0.565380 -2.533538 0.836015 68
-0.570673 -2.538537 0.835998 67
-0.581440 -2.537679 0.836379 67
-0.592184 -2.536766 0.836761 67
-0.605611 -2.532858 0.837342 65
-0.616032 -2.531581 0.837725 70
-0.624006 -2.533447 0.837908 65
-0.631976 -2.535275 0.838091 69
-0.642608 -2.534092 0.838473 71
-0.653216 -2.532854 0.838856 71
-0.666444 -2.528566 0.839438 72
-0.671719 -2.533212 0.839423 70
-0.679636 -2.534828 0.839606 68
-0.690162 -2.533386 0.839990 68
-0.703266 -2.528860 0.840573 85
-0.708542 -2.533377 0.840558 83
-0.718999 -2.531780 0.840942 82
-0.726593 -2.532964 0.841127 83
-0.731619 -2.537178 0.841113 78
-0.742292 -2.535668 0.841497 82
-0.749867 -2.536748 0.841683 83
-0.757700 -2.538011 0.841868 80
-0.768047 -2.536138 0.842253 79
-0.778365 -2.534210 0.842638 79
-0.786157 -2.535347 0.842824 82
-0.796429 -2.533322 0.843210 77
-0.803931 -2.534170 0.843397 78
-0.809490 -2.538544 0.843382 78
-0.822161 -2.533233 0.843968 79
-0.832074 -2.530809 0.844355 94
-0.839788 -2.531708 0.844542 93
-0.847494 -2.532571 0.844729 94
-0.852783 -2.536585 0.844715 100
-0.860484 -2.537385 0.844902 97
-0.870829 -2.535146 0.845289 100
-0.875861 -2.538882 0.845277 100
-0.883536 -2.539577 0.845464 95
-0.895911 -2.533782 0.846052 97
-0.903546 -2.534391 0.846240 97
-0.910907 -2.534775 0.846428 97
-0.920844 -2.532064 0.846816 94
-0.926394 -2.536010 0.846804 93
-0.931694 -2.539748 0.846791 99
-0.939027 -2.540007 0.846980 100
-0.951166 -2.533850 0.847570 100
-0.956458 -2.537502 0.847558 99
-0.961763 -2.541135 0.847546 100
-0.976043 -2.531520 0.848337 100
-0.978832 -2.538223 0.848125 100
-0.990794 -2.531810 0.848715 100
-0.998285 -2.531993 0.848905 100
-1.005764 -2.532143 0.849094 100
-1.006684 -2.542296 0.848682 100
-1.016348 -2.539047 0.849072 100
-1.028137 -2.532389 0.849663 100
-1.033423 -2.535773 0.849652 100
-1.040857 -2.535762 0.849842 100
-1.044031 -2.542484 0.849631 100
-1.053578 -2.539030 0.850022 100
-1.060988 -2.538927 0.850213 100
-1.066297 -2.542195 0.850202 100
-1.071617 -2.545445 0.850192 100
-1.081079 -2.541837 0.850584 100
-1.086398 -2.545036 0.850574 100
-1.097586 -2.537755 0.851167 100
-1.100861 -2.544337 0.850956 100
-1.106189 -2.547467 0.850946 100
-1.113266 -2.546968 0.851138 100
-1.122591 -2.543131 0.851531 100
-1.130162 -2.542867 0.851722 100
-1.137454 -2.542419 0.851914 100
-1.144466 -2.541788 0.852106 100
-1.151730 -2.541276 0.852298 100
-1.157313 -2.544375 0.852289 100
-1.166481 -2.540302 0.852682 100
-1.171528 -2.543058 0.852674 100
-1.178748 -2.542424 0.852866 100
-1.182184 -2.548805 0.852656 88
-1.191004 -2.544451 0.853050 100
-1.198458 -2.543870 0.853243 91
-1.205631 -2.543117 0.853436 100
-1.212789 -2.542332 0.853629 100
-1.214196 -2.552043 0.853218 100
-1.223171 -2.547655 0.853613 100
-1.233905 -2.539656 0.854209 100
-1.235376 -2.549335 0.853799 88
-1.242494 -2.548415 0.853992 100
-1.249864 -2.547595 0.854185 100
-1.256950 -2.546613 0.854379 100
-1.260281 -2.552666 0.854170 88
-1.270808 -2.544427 0.854767 100
-1.276135 -2.546964 0.854760 100
-1.281471 -2.549481 0.854753 100
-1.290187 -2.544737 0.855149 100
-1.295249 -2.547082 0.855142 88
-1.303907 -2.542267 0.855538 100
-1.310875 -2.541049 0.855733 100
-1.314554 -2.547090 0.855524 100
-1.318266 -2.553123 0.855316 90
-1.330330 -2.540987 0.856115 84
-1.332184 -2.550523 0.855706 88
-1.339116 -2.549178 0.855901 88
-1.347603 -2.544130 0.856298 84
-1.351370 -2.550076 0.856090 87
-1.362636 -2.537486 0.856891 84
-1.367673 -2.539592 0.856885 84
-1.371460 -2.545483 0.856677 85
-1.374040 -2.555175 0.856267 100
-1.379135 -2.557243 0.856262 82
-1.388956 -2.548273 0.856861 84
-1.397236 -2.542967 0.857259 90
-1.402557 -2.545062 0.857253 87
-1.406440 -2.550863 0.857046 84
-1.411789 -2.552926 0.857041 88
-1.419981 -2.547500 0.857439 84
-1.428128 -2.542037 0.857837 87
-1.430661 -2.551513 0.857428 90
-1.438770 -2.545992 0.857827 87
-1.443834 -2.547845 0.857822 87
-1.450525 -2.546019 0.858019 93
-1.457463 -2.544259 0.858216 83
-1.459867 -2.553586 0.857808 88
-1.463911 -2.559234 0.857601 90
-1.470589 -2.557319 0.857798 91
-1.477247 -2.555376 0.857996 91
-1.483885 -2.553406 0.858193 90
-1.489242 -2.555198 0.858189 94
-1.494337 -2.556884 0.858185 90
-1.499706 -2.558639 0.858180 85
-1.506303 -2.556573 0.858378 90
-1.511670 -2.558287 0.858374 93
-1.517044 -2.559983 0.858370 93
-1.520330 -2.569375 0.857962 91
-1.526640 -2.567137 0.858160 90
-1.534356 -2.561132 0.858561 90
-1.539739 -2.562748 0.858557 90
-1.545128 -2.564345 0.858554 90
-1.549408 -2.569760 0.858348 88
-1.554821 -2.571323 0.858345 94
-1.563506 -2.561337 0.858948 88
-1.567815 -2.566699 0.858742 94
-1.573217 -2.568198 0.858739 96
-1.579404 -2.565750 0.858938 90
-1.583767 -2.571067 0.858733 91
