# .PCD v.7 - Point Cloud Data file format
VERSION .7
FIELDS x y z intensity
SIZE 4 4 4 1
TYPE F F F U
COUNT 1 1 1 1
WIDTH 1538
HEIGHT 1
VIEWPOINT 0 0 0 1 0 0 0
POINTS 1538
DATA ascii
-56.077984 10.351786 0.463520 29
-19.719242 4.440217 0.799383 1
-19.463823 4.454040 0.802071 1
-19.094818 4.443207 0.805769 1
-18.671249 4.418587 0.809939 1
-18.439922 4.431113 0.812367 1
-18.228275 4.446223 0.814607 1
-17.974325 4.447809 0.817197 1
-17.645714 4.434201 0.820456 1
-17.438412 4.445358 0.822622 1
-17.207821 4.449800 0.824985 1
-16.891644 4.432902 0.828092 1
-16.673136 4.436649 0.830324 1
-16.548174 4.461133 0.831722 1
-16.516533 4.507335 0.832295 1
-16.356552 4.521908 0.833989 1
-16.177244 4.530574 0.835843 1
-16.102757 4.564496 0.836776 1
-16.171560 4.634706 0.836458 1
-16.108433 4.671196 0.837285 1
-16.103235 4.722600 0.837608 1
-16.059872 4.761210 0.838244 1
-16.092951 4.822967 0.838232 1
-16.048634 4.863791 0.838885 1
-16.035030 4.912943 0.839272 1
-15.886532 4.923992 0.840811 1
-16.018845 5.014407 0.839945 1
-15.981666 5.056770 0.840526 1
-15.963551 5.104560 0.840943 1
-15.979776 5.162542 0.841066 1
-15.949811 5.206835 0.841579 1
-15.931185 5.254473 0.841993 1
-15.950611 5.313843 0.842085 1
-15.847637 5.335180 0.843205 1
-15.840015 5.386044 0.843520 1
-15.919813 5.464990 0.843101 1
-15.904112 5.513690 0.843481 1
-16.037260 5.608532 0.842606 1
-15.998279 5.650080 0.843178 1
-16.004681 5.706693 0.843371 1
-16.014647 5.764693 0.843533 1
-15.997897 5.813722 0.843915 1
-15.996091 5.867944 0.844171 1
-15.978982 5.916907 0.844552 1
-16.123768 6.023404 0.843600 1
-16.124937 6.079574 0.843830 1
-21.039585 7.920734 0.803843 2
-21.080742 8.087164 0.804141 4
-20.441673 7.923450 0.809654 2
-20.341253 7.951724 0.810741 2
-20.208511 7.974378 0.812115 2
-20.192755 8.048724 0.812566 2
-20.160561 8.109408 0.813118 2
-20.135244 8.238847 0.813869 6
-20.056622 8.284475 0.814800 6
-19.942142 8.311398 0.815998 6
-19.905384 8.369556 0.816570 10
-19.891636 8.506993 0.817215 2
-19.893435 8.585141 0.817486 2
-19.874174 8.650838 0.817908 2
-19.851561 8.863781 0.818882 2
-19.847292 8.932806 0.819164 2
-19.876459 9.024497 0.819206 2
-19.873817 9.098531 0.819485 2
-19.881792 9.177631 0.819678 2
-20.099819 9.430792 0.818482 33
-28.065727 13.690681 0.758106 4
-27.243011 13.514937 0.765159 17
-27.262175 13.629093 0.765327 9
-27.560825 13.890127 0.763363 4
-31.625072 16.055117 0.732491 7
-25.518440 13.271131 0.780237 8
-25.097815 13.263200 0.784035 11
-25.094425 13.354680 0.784316 11
-24.837715 13.325483 0.786557 7
-96.083145 52.144024 0.247496 30
-84.829224 46.421947 0.333723 30
-90.143188 49.716251 0.294550 30
-23.513792 13.003022 0.797614 3
-23.153090 12.991764 0.800806 27
-14.774821 8.425389 0.864171 4
-14.672833 8.425646 0.865073 4
-14.564110 8.421219 0.866021 3
-14.441818 8.407950 0.867067 3
-14.314202 8.387651 0.868141 3
-14.191133 8.374991 0.869191 3
-14.079860 8.365654 0.870143 3
-13.985850 8.366087 0.870963 11
-13.864768 8.349129 0.871979 3
-13.745233 8.329358 0.872975 3
-13.651786 8.327924 0.873780 3
-13.544971 8.317374 0.874681 5
-13.455240 8.316918 0.875452 3
-13.350102 8.303130 0.876328 5
-13.253984 8.297214 0.877140 3
-13.164748 8.295084 0.877898 5
-13.068979 8.288030 0.878701 5
-12.991348 8.289510 0.879364 4
-12.917936 8.298818 0.880002 10
-12.799403 8.274551 0.880962 3
-12.710983 8.269731 0.881700 3
-12.617390 8.258014 0.882467 4
-12.534645 8.258507 0.883162 6
-12.482159 8.271206 0.883621 10
-12.398359 8.272645 0.884322 7
-12.333608 8.281434 0.884874 7
-12.213371 8.298991 0.885895 1
-13.283723 8.332704 0.955629 4
-13.195683 8.328652 0.955930 4
-13.119879 8.334841 0.956236 8
-13.019555 8.327044 0.956561 6
-12.935299 8.323676 0.956849 7
-12.854506 8.322062 0.957133 9
-12.715900 8.341148 0.957724 1
-12.491407 8.293377 0.958290 7
-12.418669 8.299846 0.958580 12
-12.330950 8.292552 0.958855 13
-12.260997 8.294509 0.959111 8
-12.193125 8.300194 0.959377 11
-12.047926 8.303368 0.959899 1
-12.010696 8.327345 0.960144 1
-11.991469 8.367122 0.960400 1
-11.817747 8.399659 0.961152 20
-11.840798 8.528236 0.961677 4
-11.825263 8.568270 0.961917 4
-11.805079 8.607554 0.962168 4
-11.781584 8.644331 0.962418 4
-11.761099 8.683507 0.962667 4
-11.740460 8.722632 0.962917 4
-11.735313 8.774167 0.963170 4
-11.726806 8.823256 0.963423 2
-11.713224 8.865652 0.963661 2
-11.714989 8.920660 0.963906 2
-11.707518 8.974102 0.964172 2
-11.707360 9.030986 0.964429 2
-11.708336 9.086265 0.964675 3
-11.704562 9.140773 0.964931 3
-11.717446 9.212519 0.965210 3
-11.732829 9.281057 0.965466 3
-11.740323 9.346300 0.965731 3
-11.777801 9.437784 0.966016 3
-11.729154 9.518342 0.966524 3
-14.480048 11.993206 0.968682 15
-14.380580 11.979002 0.968932 21
-14.278584 11.973371 0.969227 21
-14.174692 11.957510 0.969481 21
-14.090777 11.955037 0.969730 21
-13.969604 11.921921 0.969961 21
-13.907784 11.942151 0.970238 19
-13.807760 11.926812 0.970478 21
-13.715755 11.914304 0.970705 17
-13.604536 11.886943 0.970926 18
-13.535414 11.902110 0.971198 16
-13.452742 11.896379 0.971422 16
-13.344204 11.865353 0.971616 18
-13.243743 11.848758 0.971845 18
-13.177046 11.860241 0.972091 18
-13.109443 11.866652 0.972316 16
-13.020046 11.855046 0.972530 16
-12.936555 11.848576 0.972747 14
-12.845684 11.837910 0.972967 18
-12.753173 11.817289 0.973150 22
-12.667475 11.806571 0.973353 16
-12.593200 11.806797 0.973566 20
-12.526531 11.810517 0.973771 15
-12.438574 11.795647 0.973960 13
-12.328653 11.757244 0.974115 20
-12.263361 11.764462 0.974327 22
-12.200899 11.774255 0.974540 16
-12.130262 11.775014 0.974739 16
-12.048809 11.763732 0.974919 18
-11.973007 11.757873 0.975104 18
-11.891941 11.745738 0.975277 17
-11.816490 11.739066 0.975456 17
-11.719662 11.708338 0.975597 36
-11.639266 11.694867 0.975760 26
-11.598370 11.720953 0.975970 21
-11.525450 11.711069 0.976126 21
-11.458791 11.711459 0.976303 22
-11.379036 11.696498 0.976455 22
-11.320554 11.705211 0.976641 22
-11.238537 11.686452 0.976782 24
-11.169817 11.682405 0.976944 24
-11.101240 11.678009 0.977103 24
-11.043162 11.685461 0.977279 26
-10.969673 11.674291 0.977423 24
-10.898941 11.665804 0.977570 24
-10.807920 11.632349 0.977672 29
-10.742018 11.624619 0.977807 30
-10.694698 11.642836 0.977992 29
-10.627156 11.636035 0.978132 22
-10.554738 11.622672 0.978260 26
-10.497542 11.627651 0.978417 26
-10.430446 11.619848 0.978550 29
-10.373435 11.624254 0.978702 29
-10.298582 11.601772 0.978798 30
-10.234426 11.596123 0.978929 32
-10.175309 11.596478 0.979069 29
-10.116878 11.601147 0.979222 32
-10.048241 11.588217 0.979335 32
-9.981643 11.573538 0.979435 30
-9.920601 11.569511 0.979560 30
-9.862079 11.568392 0.979688 30
-9.808428 11.573420 0.979827 30
-9.745352 11.565317 0.979939 31
-9.675348 11.547215 0.980030 31
-9.607915 11.531991 0.980125 30
-9.559382 11.542393 0.980268 30
-9.505734 11.541505 0.980381 34
-9.445704 11.535162 0.980488 37
-9.383505 11.525260 0.980586 34
-9.321467 11.515052 0.980683 36
-9.270997 11.520968 0.980809 34
-9.216036 11.520074 0.980921 40
-9.158913 11.515622 0.981023 43
-9.095169 11.500972 0.981104 45
-9.038321 11.495957 0.981203 42
-8.983818 11.494000 0.981306 37
-8.927204 11.488458 0.981401 39
-8.881715 11.499351 0.981528 39
-8.820916 11.486617 0.981605 42
-8.762466 11.476943 0.981686 41
-8.706334 11.470353 0.981773 30
-8.658944 11.476983 0.981886 27
-8.600882 11.466517 0.981961 39
-8.551192 11.464783 0.982049 41
-8.499469 11.459441 0.982128 44
-8.443919 11.451604 0.982205 44
-8.388504 11.443507 0.982280 44
-8.337392 11.441980 0.982368 39
-8.282227 11.433381 0.982440 39
-8.233377 11.434812 0.982531 44
-8.186643 11.439465 0.982628 46
-8.135668 11.432511 0.982695 46
-8.078938 11.419503 0.982751 44
-8.026591 11.417658 0.982835 44
-7.974161 11.411055 0.982903 44
-7.925655 11.406643 0.982970 41
-7.877404 11.406535 0.983050 46
-7.831190 11.409702 0.983136 43
-7.779172 11.402199 0.983196 41
-7.729217 11.397958 0.983263 42
-7.677436 11.389991 0.983321 40
-7.627696 11.385301 0.983384 40
-7.581863 11.387428 0.983462 41
-7.534118 11.381339 0.983516 42
-7.488420 11.383075 0.983591 42
-7.440911 11.381081 0.983656 43
-7.391630 11.375338 0.983712 43
-7.340614 11.365827 0.983757 43
-7.289732 11.356086 0.983801 42
-7.246249 11.360372 0.983876 42
-7.202801 11.364480 0.983950 42
-7.154015 11.357683 0.983997 42
-7.110707 11.356938 0.984054 46
-7.058584 11.342559 0.984082 47
-7.008327 11.336012 0.984130 46
-6.960054 11.323890 0.984157 47
-6.911845 11.316032 0.984197 46
-6.867186 11.315191 0.984251 46
-6.820791 11.315012 0.984309 42
-6.778067 11.312950 0.984357 45
-6.735288 11.315183 0.984416 46
-6.694219 11.320880 0.984482 47
-6.648207 11.315489 0.984521 47
-6.599008 11.302608 0.984541 47
-6.554842 11.300469 0.984586 47
-6.514162 11.301013 0.984634 47
-6.468717 11.290408 0.984654 47
-6.422982 11.288512 0.984699 45
-6.380696 11.289325 0.984747 46
-6.337125 11.281842 0.984772 48
-6.294963 11.282312 0.984817 48
-6.248232 11.271539 0.984834 51
-6.207737 11.275353 0.984886 48
-6.161211 11.264201 0.984900 50
-6.117525 11.264698 0.984944 50
-6.075686 11.264295 0.984982 50
-6.030950 11.256289 0.985002 47
-5.991035 11.254839 0.985034 46
-5.947935 11.250205 0.985059 47
-4.331601 7.418465 0.975807 0
-4.302541 7.412083 0.975812 0
-4.267650 7.382192 0.975757 0
-4.246668 7.393975 0.975805 0
-4.218070 7.391391 0.975818 0
-4.195512 7.395068 0.975844 0
-4.164007 7.376364 0.975815 0
-4.134711 7.437077 0.975998 0
-4.099395 7.402514 0.975927 0
-4.069345 7.382983 0.975893 0
-4.045900 7.390671 0.975928 0
-4.022319 7.394106 0.975950 0
-3.997526 7.393642 0.975963 0
-3.963166 7.362556 0.975898 0
-3.951586 7.403890 0.976014 0
-3.920975 7.384034 0.975976 0
-3.900964 7.398496 0.976024 0
-3.847592 7.297599 0.975782 0
-3.821030 7.288805 0.975770 0
-3.811339 7.333340 0.975891 0
-3.783649 7.320545 0.975869 0
-3.758248 7.319490 0.975876 0
-3.732904 7.314175 0.975871 0
-3.709752 7.316469 0.975885 0
-3.676077 7.280090 0.975801 0
-3.660410 7.305058 0.975870 0
-3.635276 7.299356 0.975862 0
-3.616282 7.316775 0.975912 0
-3.588190 7.299279 0.975874 0
-3.597708 7.428974 0.976206 0
-3.537297 7.283332 0.975844 0
-3.555594 7.451900 0.976272 0
-3.508450 7.356377 0.976036 0
-3.482491 7.346183 0.976013 0
-3.460486 7.347304 0.976019 0
-3.442812 7.371984 0.976084 0
-3.417179 7.357369 0.976049 0
-3.394066 7.358515 0.976053 0
-3.372692 7.367387 0.976076 0
-3.345055 7.352980 0.976041 0
-3.323673 7.361687 0.976063 0
-3.300600 7.362494 0.976064 0
-3.279461 7.366904 0.976075 0
-3.255600 7.363632 0.976065 0
-3.227536 7.344801 0.976016 0
-3.207653 7.360963 0.976055 0
-3.183142 7.353495 0.976033 0
-3.162405 7.365587 0.976061 0
-3.138687 7.361879 0.976048 0
-3.114693 7.350010 0.976014 0
-3.093596 7.353804 0.976019 0
-3.068467 7.354169 0.976015 0
-3.046245 7.357999 0.976019 0
-3.022485 7.345785 0.975983 0
-2.997710 7.333665 0.975946 0
-2.976035 7.333122 0.975938 0
-2.954506 7.340581 0.975950 0
-2.929913 7.328198 0.975911 0
-2.909482 7.335336 0.975922 0
-2.883331 7.318983 0.975872 0
-2.861234 7.322167 0.975871 0
-2.841324 7.341123 0.975909 0
-2.815934 7.320377 0.975848 0
-2.792788 7.315394 0.975825 1
-2.772826 7.326056 0.975841 1
-2.749714 7.320916 0.975818 1
-2.728573 7.331576 0.975833 1
-2.705030 7.322303 0.975798 1
-2.682468 7.320890 0.975782 1
-2.659486 7.315422 0.975755 1
-2.636551 7.309871 0.975728 1
-2.614486 7.312194 0.975720 1
-2.594802 7.338321 0.975771 2
-2.570718 7.320590 0.975712 1
-2.547868 7.302667 0.975654 2
-2.525472 7.300697 0.975633 2
-2.502681 7.306712 0.975632 1
-2.482061 7.312463 0.975630 1
-2.459043 7.302285 0.975589 1
-2.435499 7.284045 0.975526 1
-2.414389 7.297636 0.975542 1
-2.391548 7.287211 0.975499 1
-2.369564 7.288679 0.975484 1
-2.348182 7.282018 0.975450 1
-2.326849 7.275284 0.975415 1
-2.305346 7.284514 0.975418 2
-2.283167 7.281687 0.975391 2
-2.260630 7.270791 0.975344 1
-2.239059 7.279794 0.975345 2
-2.216612 7.268740 0.975296 2
-2.195142 7.281589 0.975306 2
-2.172908 7.274376 0.975266 2
-2.151823 7.267051 0.975226 2
-2.129803 7.263684 0.975195 2
-2.107903 7.264239 0.975173 2
-2.086001 7.264717 0.975150 2
-2.064297 7.277117 0.975156 2
-2.042193 7.265444 0.975102 2
-2.019230 7.269702 0.975086 2
-1.998333 7.257865 0.975033 2
-1.974275 7.261966 0.975014 2
-1.952382 7.261978 0.974988 2
-1.930489 7.261913 0.974960 2
-1.909691 7.261780 0.974934 2
-1.888984 7.253580 0.974888 2
-1.867180 7.249294 0.974849 2
-1.845406 7.244933 0.974810 2
-1.823311 7.256492 0.974808 4
-1.801641 7.247979 0.974758 4
-1.779913 7.243390 0.974717 4
-1.759049 7.246757 0.974696 6
-1.737068 7.250014 0.974673 8
-1.714439 7.241162 0.974619 5
-1.692621 7.240266 0.974585 7
-1.672264 7.231354 0.974534 7
-1.649885 7.242297 0.974526 7
-1.628063 7.241177 0.974490 8
-1.606019 7.243973 0.974463 7
-1.584191 7.242700 0.974426 7
-1.563383 7.225382 0.974352 8
-1.540549 7.239924 0.974350 4
-1.518172 7.246402 0.974329 9
-1.496040 7.248811 0.974299 20
-1.475125 7.235189 0.974231 15
-1.453652 7.229472 0.974181 12
-1.430787 7.227574 0.974138 9
-1.409754 7.229770 0.974107 8
-1.388342 7.223828 0.974055 8
-1.368052 7.217916 0.974005 8
-1.345924 7.219793 0.973970 8
-1.279854 7.220973 0.973853 3
-1.258556 7.214587 0.973798 4
-1.236833 7.212101 0.973751 4
-1.215594 7.205567 0.973694 3
-1.193903 7.202931 0.973646 4
-1.171214 7.208155 0.973615 4
-1.149513 7.205364 0.973566 2
-1.128885 7.194568 0.973498 1
-1.107233 7.191629 0.973448 1
-1.084998 7.200650 0.973425 0
-1.066693 7.181879 0.973341 0
-1.039235 7.218293 0.973374 0
-1.016303 7.222950 0.973338 0
-0.994552 7.219619 0.973284 0
-0.970933 7.228063 0.973255 0
-0.950445 7.216676 0.973183 0
-0.926755 7.224952 0.973152 0
-0.907001 7.209476 0.973070 0
-0.884616 7.209704 0.973022 0
-0.862217 7.209852 0.972972 0
-0.839803 7.209919 0.972922 0
-0.817376 7.209905 0.972871 0
-0.802643 7.174628 0.972750 0
-0.782561 7.162693 0.972674 1
-0.761785 7.154619 0.972606 0
-0.736390 7.170018 0.972585 0
-0.714825 7.165709 0.972523 0
-0.689255 7.180917 0.972500 1
-0.668471 7.172528 0.972429 1
-0.646898 7.167982 0.972366 1
-0.621960 7.179000 0.972333 1
-0.599506 7.178198 0.972275 1
-0.581404 7.157797 0.972179 0
-0.557225 7.164649 0.972136 0
-0.532981 7.171408 0.972092 0
-0.505933 7.189755 0.972070 0
-0.488008 7.169078 0.971971 0
-0.469270 7.152238 0.971880 0
-0.444077 7.166685 0.971852 0
-0.417691 7.180763 0.971819 0
-0.394130 7.183097 0.971762 0
-0.373516 7.173720 0.971684 0
-0.349926 7.175887 0.971626 0
-0.262182 7.243613 0.971563 0
0.729852 10.762557 0.977969 1
0.846362 10.783843 0.977699 47
0.883877 10.785512 0.977597 47
0.919180 10.779363 0.977480 47
0.954476 10.773088 0.977362 50
0.993829 10.786347 0.977283 52
1.031510 10.787454 0.977177 51
1.068054 10.784595 0.977062 52
1.103419 10.777783 0.976940 52
1.141190 10.778471 0.976829 50
1.176560 10.771396 0.976705 52
1.218091 10.783216 0.976612 54
1.256000 10.783463 0.976498 52
1.291427 10.775974 0.976370 55
1.325565 10.764566 0.976234 54
1.366103 10.771974 0.976129 54
1.404130 10.771651 0.976010 52
1.442195 10.771183 0.975890 54
1.478971 10.766795 0.975763 51
1.517098 10.766038 0.975640 49
1.556615 10.768898 0.975523 51
1.593461 10.764082 0.975392 49
1.627232 10.756000 0.975261 51
1.663772 10.755301 0.975141 48
1.697837 10.742593 0.974995 48
1.740363 10.752208 0.974882 48
1.778980 10.746050 0.974738 49
1.815643 10.744789 0.974613 50
1.854040 10.742726 0.974480 51
1.890999 10.736794 0.974339 49
1.931147 10.733759 0.974196 50
1.967924 10.731932 0.974066 50
2.010957 10.740389 0.973943 49
2.049711 10.733168 0.973790 49
2.088301 10.730194 0.973649 48
2.129863 10.738848 0.973530 47
2.168406 10.739965 0.973399 43
2.208704 10.740208 0.973258 45
2.247584 10.732208 0.973099 45
2.281464 10.721869 0.972949 45
2.320327 10.713580 0.972787 46
2.365612 10.724168 0.972656 43
2.402777 10.720720 0.972513 41
2.443312 10.720010 0.972364 41
2.483896 10.719134 0.972215 45
2.522875 10.710047 0.972046 47
2.570280 10.723351 0.971911 47
2.609330 10.722758 0.971766 47
2.648413 10.717594 0.971606 45
2.689212 10.711465 0.971436 45
2.730070 10.709587 0.971277 45
2.767526 10.704772 0.971123 45
2.806763 10.703405 0.970970 43
2.847739 10.701047 0.970808 41
2.883393 10.687785 0.970632 39
2.929706 10.691400 0.970466 41
2.976229 10.699233 0.970311 43
3.021170 10.707728 0.970163 43
3.062408 10.704494 0.969993 45
3.103529 10.696662 0.969809 45
3.144998 10.697519 0.969649 41
3.186348 10.693776 0.969474 50
3.229620 10.693390 0.969302 43
3.272953 10.692819 0.969128 45
3.314433 10.688550 0.968950 45
3.354024 10.680602 0.968766 45
3.399431 10.682998 0.968591 46
3.446866 10.688687 0.968417 47
3.488794 10.688142 0.968245 46
3.528527 10.679504 0.968056 46
3.576200 10.684603 0.967877 46
3.621980 10.686019 0.967693 45
3.669846 10.690693 0.967510 43
3.715791 10.691698 0.967323 41
3.753685 10.678719 0.967123 41
3.797688 10.675907 0.966930 42
3.843798 10.676338 0.966738 43
3.889980 10.676565 0.966544 45
3.940394 10.683421 0.966353 46
3.980870 10.677442 0.966161 41
4.027267 10.677061 0.965962 41
4.071618 10.673079 0.965759 40
4.121957 10.674620 0.965547 36
4.168560 10.673612 0.965342 36
4.208776 10.662278 0.965131 42
4.255950 10.665326 0.964935 37
4.305385 10.671526 0.964740 37
4.345695 10.659649 0.964523 38
4.399179 10.667666 0.964314 38
4.450587 10.672092 0.964102 36
4.499352 10.668494 0.963873 33
4.548720 10.669124 0.963655 31
4.591441 10.659593 0.963432 33
4.640939 10.659791 0.963210 33
4.690519 10.659761 0.962987 36
4.740178 10.659504 0.962761 33
4.788229 10.660194 0.962546 33
4.834058 10.657400 0.962327 32
4.887315 10.654089 0.962072 28
4.934949 10.649664 0.961838 28
4.985620 10.652731 0.961616 28
5.036387 10.655567 0.961391 31
5.086579 10.653711 0.961151 30
5.141580 10.658071 0.960911 30
5.194317 10.658947 0.960668 30
5.240679 10.654415 0.960434 28
5.288775 10.648417 0.960187 31
5.341015 10.644118 0.959925 28
5.394798 10.648497 0.959686 30
5.444757 10.640516 0.959420 30
5.498727 10.644398 0.959177 28
5.552032 10.643559 0.958919 28
5.607108 10.641144 0.958646 28
5.658102 10.636646 0.958384 28
5.709964 10.636378 0.958132 28
5.766091 10.637648 0.957865 30
5.829854 10.647983 0.957593 28
5.880335 10.637993 0.957309 24
5.930015 10.633612 0.957050 26
5.986522 10.633796 0.956773 26
6.045680 10.636781 0.956493 27
6.104955 10.639469 0.956210 26
6.164346 10.641862 0.955925 26
6.218679 10.637854 0.955639 24
6.268803 10.631979 0.955367 28
6.328481 10.633533 0.955075 28
6.389953 10.633328 0.954765 27
6.448168 10.635739 0.954482 27
6.508174 10.636393 0.954181 27
6.555040 10.621759 0.953888 25
6.620526 10.627830 0.953578 27
6.683487 10.630581 0.953268 27
6.749252 10.635979 0.952953 27
6.807087 10.632155 0.952642 25
6.859598 10.622146 0.952333 24
6.925704 10.626590 0.952010 25
6.989226 10.627758 0.951686 25
7.058328 10.634444 0.951354 22
7.116617 10.629115 0.951030 22
7.169473 10.617692 0.950709 24
7.241697 10.626267 0.950366 24
7.305774 10.625806 0.950028 24
7.371060 10.629516 0.949699 22
7.432571 10.625529 0.949359 21
7.495848 10.619581 0.949000 21
7.567096 10.627999 0.948657 22
7.635681 10.633214 0.948314 22
7.700427 10.630742 0.947959 19
7.765272 10.627935 0.947601 19
7.830214 10.624793 0.947240 19
7.903835 10.629702 0.946865 19
7.971868 10.628642 0.946494 16
8.034253 10.621673 0.946128 17
8.116939 10.633744 0.945731 17
8.177852 10.627836 0.945375 19
8.249243 10.628087 0.944988 17
8.317841 10.625221 0.944602 17
8.395326 10.630171 0.944199 17
8.467095 10.629265 0.943802 17
8.541930 10.630680 0.943396 15
8.613946 10.628996 0.942992 14
8.692009 10.632294 0.942575 14
8.770223 10.635164 0.942154 12
8.839633 10.629614 0.941745 14
8.921109 10.634310 0.941312 14
8.996743 10.633268 0.940886 12
9.072503 10.631816 0.940456 13
9.152743 10.637135 0.940029 15
9.249972 10.653131 0.939554 16
9.327863 10.648388 0.939094 13
9.413328 10.652957 0.938632 15
9.491160 10.653887 0.938196 15
9.580009 10.660101 0.937720 15
9.669038 10.665812 0.937239 15
9.752080 10.665923 0.936767 16
9.838357 10.668110 0.936284 15
9.927893 10.672337 0.935791 18
10.026932 10.683602 0.935274 16
10.101241 10.674258 0.934804 18
10.194397 10.679475 0.934292 20
10.287735 10.684157 0.933774 16
10.374964 10.683363 0.933266 18
10.471797 10.689460 0.932733 18
10.565659 10.692548 0.932202 18
10.647011 10.685344 0.931694 20
10.750719 10.694682 0.931133 21
10.841894 10.693748 0.930595 21
10.944306 10.704169 0.930044 21
11.035809 10.702168 0.929498 12
11.133878 10.704413 0.928931 21
11.232120 10.706091 0.928360 21
11.327304 10.704841 0.927792 21
8.480433 8.512108 0.934159 4
8.442853 8.427266 0.933974 3
8.415271 8.355680 0.933793 4
8.391871 8.284859 0.933589 4
8.387771 8.228046 0.933337 4
8.376829 8.166789 0.933104 1
8.385347 8.119315 0.932820 1
8.377153 8.060578 0.932581 1
8.401770 8.024453 0.932255 1
8.399722 7.970361 0.931999 1
8.334248 7.874121 0.931918 1
8.370348 7.848798 0.931573 1
8.369657 7.799094 0.931329 1
8.393360 7.762997 0.931004 1
8.385731 7.701425 0.930740 1
8.392277 7.654446 0.930463 1
8.398621 7.607503 0.930187 1
8.421656 7.571305 0.929861 1
8.382483 7.498496 0.929731 1
8.373476 7.445091 0.929513 1
8.450341 7.442700 0.929027 1
8.401250 7.362318 0.928916 1
8.466011 7.302260 0.928205 16
8.450261 7.243173 0.927995 8
8.465152 7.202702 0.927691 8
8.469557 7.156096 0.927420 4
8.473763 7.109535 0.927149 6
8.523157 7.040547 0.926476 17
8.551154 7.007893 0.926128 5
8.574529 6.974980 0.925806 4
8.602324 6.942100 0.925456 2
8.630017 6.909099 0.925105 1
8.808041 6.959369 0.924253 1
8.874031 6.897456 0.923502 1
9.045880 6.941416 0.922653 1
9.481872 6.921484 0.919771 1
9.679811 6.921371 0.918506 1
9.942677 6.951022 0.916986 1
10.803075 6.944882 0.911398 1
12.161775 6.990878 0.902792 2
15.692142 8.273802 0.887196 34
15.695240 8.203065 0.886751 34
15.705476 8.135395 0.886276 34
15.708027 8.064768 0.885834 34
15.725175 8.000105 0.885329 7
15.780190 7.736865 0.883358 65
15.838099 7.617043 0.882234 36
15.883640 7.563173 0.881597 28
15.913990 7.503588 0.881025 10
24.031307 8.759463 0.834308 39
24.042919 8.664163 0.833605 39
24.058023 8.569995 0.832884 45
24.058714 8.466853 0.832200 45
24.076954 8.373805 0.831461 45
24.071749 8.274254 0.830836 45
24.093157 8.182280 0.830079 45
24.109142 8.093744 0.829380 45
24.132551 8.007259 0.828642 39
24.143831 7.902926 0.827865 45
24.154997 7.813294 0.827186 45
24.169729 7.724662 0.826487 45
24.185320 7.631444 0.825750 45
24.196699 7.537228 0.825033 45
24.219389 7.445887 0.824256 45
24.242870 7.349894 0.823440 45
24.264906 7.258392 0.822662 56
24.293331 7.173230 0.821883 45
24.334232 7.086070 0.821001 16
26.827156 7.341870 0.805593 6
32.089684 8.136183 0.774806 10
33.237473 8.255303 0.767708 11
49.616253 11.251915 0.675519 90
75.410141 9.768441 0.484905 60
75.587326 8.420280 0.473420 60
11.290767 1.476636 0.870734 1
11.248559 1.424309 0.870612 1
11.237998 1.377848 0.870314 1
11.244326 1.288097 0.869546 3
11.221289 1.241546 0.869332 4
11.218084 1.195472 0.868981 4
11.227211 1.101238 0.868151 3
11.247653 1.013813 0.867292 1
11.291652 0.967637 0.866604 3
11.231493 0.921692 0.866649 3
11.259150 0.873097 0.866054 1
11.274685 0.829068 0.865581 1
11.258079 0.785429 0.865336 1
11.277232 0.736603 0.864796 1
11.260322 0.693068 0.864553 1
11.251144 0.644825 0.864215 1
11.265849 0.598239 0.863721 1
11.248407 0.552606 0.863461 1
11.258789 0.506065 0.862997 1
11.320963 0.457362 0.862150 1
11.237006 0.368423 0.861988 1
11.250732 0.321553 0.861493 1
11.260423 0.277104 0.861047 1
11.313758 0.227751 0.860252 1
11.315005 0.181179 0.859845 1
-26.119736 1.011992 0.849277 4
-26.751522 1.094776 0.847055 4
-27.490978 1.187021 0.844414 5
-68.108192 1.962305 0.664288 40
-67.912231 2.201209 0.667124 40
-67.823875 2.418078 0.669283 39
-67.810501 2.647767 0.671198 39
-67.780334 2.876921 0.673180 39
-67.801338 3.107556 0.674935 39
-67.945457 3.342779 0.676157 40
-141.046524 8.381538 0.381032 63
-140.756317 8.852046 0.386072 63
-83.576836 6.743002 0.631363 62
-83.456535 7.020473 0.634074 62
-72.653954 7.214646 0.684960 48
-56.177540 6.527733 0.754909 90
-56.137997 6.714844 0.756511 90
-56.161427 6.908695 0.757875 12
-56.152367 7.099194 0.759356 60
-56.186344 7.294784 0.760677 60
-81.616127 13.338206 0.690114 63
-78.375397 13.369021 0.704983 59
-81.279526 14.978657 0.703532 63
-68.535294 13.210922 0.748181 42
-67.049301 13.173147 0.754587 40
-65.379738 13.089918 0.761490 37
-19.990341 4.495297 0.904027 2
-19.546381 4.472736 0.905857 2
-19.149857 4.456608 0.907518 2
-18.867292 4.461083 0.908814 2
-18.412632 4.427632 0.910611 2
-18.170296 4.433137 0.911732 2
-17.900135 4.433947 0.912943 2
-17.669237 4.441496 0.914024 2
-17.450195 4.450093 0.915060 2
-17.266392 4.465173 0.915982 2
-17.078779 4.478114 0.916905 2
-16.895157 4.490700 0.917807 2
-16.703852 4.500196 0.918720 1
-16.656519 4.543178 0.919224 1
-16.527489 4.565848 0.919950 1
-16.425648 4.594430 0.920595 1
-16.405224 4.642940 0.921014 1
-16.384638 4.691350 0.921433 1
-16.286470 4.719508 0.922055 1
-16.277233 4.770514 0.922439 1
-16.287134 4.826673 0.922772 1
-16.347681 4.894063 0.922957 1
-16.353251 4.949565 0.923303 1
-16.243019 4.972920 0.923941 1
-16.244427 5.027102 0.924295 1
-16.287931 5.093458 0.924543 1
-16.269680 5.142330 0.924945 1
-16.247425 5.189997 0.925356 1
-16.263348 5.248973 0.925673 1
-16.233076 5.294254 0.926100 1
-16.229443 5.347553 0.926463 1
-16.252361 5.409150 0.926764 1
-16.259754 5.466181 0.927101 1
-16.255484 5.519692 0.927465 1
-16.267050 5.575617 0.927776 1
-16.327866 5.647704 0.927976 1
-16.360931 5.714035 0.928259 1
-16.384443 5.783168 0.928599 1
-16.386583 5.839861 0.928950 1
-16.442379 5.912129 0.929169 1
-16.418413 5.957526 0.929559 1
-16.441669 6.024933 0.929885 2
-21.914520 8.005878 0.918995 3
-21.788151 8.039310 0.919742 3
-21.444691 7.990067 0.920895 3
-21.190798 7.974738 0.921877 3
-20.868452 7.936207 0.923004 2
-20.652851 7.931152 0.923885 2
-20.489948 7.944355 0.924654 2
-20.268148 8.077028 0.926401 2
-20.201078 8.128047 0.926994 2
-20.626154 8.369620 0.926682 2
-20.117373 8.241861 0.928034 2
-20.054855 8.290231 0.928587 2
-20.021856 8.350327 0.929087 2
-19.999754 8.414850 0.929566 2
-19.970036 8.476238 0.930056 2
-19.970932 8.546751 0.930473 2
-19.960508 8.612673 0.930908 2
-19.965549 8.692754 0.931362 2
-19.951885 8.765040 0.931845 2
-19.940672 8.831055 0.932280 2
-19.935160 8.903439 0.932727 2
-19.959997 8.985734 0.933107 2
-19.977188 9.065010 0.933500 2
-19.959826 9.132796 0.933965 2
-19.944416 9.205359 0.934448 2
-20.108154 9.356844 0.934659 2
-20.113632 9.440182 0.935117 2
-28.332159 13.479213 0.925075 13
-27.959976 13.414248 0.926203 12
-27.613794 13.358999 0.927280 18
-27.264723 13.299738 0.928343 18
-27.124649 13.340406 0.929134 12
-26.828310 13.308270 0.930135 11
-26.540413 13.267338 0.931052 11
-26.028336 13.216959 0.932803 11
-25.665123 13.136726 0.933793 11
-25.417915 13.118809 0.934669 10
-25.042046 13.026759 0.935640 15
-24.893684 13.051397 0.936359 15
-24.744007 13.069296 0.937043 10
-24.497112 13.039366 0.937845 10
-24.255650 13.015548 0.938656 9
-24.016760 12.986274 0.939426 14
-23.792377 12.963173 0.940171 14
-23.570513 12.934882 0.940877 13
-23.346998 12.908986 0.941600 13
-23.123930 12.881676 0.942313 13
-22.915236 12.860841 0.943003 13
-22.705542 12.833092 0.943658 13
-14.974585 8.480042 0.950069 3
-14.858405 8.473234 0.950475 5
-14.697545 8.439456 0.950908 5
-14.565943 8.418697 0.951298 5
-14.433327 8.399326 0.951698 5
-14.323731 8.395661 0.952092 5
-14.212199 8.387088 0.952466 5
-14.088497 8.367393 0.952828 5
-13.977418 8.357417 0.953192 5
-13.876766 8.353064 0.953544 5
-13.774180 8.343922 0.953879 4
-13.664553 8.338184 0.954256 4
-13.577988 8.340500 0.954587 4
-13.469220 8.325238 0.954911 4
-13.385525 8.322471 0.955204 4
-22.702755 13.125054 1.084890 16
-22.555578 13.130802 1.084757 8
-14.582134 8.493043 1.036971 6
-14.449499 8.473324 1.036647 9
-14.319760 8.448458 1.036284 6
-14.218465 8.445827 1.036139 9
-14.088759 8.427972 1.035834 9
-13.984464 8.421894 1.035657 9
-13.861281 8.400414 1.035330 9
-13.769672 8.403577 1.035244 8
-13.649073 8.384876 1.034943 8
-13.555731 8.382627 1.034811 8
-13.453740 8.371325 1.034593 8
-13.364100 8.370110 1.034474 8
-13.271257 8.366174 1.034328 8
-13.161869 8.350698 1.034068 2
-12.787166 8.156000 1.032013 2
-12.752206 8.244449 1.032696 7
-12.731400 8.282438 1.032982 5
-12.707903 8.324122 1.033295 2
-12.616313 8.316272 1.033119 2
-12.574233 8.342036 1.033279 2
-12.315146 8.321507 1.032794 7
-12.243899 8.325089 1.032736 7
-12.185748 8.337602 1.032768 7
-12.121155 8.345105 1.032750 10
-12.053402 8.349892 1.032707 12
-11.997984 8.357896 1.032705 10
-11.961264 8.387501 1.032903 5
-12.021982 8.486891 1.033792 5
-11.992551 8.519567 1.034024 5
-11.983481 8.564852 1.034385 5
-11.968379 8.611231 1.034747 5
-11.944888 8.648554 1.035024 5
-11.916269 8.679176 1.035240 5
-11.906960 8.730354 1.035649 5
-11.893830 8.773164 1.035984 2
-11.877793 8.819434 1.036344 2
-11.872318 8.871431 1.036764 2
-11.866246 8.917527 1.037135 2
-11.860640 8.975595 1.037604 2
-11.860644 9.032803 1.038073 2
-11.866562 9.095174 1.038592 2
-11.864327 9.148325 1.039025 2
-11.871295 9.215223 1.039583 2
-11.880797 9.278820 1.040116 2
-11.888530 9.344302 1.040663 2
-11.912654 9.421132 1.041322 2
-11.951663 9.517275 1.042159 5
-11.937002 9.565136 1.042533 5
-11.897911 9.585970 1.042657 2
-14.514877 12.007599 1.065719 34
-14.404408 11.987784 1.065422 31
-14.320053 11.986451 1.065308 34
-14.219030 11.973475 1.065078 33
-14.122272 11.967412 1.064910 26
-14.030600 11.961371 1.064748 26
-13.911522 11.925733 1.064310 25
-13.846801 11.942989 1.064373 25
-13.752784 11.932721 1.064174 25
-13.663815 11.922618 1.063982 25
-13.568318 11.913360 1.063790 24
-13.482663 11.905030 1.063617 28
-13.395288 11.898249 1.063454 28
-13.325409 11.907618 1.063446 28
-13.212481 11.874916 1.063039 31
-13.128572 11.869471 1.062892 31
-13.059115 11.877578 1.062874 30
-12.972666 11.868467 1.062694 27
-12.886415 11.858887 1.062510 27
-12.814496 11.862990 1.062455 23
-12.720153 11.844000 1.062184 33
-12.649508 11.840707 1.062071 27
-12.558418 11.823628 1.061820 32
-12.489877 11.828998 1.061780 32
-12.405652 11.821451 1.061615 29
-12.333703 11.818481 1.061503 32
-12.251728 11.808257 1.061319 32
-12.164458 11.791779 1.061077 48
-12.097436 11.799930 1.061062 32
-12.026088 11.795439 1.060938 34
-11.939415 11.777658 1.060686 31
-11.861931 11.772915 1.060553 25
-11.798347 11.771468 1.060463 28
-11.725736 11.767211 1.060339 31
-11.626519 11.732845 1.059936 46
-11.564973 11.739677 1.059917 37
-11.469770 11.711967 1.059574 54
-11.426229 11.734439 1.059705 42
-11.357819 11.735942 1.059633 33
-11.292526 11.729182 1.059498 30
-11.223623 11.725353 1.059383 33
-11.144451 11.709024 1.059152 36
-11.074004 11.706051 1.059042 33
-11.006282 11.705763 1.058956 30
-10.950135 11.711182 1.058932 33
-10.881253 11.700980 1.058764 34
-10.795375 11.673490 1.058434 37
-10.730105 11.670261 1.058328 31
-10.664966 11.666708 1.058219 34
-10.607509 11.672157 1.058193 37
-10.542603 11.667983 1.058080 34
-10.465356 11.647854 1.057820 31
-10.405744 11.649262 1.057759 34
-10.345612 11.645777 1.057657 35
-10.279415 11.641764 1.057543 35
-10.212174 11.628206 1.057350 38
-10.145701 11.618918 1.057193 35
-10.089112 11.622006 1.057149 35
-10.025909 11.619864 1.057054 41
-9.964134 11.611415 1.056909 41
-9.905443 11.610464 1.056830 38
-9.837317 11.596389 1.056631 35
-9.783628 11.601284 1.056605 36
-9.725278 11.599480 1.056519 36
-9.667034 11.597397 1.056431 39
-9.597201 11.578816 1.056193 39
-9.534578 11.569635 1.056042 34
-9.481381 11.573188 1.056006 34
-9.425946 11.573230 1.055938 39
-9.361424 11.559908 1.055750 36
-9.309909 11.556838 1.055662 42
-9.245707 11.542931 1.055470 36
-9.190737 11.541901 1.055394 32
-9.142611 11.550539 1.055406 37
-9.083323 11.542394 1.055267 42
-9.026406 11.537287 1.055155 42
-8.967398 11.528581 1.055012 37
-8.908536 11.519592 1.054866 35
-8.856043 11.515810 1.054771 35
-8.802158 11.517537 1.054719 40
-8.748023 11.514465 1.054628 35
-8.691836 11.507775 1.054505 30
-8.637614 11.499656 1.054372 27
-8.581687 11.492449 1.054244 35
-8.534378 11.498544 1.054236 33
-8.480778 11.494242 1.054136 38
-8.427288 11.489694 1.054033 42
-8.371824 11.481487 1.053898 35
-8.318570 11.476443 1.053791 33
-8.265430 11.471154 1.053683 35
-8.218334 11.471400 1.053628 33
-8.161322 11.458768 1.053454 35
-8.110753 11.460733 1.053409 40
-8.063909 11.460339 1.053348 38
-8.009300 11.450418 1.053200 38
-7.954835 11.440244 1.053050 38
-7.902493 11.433294 1.052929 35
-7.856172 11.436557 1.052899 38
-7.807946 11.436133 1.052837 38
-7.763560 11.437984 1.052798 38
-7.705932 11.424148 1.052614 38
-7.654135 11.416058 1.052484 38
-7.606190 11.410264 1.052378 36
-7.558421 11.408769 1.052308 36
-7.510793 11.411566 1.052272 36
-7.465040 11.413194 1.052230 38
-7.413737 11.399505 1.052055 38
-7.368147 11.400730 1.052009 40
-7.322615 11.401765 1.051962 40
-7.273504 11.395484 1.051850 40
-7.220889 11.381850 1.051674 38
-7.170228 11.371552 1.051528 36
-7.132237 11.377127 1.051527 34
-7.083512 11.374492 1.051446 36
-7.040202 11.377939 1.051422 36
-6.991696 11.370414 1.051301 38
-6.943382 11.358202 1.051141 38
-6.896838 11.353868 1.051049 38
-6.848576 11.350187 1.050960 38
-6.804023 11.344604 1.050859 36
-6.759311 11.347771 1.050831 34
-6.713111 11.342650 1.050732 36
-6.670319 11.344615 1.050696 38
-6.625927 11.342760 1.050627 38
-6.588306 11.350872 1.050647 36
-6.538973 11.342160 1.050516 38
-6.488361 11.325108 1.050314 38
-6.442701 11.318836 1.050207 38
-6.397141 11.312372 1.050098 34
-6.355280 11.304182 1.049980 32
-6.309427 11.306240 1.049940 32
-6.270826 11.305091 1.049884 34
-6.227145 11.301596 1.049802 36
-6.179942 11.299396 1.049726 36
-6.139421 11.302942 1.049706 36
-6.100728 11.305609 1.049680 38
-6.052877 11.290262 1.049496 36
-6.009576 11.285874 1.049407 38
-5.969257 11.288765 1.049382 38
-5.938322 11.305042 1.049477 8
-4.382596 7.407752 1.015606 0
-4.360178 7.416169 1.015648 0
-4.350209 7.458275 1.015981 0
-4.305642 7.406472 1.015502 0
-4.265546 7.365721 1.015118 0
-4.243276 7.373730 1.015157 0
-4.222311 7.385432 1.015227 0
-4.206376 7.408000 1.015393 0
-4.168260 7.370444 1.015038 0
-4.152271 7.392869 1.015203 0
-4.117252 7.366760 1.014946 0
-4.098785 7.385632 1.015078 0
-4.078957 7.400654 1.015177 0
-4.055324 7.404209 1.015177 0
-4.024319 7.384839 1.014980 0
-4.007965 7.406891 1.015141 0
-3.989161 7.425445 1.015271 0
-3.954789 7.394300 1.014973 0
-3.927716 7.385932 1.014871 0
-3.907703 7.400416 1.014966 0
-3.878417 7.384189 1.014797 0
-3.864038 7.417692 1.015054 0
-3.833730 7.397426 1.014851 0
-3.811351 7.403927 1.014877 0
-3.769237 7.336945 1.014276 0
-3.749237 7.350923 1.014366 0
-3.718500 7.322135 1.014092 0
-3.703783 7.355239 1.014346 0
-3.675227 7.342280 1.014205 0
-3.653042 7.348228 1.014227 0
-3.632868 7.361837 1.014313 0
-3.609613 7.363765 1.014301 0
-3.589457 7.373076 1.014353 0
-3.558249 7.347972 1.014109 0
-3.536045 7.353512 1.014127 0
-3.511925 7.351203 1.014078 0
-3.492514 7.368249 1.014195 0
-3.464714 7.350205 1.014013 0
-3.443410 7.359315 1.014061 0
-3.420707 7.352248 1.013976 0
-3.396266 7.357810 1.013991 0
-3.370563 7.347166 1.013873 0
-3.351774 7.367682 1.014018 0
-3.324738 7.344888 1.013798 0
-3.297589 7.326131 1.013611 0
-3.274943 7.322699 1.013555 0
-3.258114 7.358830 1.013831 0
-3.238885 7.366799 1.013873 0
-3.211643 7.351820 1.013717 0
-3.187911 7.348296 1.013659 0
-3.164218 7.344684 1.013600 0
-3.140188 7.345122 1.013574 0
-3.107630 7.286041 1.013050 0
-3.098309 7.360884 1.013653 0
-3.073032 7.340985 1.013458 0
-3.048826 7.333004 1.013363 0
-3.023582 7.325119 1.013268 0
-3.004515 7.340452 1.013370 0
-2.982976 7.348008 1.013406 0
-2.958911 7.339686 1.013308 0
-2.937347 7.347088 1.013343 0
-2.913962 7.342550 1.013277 0
-2.889460 7.330011 1.013144 0
-2.869022 7.345096 1.013243 0
-2.845176 7.328269 1.013076 0
-2.821400 7.327507 1.013040 0
-2.798222 7.322545 1.012971 0
-2.775682 7.313389 1.012869 0
-2.752608 7.308260 1.012799 0
-2.730547 7.310988 1.012794 0
-2.707537 7.305696 1.012722 0
-2.685486 7.308267 1.012717 0
-2.664311 7.318711 1.012776 0
-2.642032 7.309082 1.012670 0
-2.619824 7.299375 1.012563 0
-2.598198 7.305619 1.012588 1
-2.486544 7.299852 1.012404 1
-2.463558 7.289690 1.012293 1
-2.443581 7.303290 1.012380 1
-2.376649 7.296035 1.012239 0
-2.354135 7.289467 1.012158 0
-2.330177 7.294927 1.012173 1
-2.309701 7.284078 1.012059 1
-2.285737 7.289369 1.012073 1
-2.263168 7.278482 1.011956 1
-2.241214 7.279502 1.011938 1
-2.219257 7.280446 1.011919 1
-2.199493 7.281229 1.011901 1
-2.177392 7.278029 1.011848 1
-2.155317 7.274753 1.011794 1
-2.131842 7.259433 1.011640 1
-2.111243 7.267966 1.011684 1
-2.089080 7.256459 1.011563 1
-2.067341 7.264870 1.011605 1
-2.046366 7.253193 1.011484 1
-2.023490 7.261467 1.011524 1
-2.001571 7.257651 1.011466 1
-1.979666 7.249758 1.011374 1
-1.958907 7.249789 1.011349 1
-1.937085 7.241748 1.011257 1
-1.915262 7.241630 1.011229 1
-1.893482 7.237436 1.011168 1
-1.871561 7.245165 1.011204 1
-1.849726 7.244819 1.011175 1
-1.828062 7.236398 1.011079 1
-1.805962 7.247896 1.011147 1
-1.784680 7.227328 1.010952 1
-1.762403 7.242670 1.011051 0
-1.739205 7.249899 1.011082 1
-1.717974 7.233103 1.010918 0
-1.697103 7.236263 1.010918 0
-1.675665 7.227316 1.010819 1
-1.655178 7.222343 1.010753 1
-1.632796 7.233225 1.010815 1
-1.611451 7.224058 1.010714 1
-1.588841 7.218746 1.010642 1
-1.567936 7.221473 1.010639 1
-1.544595 7.244013 1.010796 2
-1.458597 7.221657 1.010507 20
-1.395178 7.196148 1.010220 0
-1.370808 7.246113 1.010600 0
-1.329562 7.217970 1.010319 7
-1.288681 7.189558 1.010036 1
-1.267043 7.187178 1.009990 1
-1.244040 7.196641 1.010040 1
-1.222378 7.194105 1.009992 0
-1.201698 7.183552 1.009881 0
-1.179582 7.184836 1.009864 1
-1.157962 7.182075 1.009815 1
-1.136352 7.179238 1.009765 0
-1.113669 7.184251 1.009779 1
-1.093132 7.181411 1.009730 2
-1.073799 7.162511 1.009552 1
-1.052257 7.159380 1.009500 0
-1.031323 7.152219 1.009416 0
-1.008598 7.156846 1.009426 1
-0.985829 7.161390 1.009435 2
-0.966842 7.142157 1.009254 2
-0.943419 7.150493 1.009294 2
-0.921255 7.150851 1.009270 2
-0.899756 7.147188 1.009213 2
-0.876884 7.151329 1.009220 2
-0.854676 7.151448 1.009193 2
-0.833895 7.143618 1.009104 2
-0.812421 7.139650 1.009045 2
-0.789466 7.143466 1.009048 4
-0.766471 7.147196 1.009051 4
-0.747607 7.135356 1.008931 4
-0.726162 7.131087 1.008869 4
-0.695916 7.169849 1.009150 7
-0.679242 7.141904 1.008901 4
-0.660262 7.125657 1.008744 4
-0.634180 7.132351 1.008767 3
-0.613177 7.135971 1.008771 2
-0.590861 7.135136 1.008737 1
-0.568535 7.134221 1.008702 1
-0.545301 7.137123 1.008698 1
-0.522030 7.139937 1.008693 1
-0.497798 7.146555 1.008717 0
-0.477254 7.137526 1.008618 0
-0.450095 7.155624 1.008733 0
-0.429546 7.146434 1.008633 0
-0.405227 7.156840 1.008688 0
-0.381642 7.154975 1.008644 0
-0.354172 7.176809 1.008790 0
-0.328512 7.186638 1.008839 0
-0.306891 7.180906 1.008766 0
-0.273791 7.217567 1.009026 0
-0.195943 7.416075 1.010559 0
0.847338 10.812401 1.037145 36
0.881609 10.802542 1.037023 36
0.920349 10.807917 1.037019 38
0.958021 10.809305 1.036985 36
0.996891 10.814382 1.036979 38
1.031168 10.804001 1.036852 38
1.065408 10.793500 1.036724 38
1.105575 10.801970 1.036744 36
1.140001 10.803734 1.036717 38
1.178388 10.799926 1.036639 38
1.214597 10.800882 1.036602 38
1.250535 10.789182 1.036462 38
1.291015 10.796900 1.036476 40
1.324790 10.789858 1.036377 38
1.362832 10.789697 1.036329 40
1.402624 10.788803 1.036273 38
1.438120 10.780786 1.036164 38
1.473218 10.777012 1.036090 36
1.513081 10.775673 1.036031 35
1.552623 10.778549 1.036006 35
1.588135 10.769990 1.035892 35
1.621595 10.766307 1.035821 35
1.659867 10.764998 1.035764 35
1.705795 10.773501 1.035778 35
1.739344 10.769420 1.035703 35
1.779451 10.767004 1.035634 35
1.814999 10.757624 1.035514 35
1.850527 10.748114 1.035393 36
1.891670 10.757751 1.035421 38
1.931664 10.759110 1.035384 38
1.973421 10.759624 1.035337 39
2.007500 10.745835 1.035182 39
2.046090 10.743027 1.035112 39
2.087603 10.751859 1.035133 37
2.131084 10.755405 1.035110 37
2.168265 10.748433 1.035007 37
2.203875 10.737643 1.034875 35
2.239227 10.735535 1.034814 37
2.279708 10.731082 1.034728 37
2.320030 10.735281 1.034714 37
2.363830 10.737811 1.034681 37
2.401100 10.729960 1.034571 37
2.441662 10.729259 1.034516 35
2.480573 10.729167 1.034467 37
2.522931 10.727361 1.034401 37
2.565321 10.729792 1.034369 37
2.602688 10.725597 1.034289 37
2.645195 10.727693 1.034254 37
2.689495 10.733218 1.034245 35
2.728683 10.727741 1.034152 35
2.769638 10.725708 1.034086 31
2.805355 10.712731 1.033936 33
2.844584 10.706796 1.033839 33
2.885615 10.704284 1.033768 35
2.924993 10.702456 1.033705 33
2.975041 10.713021 1.033731 38
3.014547 10.710847 1.033665 38
3.057622 10.711196 1.033615 38
3.097067 10.704267 1.033510 38
3.142102 10.707805 1.033484 36
3.181609 10.700541 1.033376 36
3.224895 10.700178 1.033320 34
3.270137 10.703152 1.033289 34
3.313555 10.702413 1.033230 32
3.357031 10.701488 1.033169 34
3.400802 10.704817 1.033143 34
3.438570 10.693037 1.033000 36
3.487801 10.697603 1.032978 36
3.537412 10.706379 1.032989 36
3.581206 10.704504 1.032920 34
3.623059 10.698973 1.032824 36
3.663247 10.694250 1.032736 34
3.705482 10.692821 1.032673 32
3.753184 10.692673 1.032613 36
3.801657 10.701195 1.032624 36
3.843373 10.690310 1.032483 38
3.889592 10.690547 1.032429 36
3.937961 10.693996 1.032398 38
3.984336 10.693816 1.032340 38
4.032882 10.696833 1.032305 34
4.079409 10.696233 1.032244 31
4.119629 10.685259 1.032104 31
4.158601 10.679641 1.032011 36
4.210802 10.679694 1.031947 34
4.257551 10.678294 1.031879 34
4.306537 10.680044 1.031833 36
4.354411 10.687125 1.031833 34
4.409665 10.694014 1.031822 29
4.450634 10.686185 1.031708 29
4.490567 10.669282 1.031520 31
4.538235 10.671086 1.031477 33
4.583745 10.669368 1.031407 33
4.636634 10.667307 1.031326 33
4.685112 10.672920 1.031312 31
4.734210 10.668239 1.031214 31
4.781674 10.664504 1.031125 33
4.827507 10.661740 1.031047 29
4.876769 10.656393 1.030943 31
4.929039 10.658531 1.030896 31
4.981407 10.660422 1.030848 31
5.039213 10.673011 1.030881 31
5.082389 10.661455 1.030733 29
5.139088 10.664603 1.030690 30
5.191837 10.665498 1.030632 28
5.235825 10.657773 1.030515 30
5.285612 10.650535 1.030395 30
5.336893 10.651991 1.030344 33
5.392372 10.655114 1.030302 30
5.447961 10.657967 1.030258 30
5.493884 10.647883 1.030119 30
5.545505 10.648380 1.030060 30
5.600583 10.646003 1.029973 30
5.656536 10.647820 1.029920 30
5.710907 10.650703 1.029877 30
5.767067 10.651984 1.029819 30
5.825839 10.656105 1.029781 32
5.872134 10.644402 1.029628 30
5.925187 10.637311 1.029505 32
5.985093 10.645085 1.029496 32
6.048511 10.649775 1.029457 32
6.101005 10.647732 1.029376 32
6.155259 10.644031 1.029279 30
6.207001 10.637015 1.029158 30
6.263983 10.635844 1.029079 32
6.323661 10.637427 1.029019 32
6.383451 10.638711 1.028957 32
6.435469 10.630644 1.028827 32
6.495444 10.631354 1.028760 31
6.556491 10.636247 1.028725 34
6.621032 10.637846 1.028659 34
6.676007 10.631671 1.028542 34
6.729362 10.626746 1.028436 34
6.793533 10.633420 1.028412 31
6.854130 10.632331 1.028329 31
6.920243 10.636821 1.028286 31
6.986495 10.640967 1.028239 34
7.050155 10.641844 1.028168 33
7.102970 10.630735 1.028012 33
7.166816 10.630995 1.027936 33
7.230775 10.630926 1.027858 33
7.298700 10.637915 1.027832 33
7.357338 10.631425 1.027707 33
7.420516 10.625874 1.027584 30
7.486015 10.628997 1.027530 33
7.558939 10.635826 1.027497 33
7.626386 10.636588 1.027421 31
7.685466 10.628514 1.027282 28
7.750285 10.625780 1.027181 31
7.823749 10.631133 1.027135 31
7.894509 10.633293 1.027066 34
7.953928 10.623925 1.026917 28
8.024916 10.625371 1.026842 31
8.096033 10.626437 1.026764 28
8.165598 10.628891 1.026699 31
8.232839 10.621936 1.026560 30
8.307235 10.624619 1.026491 33
8.375920 10.621445 1.026381 30
8.448898 10.625159 1.026322 30
8.520752 10.623958 1.026224 27
8.595677 10.625070 1.026142 30
8.676665 10.631146 1.026093 30
8.748905 10.628748 1.025985 28
8.821257 10.625962 1.025874 28
8.902694 10.630754 1.025814 25
8.987297 10.637737 1.025768 25
9.054019 10.628443 1.025610 25
9.129867 10.626671 1.025503 28
9.228720 10.640825 1.025498 25
9.306226 10.642708 1.025419 22
9.382504 10.639611 1.025300 22
9.471121 10.646423 1.025248 26
9.550729 10.645022 1.025139 19
9.627392 10.640623 1.025009 22
9.717890 10.650590 1.024980 26
9.799591 10.645801 1.024841 23
9.884243 10.649730 1.024770 23
9.972422 10.649038 1.024657 23
10.051147 10.647014 1.024544 23
10.150433 10.657434 1.024508 23
10.245354 10.660180 1.024415 23
10.329337 10.657086 1.024287 24
10.411759 10.655684 1.024174 24
10.514958 10.666376 1.024136 24
10.608873 10.669143 1.024044 21
10.699782 10.668942 1.023931 24
10.794027 10.670643 1.023830 21
10.888438 10.671803 1.023724 21
10.989418 10.677214 1.023645 21
11.080957 10.674882 1.023514 18
11.182296 10.679150 1.023425 22
11.286893 10.692176 1.023404 18
11.375678 10.685866 1.023244 18
8.489964 8.471297 1.008603 5
8.454065 8.390752 1.007986 2
8.447149 8.331299 1.007507 2
8.456329 8.283457 1.007104 2
8.311850 8.028421 1.005188 2
8.383945 7.972208 1.004639 2
8.358407 7.902665 1.004099 2
8.415783 7.888753 1.003915 2
8.289564 7.753357 1.002959 2
8.361241 7.297429 0.999131 2
8.417399 7.282103 0.998937 2
8.478249 7.219754 0.998351 7
8.482721 7.173092 0.997963 7
8.497343 7.132552 0.997612 11
8.512267 7.043386 0.996863 35
8.547215 7.014754 0.996585 11
8.595996 6.993862 0.996354 7
8.863479 6.950014 0.995668 2
8.933366 6.939039 0.995492 2
9.630260 6.956737 0.994786 2
9.590451 6.885331 0.994249 2
11.809497 7.020000 0.992642 3
12.032291 7.059449 0.992694 3
15.581985 8.454134 0.999798 5
15.626363 8.400624 0.999305 5
15.626284 8.328411 0.998712 5
15.607430 8.248651 0.998081 5
15.621554 8.182743 0.997523 5
15.629237 8.121464 0.997011 5
15.618134 8.042057 0.996373 5
15.641422 7.983729 0.995866 5
15.685551 7.926489 0.995343 5
15.694745 7.859054 0.994778 5
15.726142 7.733028 0.993706 10
15.796428 7.614691 0.992650 40
16.011549 7.481389 0.991293 5
16.123373 7.454073 0.990933 5
18.854664 7.536859 0.988275 6
24.038004 8.779888 0.992139 52
24.066381 8.684552 0.991322 52
24.077723 8.589177 0.990526 63
24.073339 8.489388 0.989712 42
24.071135 8.395358 0.988944 20
24.086548 8.296661 0.988115 20
24.100328 8.202500 0.987326 31
24.125345 8.111492 0.986549 31
24.123009 8.013117 0.985745 31
24.175272 7.831873 0.984194 51
24.181147 7.745732 0.983480 41
24.170843 7.640998 0.982634 72
24.186142 7.547801 0.981851 72
24.201107 7.454578 0.981068 72
24.219625 7.362277 0.980288 83
24.271259 7.181199 0.978739 100
24.295542 7.095088 0.978003 41
27.805826 7.474643 0.976828 13
32.216084 8.061417 0.976253 20
49.647751 11.302423 0.981542 59
49.614166 10.912475 0.978384 29
131.655731 25.248543 0.995750 63
141.415573 26.503860 0.994124 10
141.769318 25.042688 0.981705 63
141.868195 24.543436 0.977489 3
103.785042 17.171793 0.963547 117
103.821098 16.799631 0.960450 19
104.063538 16.079950 0.954250 104
104.214615 15.723524 0.951141 2
122.862251 17.025110 0.939035 10
75.176285 9.533672 0.935843 59
75.215034 9.251758 0.933483 59
95.201172 10.021150 0.915376 63
34.023842 3.071409 0.933110 68
-26.123981 0.993975 0.989555 8
-26.627815 1.080163 0.990878 8
-68.047264 3.308628 1.059764 40
-69.237869 3.585555 1.063490 42
-141.250366 8.775888 1.194051 63
-140.870956 9.241168 1.197404 63
-140.741501 9.719714 1.201171 63
-131.846725 10.070965 1.193185 63
-83.556221 6.981037 1.108838 63
-73.235176 6.448406 1.091859 49
-72.892723 6.671294 1.093269 48
-72.830322 7.176972 1.097341 48
-56.494659 6.125122 1.068753 29
-56.393799 6.499260 1.071700 29
-56.330475 6.684647 1.073143 29
-56.322193 6.875686 1.074700 29
-56.301315 7.065404 1.076231 29
-56.209339 7.237330 1.077529 29
-56.354977 7.639191 1.081003 59
-56.506058 7.850983 1.082925 29
-108.114609 15.095953 1.205411 63
-107.941856 15.449642 1.208102 63
-107.870926 15.816715 1.211026 63
-95.655243 14.440236 1.184810 63
-95.544403 14.757886 1.187280 63
-95.481575 15.416355 1.192605 63
-78.485275 13.342101 1.154824 59
-78.163673 13.549607 1.156133 58
-77.937920 13.784966 1.157788 58
-77.880959 14.048059 1.159876 58
-77.854614 14.316443 1.162046 58
-77.878502 14.593975 1.164352 58
-68.717583 13.193069 1.141667 42
-67.431984 13.194388 1.140107 40
-65.494881 13.062928 1.136662 37
-19.419109 4.497401 1.010103 4
