# .PCD v.7 - Point Cloud Data file format
VERSION .7
FIELDS x y z intensity
SIZE 4 4 4 1
TYPE F F F U
COUNT 1 1 1 1
WIDTH 1488
HEIGHT 1
VIEWPOINT 0 0 0 1 0 0 0
POINTS 1488
DATA ascii
-7.540371 -59.399975 -0.656173 42
-7.771488 -59.763302 -0.666443 43
-7.992315 -59.897942 -0.670497 43
-8.132498 -59.256329 -0.653332 42
-8.357395 -59.433323 -0.658577 43
-4.600902 -11.473355 0.648714 19
-4.635283 -11.448246 0.649204 23
-4.676802 -11.466564 0.648501 16
-5.970730 -11.833886 0.630583 34
-6.577734 -11.521528 0.633643 47
-6.644248 -11.479163 0.634127 17
-6.672556 -11.444645 0.634746 20
-6.717161 -11.446487 0.634296 10
-13.372990 -22.103731 0.303836 4
-13.481462 -21.953705 0.306357 13
-13.593175 -21.983484 0.304434 9
-13.773598 -22.144011 0.298581 4
-14.044975 -22.280485 0.292312 5
-14.051411 -22.111212 0.296345 4
-14.591938 -22.704309 0.276009 10
-14.657462 -22.642971 0.276755 10
-14.738968 -22.608990 0.276655 26
-13.435245 -20.253519 0.348052 7
-13.849030 -20.784204 0.330599 25
-14.453572 -21.629101 0.303423 4
-14.549050 -21.463282 0.306279 4
-14.538296 -21.286736 0.310611 50
-14.556082 -21.158020 0.313463 46
-14.133628 -20.337479 0.337938 45
-8.647226 -11.525280 0.612007 7
-8.677088 -11.487362 0.612547 22
-8.703120 -11.451708 0.613076 20
-14.407759 -20.029026 0.341926 36
-14.441085 -19.935490 0.343714 24
-14.482746 -19.855284 0.345082 28
-15.035762 -20.548779 0.322022 13
-15.175269 -20.609333 0.318875 49
-14.662601 -19.705891 0.346334 4
-14.926464 -19.811409 0.340558 24
-15.203814 -20.071817 0.331004 25
-15.285010 -20.039688 0.330710 12
-14.831266 -19.254154 0.354656 34
-15.139534 -19.417944 0.346902 28
-15.829537 -20.241852 0.319018 69
-15.895557 -20.199125 0.319131 9
-15.391956 -19.368877 0.344719 4
-15.406292 -19.115149 0.350304 12
-15.671575 -19.081356 0.347508 32
-15.526041 -18.760063 0.356724 19
-16.001934 -19.251865 0.339180 8
-16.173147 -19.342043 0.334813 4
-18.893234 -22.239414 0.232484 6
-18.968517 -22.189518 0.232538 6
-18.348200 -20.983568 0.267948 11
-10.652149 -11.506899 0.586052 2
-10.681771 -11.471998 0.586393 16
-10.720027 -11.440109 0.586541 20
-10.769236 -11.424895 0.586163 4
-18.849319 -20.731167 0.266245 5
-18.909384 -20.669125 0.266712 5
-19.078503 -20.580757 0.266132 11
-19.154608 -20.530033 0.266096 11
-19.176815 -20.425135 0.268018 40
-19.334921 -20.466547 0.264770 35
-19.172985 -20.150019 0.273959 100
-19.354971 -20.217508 0.269782 5
-8.231256 -7.816815 0.701397 1
-8.203409 -7.739202 0.703462 6
-8.145148 -7.629652 0.706663 3
-8.121726 -7.558538 0.708518 5
-8.103369 -7.493489 0.710166 6
-8.073621 -7.417048 0.712225 7
-8.071046 -7.369797 0.713251 9
-8.076537 -7.331284 0.713967 11
-8.051214 -7.261230 0.715816 10
-8.042238 -7.208598 0.717047 13
-8.038576 -7.161808 0.718070 19
-8.045915 -7.126484 0.718681 18
-8.054843 -7.095074 0.719184 20
-8.064684 -7.062613 0.719692 19
-8.069736 -7.023473 0.720410 18
-8.064983 -6.977032 0.721431 17
-8.071430 -6.941865 0.722041 18
-8.074834 -6.903944 0.722753 18
-8.083811 -6.871616 0.723260 18
-8.091620 -6.840360 0.723762 18
-8.090589 -6.800858 0.724571 20
-8.097186 -6.764786 0.725185 20
-8.114285 -6.740737 0.725383 19
-8.119573 -6.705751 0.725992 22
-8.142324 -6.687067 0.725986 33
-8.141433 -6.646684 0.726799 38
-8.165976 -6.631670 0.726686 36
-8.183537 -6.606353 0.726889 30
-8.197050 -6.579395 0.727191 28
-8.210449 -6.552410 0.727492 26
-8.217746 -6.520101 0.727998 26
-8.232949 -6.496813 0.728193 27
-8.255998 -6.476561 0.728193 27
-8.271038 -6.453167 0.728388 32
-8.286937 -6.428637 0.728588 36
-8.311861 -6.411853 0.728482 45
-8.343783 -6.399028 0.728178 49
-8.374760 -6.387153 0.727869 53
-8.404796 -6.376246 0.727557 53
-8.432685 -6.361520 0.727351 55
-8.457464 -6.344121 0.727248 55
-8.489316 -6.330549 0.726947 53
-8.528614 -6.326656 0.726332 48
-8.562660 -6.316391 0.725926 45
-8.600757 -6.307302 0.725424 42
-8.624515 -6.290364 0.725318 38
-8.661701 -6.282081 0.724812 36
-8.715563 -6.284768 0.723806 36
-8.759147 -6.280943 0.723100 37
-8.802785 -6.276878 0.722395 37
-8.845560 -6.273767 0.721685 38
-8.886125 -6.266805 0.721083 41
-8.940397 -6.268061 0.720083 44
-8.993854 -6.270210 0.719079 47
-9.040081 -6.268500 0.718272 51
-9.077647 -6.258167 0.717775 50
-9.121672 -6.252370 0.717077 54
-9.178664 -6.255756 0.715976 52
-9.232528 -6.256462 0.714978 54
-9.276742 -6.249854 0.714284 52
-9.317743 -6.240679 0.713690 54
-9.365294 -6.235903 0.712897 51
-9.422716 -6.237757 0.711803 52
-9.476960 -6.236985 0.710811 54
-9.525624 -6.230031 0.710027 54
-9.573429 -6.224113 0.709238 57
-9.621284 -6.217924 0.708451 57
-9.674902 -6.217286 0.707458 56
-9.729507 -6.215001 0.706472 57
-9.790843 -6.216835 0.705287 54
-9.835613 -6.207268 0.704604 54
-9.887095 -6.201843 0.703722 51
-9.954477 -6.208429 0.702336 53
-10.010374 -6.203136 0.701362 54
-10.065434 -6.198910 0.700385 53
-10.117188 -6.192214 0.699508 50
-10.174852 -6.190920 0.698427 51
-10.237787 -6.188551 0.697260 55
-10.292221 -6.184460 0.696281 53
-10.354423 -6.182812 0.695110 54
-10.410795 -6.175143 0.694147 53
-10.479991 -6.176919 0.692780 55
-10.545877 -6.176209 0.691515 53
-10.605000 -6.170993 0.690450 53
-10.670166 -6.171024 0.689182 52
-10.731982 -6.168649 0.688014 50
-10.808582 -6.172461 0.686457 47
-10.865461 -6.162211 0.685504 47
-10.942282 -6.165137 0.683951 49
-11.015758 -6.165606 0.682498 49
-11.076323 -6.156160 0.681451 47
-11.143018 -6.151848 0.680201 47
-11.222872 -6.156523 0.678549 50
-11.289753 -6.151367 0.677302 48
-11.360217 -6.147727 0.675958 46
-11.430768 -6.143658 0.674615 50
-11.504925 -6.141055 0.673176 49
-11.568597 -6.132343 0.672034 44
-11.667658 -6.141970 0.669907 17
-11.742122 -6.137949 0.668473 20
-11.802489 -6.126080 0.667436 43
-11.880656 -6.123027 0.665907 34
-11.982943 -6.133990 0.663684 27
-12.082740 -6.140760 0.661568 26
-12.193419 -6.152289 0.659161 28
-12.301620 -6.159524 0.656862 23
-12.427033 -6.176715 0.654067 14
-22.781708 -11.117689 0.372684 55
-22.777205 -11.026003 0.374074 12
-23.575283 -11.322344 0.353575 14
-23.365335 -11.130658 0.360562 13
-23.225086 -10.883516 0.366878 8
-23.582663 -10.958224 0.358483 4
-24.030083 -11.066546 0.347768 4
-23.236139 -10.619537 0.370269 4
-22.739750 -10.221315 0.385938 8
-24.783384 -10.938202 0.333882 5
-23.371103 -10.234795 0.372629 4
-24.932993 -10.813457 0.332414 5
-23.416513 -10.077588 0.373749 4
-25.251633 -10.758164 0.326475 5
-25.473873 -10.755070 0.321858 5
-25.718569 -10.759654 0.316664 5
-25.854460 -10.723136 0.314276 5
-26.060513 -10.704326 0.310179 11
-26.268776 -10.689849 0.305972 11
-26.473507 -10.672567 0.301868 6
-26.687904 -10.662646 0.297461 12
-26.892996 -10.642736 0.293368 12
-27.126068 -10.627128 0.288621 12
-27.376383 -10.621441 0.283377 6
-27.611980 -10.608514 0.278528 6
-27.851547 -10.595448 0.273588 6
-28.125124 -10.593207 0.267785 6
-28.803322 -10.741027 0.251541 7
-28.765585 -10.621754 0.253768 7
-48.202877 -17.403704 -0.242317 28
-48.569229 -17.350840 -0.249544 28
-49.294697 -17.420076 -0.265912 30
-34.139565 -12.045570 0.121895 10
-32.833492 -11.477365 0.156526 9
-30.784533 -10.670545 0.209871 8
-30.848421 -10.580074 0.209523 8
-49.897896 -16.707533 -0.270739 30
-43.861317 -14.568815 -0.116336 20
-43.729359 -14.365362 -0.111215 20
-49.296989 -15.964149 -0.249459 29
-44.023849 -14.136868 -0.115075 21
-23.315567 -7.591643 0.405729 3
-23.300129 -7.505551 0.406997 3
-23.169466 -7.385105 0.411134 3
-23.122559 -7.290688 0.413164 3
-23.075253 -7.196675 0.415191 3
-23.092852 -7.121962 0.415594 3
-23.064041 -7.034026 0.417141 3
-23.046423 -6.949620 0.418401 3
-23.016914 -6.862196 0.419946 3
-23.064182 -6.796203 0.419585 3
-23.057201 -6.715333 0.420557 10
-23.029615 -6.633100 0.421989 28
-23.036520 -6.560278 0.422564 21
-23.048950 -6.481132 0.423075 10
-23.044647 -6.401681 0.423950 98
-23.050753 -6.328932 0.424524 35
-23.096329 -6.262171 0.424165 35
-23.130945 -6.188616 0.424106 24
-23.176079 -6.121381 0.423748 66
-23.189875 -6.046510 0.424149 80
-23.466742 -5.879257 0.419568 3
-23.870853 -5.886533 0.410538 3
-23.937660 -5.825105 0.409610 3
-24.317867 -5.826803 0.401148 4
-24.468361 -5.773113 0.398279 4
-24.884171 -5.777682 0.388987 4
-25.174078 -5.757840 0.382705 4
-25.523735 -5.743841 0.375034 4
-25.869650 -5.726685 0.367468 4
-26.169434 -5.693833 0.361057 5
-26.460623 -5.661626 0.354825 5
-26.850164 -5.645737 0.346253 5
-27.195812 -5.623683 0.338706 5
-45.510040 -8.820979 -0.097145 21
-45.954510 -8.742405 -0.106460 21
-46.435760 -8.659171 -0.116575 22
-46.984024 -8.583785 -0.128269 23
-47.534962 -8.513078 -0.140072 24
-48.163612 -8.459382 -0.153765 25
-48.733154 -8.392253 -0.166039 25
-49.343544 -8.319263 -0.179198 26
-49.898628 -8.233766 -0.191033 27
-50.568420 -8.161349 -0.205559 28
-51.148476 -8.062705 -0.217887 29
-51.799736 -7.969852 -0.231876 30
-52.517136 -7.890285 -0.247465 31
-53.269070 -7.819468 -0.263909 32
-49.084564 -7.097336 -0.164472 26
-48.019344 -6.788447 -0.138293 24
-48.335945 -6.672128 -0.144639 24
-48.223404 -6.502901 -0.140948 24
-48.481571 -6.360838 -0.145826 25
-49.007748 -6.263417 -0.157070 25
-48.111347 -6.000532 -0.135082 24
-47.929600 -5.818769 -0.129794 24
-47.549019 -5.610302 -0.119852 23
-47.365772 -5.431928 -0.114579 23
-46.612053 -4.895345 -0.094209 22
-46.625324 -4.739600 -0.093577 22
-30.768179 -3.114783 0.275460 7
-30.679928 -3.002712 0.278097 7
-30.762501 -2.907565 0.276755 7
-30.449314 -2.792286 0.284498 7
-30.475004 -2.699114 0.284420 7
-30.468998 -2.594076 0.285117 7
-30.478064 -2.499871 0.285407 7
-30.443121 -2.398521 0.286726 7
-30.423800 -2.298151 0.287678 7
-30.404125 -2.197934 0.288628 7
-30.420248 -2.094275 0.288773 7
-30.399855 -1.994243 0.289722 7
-30.395098 -1.894858 0.290305 7
-30.354015 -1.794536 0.291710 7
-30.656393 -1.702703 0.285258 7
-30.586643 -1.601208 0.287304 7
-30.680470 -1.502969 0.285607 7
-30.597952 -1.406725 0.287904 7
-31.242937 -1.313358 0.273635 7
-33.095310 -1.217964 0.231904 8
-34.059551 -1.117789 0.210385 9
25.603662 2.567103 0.454067 6
25.826496 2.398691 0.449784 6
25.270935 2.229021 0.459377 6
25.202095 2.129370 0.460409 6
25.241270 2.032766 0.459512 6
25.279587 1.940678 0.458634 6
25.256927 1.851610 0.458846 6
25.287157 1.753711 0.458088 6
25.256395 1.659296 0.458424 6
25.305841 1.563144 0.457314 6
25.405857 1.480940 0.455326 6
25.111624 1.358695 0.460295 6
37.247066 1.053428 0.241749 12
37.723160 -0.302956 0.228585 12
25.443443 -1.099446 0.446274 6
25.014343 -1.282093 0.453235 6
25.321117 -1.385220 0.447285 6
19.923962 -1.462347 0.543976 3
19.718369 -1.534047 0.547356 3
18.205242 -1.568809 0.574397 2
17.747486 -1.625365 0.582368 2
17.456476 -1.817055 0.586707 173
17.473547 -1.885855 0.586073 99
17.430454 -1.951909 0.586528 76
17.423084 -2.019523 0.586331 35
17.427645 -2.084364 0.585928 33
17.439577 -2.156497 0.585353 30
17.443470 -2.224841 0.584937 33
17.447346 -2.289833 0.584535 33
17.446779 -2.357984 0.584192 33
17.446220 -2.422752 0.583862 28
17.448917 -2.494621 0.583433 33
17.459595 -2.563767 0.582870 33
17.466040 -2.632675 0.582381 33
17.468256 -2.701302 0.581964 35
17.470535 -2.766567 0.581562 33
17.476261 -2.835635 0.581072 33
17.497665 -2.906305 0.580288 35
17.514833 -2.976747 0.579578 35
17.532499 -3.116352 0.578450 178
17.560831 -3.188486 0.577517 77
28.452229 -4.708309 0.373805 7
28.562187 -4.829921 0.371095 8
28.588362 -4.941666 0.369935 8
28.420792 -5.141656 0.371663 16
28.398289 -5.246718 0.371393 8
22.586466 -4.613755 0.478969 4
20.659456 -4.647806 0.513002 4
19.682455 -4.884554 0.528689 3
18.477106 -4.958064 0.549479 2
18.639839 -5.064123 0.545827 3
18.747173 -5.160408 0.543220 3
18.582928 -5.206135 0.545775 3
18.365274 -5.232245 0.549415 2
18.600910 -5.356025 0.544326 3
18.166449 -5.341831 0.552081 2
18.276278 -5.439453 0.549397 2
18.065493 -5.466937 0.552888 2
17.992107 -5.520278 0.553759 2
18.034750 -5.603415 0.552356 2
18.139381 -5.701391 0.549744 2
18.099558 -5.766148 0.549924 2
18.254827 -5.873782 0.546339 2
18.358219 -5.973767 0.543719 2
18.145800 -6.000361 0.547214 2
17.935209 -6.018507 0.550742 2
17.917633 -6.088063 0.550472 2
18.365356 -6.353644 0.540445 3
18.980507 -6.593083 0.527713 3
18.482079 -6.537299 0.536854 3
33.099838 -10.606453 0.248006 11
32.845970 -10.654859 0.251993 10
28.138027 -9.477824 0.343863 8
27.654400 -9.453878 0.352450 8
27.432627 -9.501967 0.355864 7
27.152428 -9.520503 0.360543 7
26.884773 -9.551971 0.364886 7
26.655569 -9.593140 0.368470 7
26.403469 -9.625854 0.372520 7
26.156824 -9.653172 0.376519 7
25.855328 -9.667221 0.381577 7
25.599863 -9.693661 0.385723 7
25.401724 -9.736607 0.388726 6
25.337593 -9.831943 0.388936 6
26.036051 -10.154412 0.373942 7
31.059366 -11.918854 0.271311 10
30.774515 -11.951935 0.275865 10
28.379175 -11.270951 0.323275 8
28.611923 -11.468655 0.317403 8
28.499649 -11.549346 0.318534 8
28.568422 -11.692657 0.315968 8
23.598351 -10.057779 0.416445 6
23.536509 -10.136322 0.416720 6
28.902605 -12.173748 0.305554 9
29.006239 -12.333643 0.302205 9
29.024828 -12.457150 0.300653 9
28.673662 -12.449477 0.306662 9
28.820702 -12.626952 0.302382 9
28.978088 -12.809860 0.297865 9
28.436554 -12.725557 0.307842 9
21.640944 -10.206901 0.448006 5
29.513739 -13.647703 0.280189 9
29.528772 -13.781637 0.278527 9
29.321144 -13.825026 0.281533 9
30.476259 -14.423141 0.255909 10
29.949379 -14.336409 0.265608 10
19.566402 -10.453905 0.479935 8
19.536993 -10.530744 0.479572 4
18.228899 -10.203171 0.504749 3
17.603003 -10.251293 0.514447 3
17.673141 -10.448462 0.511036 3
17.604099 -10.499668 0.511565 3
17.523079 -10.629234 0.511366 3
21.764742 -12.815038 0.417087 5
19.527542 -11.807883 0.465095 4
19.846947 -12.053951 0.457029 4
21.548721 -13.021976 0.418115 5
16.175949 -10.440067 0.535310 2
16.134207 -10.502915 0.535219 2
15.970105 -10.497132 0.537911 2
15.439054 -10.295016 0.548844 2
15.531559 -10.418932 0.545855 2
15.695647 -10.586577 0.541186 2
15.500425 -10.635551 0.543675 2
15.444072 -10.687997 0.543913 4
15.141397 -10.598616 0.549805 2
15.004994 -10.596534 0.551979 2
14.875885 -10.605467 0.553896 2
14.759026 -10.616621 0.555588 4
14.633580 -10.618176 0.557532 4
14.511767 -10.621016 0.559400 4
14.407465 -10.641012 0.560770 4
14.273936 -10.639213 0.562872 6
14.164670 -10.650928 0.564418 6
14.031523 -10.647586 0.566526 6
13.924229 -10.655149 0.568087 6
13.806866 -10.663462 0.569791 6
13.704967 -10.676685 0.571187 6
13.575976 -10.672462 0.573226 6
13.476029 -10.681704 0.574638 10
13.364351 -10.686684 0.576282 10
13.273092 -10.703851 0.577448 14
13.161691 -10.700134 0.579196 12
13.062211 -10.714516 0.580517 12
12.952795 -10.714373 0.582181 10
12.786599 -10.683785 0.585113 12
12.679292 -10.686953 0.586692 12
12.632125 -10.729289 0.586826 6
12.541621 -10.742518 0.588007 8
12.447888 -10.753000 0.589271 10
12.337715 -10.751717 0.590939 8
12.257539 -10.762867 0.591984 7
12.154155 -10.772161 0.593397 7
12.060888 -10.780459 0.594669 7
11.974291 -10.792811 0.595782 5
11.868164 -10.790857 0.597381 5
11.783497 -10.799765 0.598506 5
11.692253 -10.810675 0.599697 3
11.588308 -10.804614 0.601312 5
11.528169 -10.833201 0.601787 5
11.500285 -10.885082 0.601454 5
11.523736 -10.974821 0.599824 18
11.439240 -10.981510 0.600959 1
11.104656 -10.808134 0.608322 1
20.190645 -17.709576 0.376692 6
10.741262 -10.672519 0.615549 1
20.268337 -18.253817 0.367625 6
20.223938 -18.350073 0.366843 6
19.071619 -17.809298 0.391259 6
9.475106 -10.830021 0.631078 1
9.560431 -11.043505 0.626616 68
9.513318 -11.073276 0.626800 69
7.536780 -11.139246 0.651655 23
7.504128 -11.175394 0.651457 24
2.505224 -7.009011 0.782775 0
2.417288 -6.934983 0.785073 0
2.347954 -6.886874 0.786699 0
2.252618 -6.798193 0.789339 0
2.213547 -6.787170 0.789962 0
2.162865 -6.759758 0.791006 0
2.156822 -6.793727 0.790454 0
2.136641 -6.808202 0.790406 0
2.088642 -6.783466 0.791368 0
2.083602 -6.821304 0.790730 0
2.035563 -6.791499 0.791783 0
2.026792 -6.821977 0.791316 0
1.996425 -6.823523 0.791605 0
1.945555 -6.790526 0.792741 0
1.914158 -6.787718 0.793118 0
1.889531 -6.794713 0.793243 0
1.860458 -6.794956 0.793536 0
1.824798 -6.785069 0.794083 0
1.806849 -6.801726 0.793956 0
1.786641 -6.814979 0.793913 0
1.751157 -6.804674 0.794462 0
1.722284 -6.804281 0.794758 0
1.689154 -6.797016 0.795223 0
1.672116 -6.812596 0.795100 0
1.610412 -6.761693 0.796663 0
1.592463 -6.777654 0.796538 0
1.582866 -6.807160 0.796076 0
1.547989 -6.795779 0.796628 0
1.529886 -6.811543 0.796505 0
1.496169 -6.799265 0.797060 0
1.451277 -6.770287 0.798038 0
1.422998 -6.768555 0.798339 0
1.413079 -6.797685 0.797878 0
1.382778 -6.792312 0.798265 0
1.346527 -6.776427 0.798906 0
1.318420 -6.774216 0.799209 0
1.294364 -6.774201 0.799431 0
1.266322 -6.776374 0.799646 0
1.236400 -6.770315 0.800035 0
1.214416 -6.773472 0.800174 0
1.186558 -6.770666 0.800479 0
1.160685 -6.771240 0.800699 0
1.130017 -6.765227 0.801089 0
1.109044 -6.772057 0.801142 0
1.076607 -6.762264 0.801617 0
1.052790 -6.765905 0.801755 1
1.028124 -6.765384 0.801979 1
1.003340 -6.769355 0.802116 1
0.981412 -6.776252 0.802169 1
0.956823 -6.775436 0.802395 1
0.930263 -6.775544 0.802618 1
0.901143 -6.767887 0.803013 1
0.879489 -6.769821 0.803156 1
0.857620 -6.776256 0.803212 1
0.823144 -6.762064 0.803775 1
0.803336 -6.767311 0.803834 1
0.774552 -6.759059 0.804232 1
0.750042 -6.761977 0.804372 1
0.729269 -6.767452 0.804431 1
0.700674 -6.758852 0.804830 1
0.675553 -6.757371 0.805058 1
0.652153 -6.759416 0.805202 1
0.630436 -6.765002 0.805261 1
0.607708 -6.770963 0.805318 1
0.582064 -6.764988 0.805635 1
0.556110 -6.763453 0.805864 1
0.539667 -6.775114 0.805756 1
0.521163 -6.787608 0.805646 1
0.495239 -6.785800 0.805876 0
0.469800 -6.779341 0.806195 0
0.442421 -6.773630 0.806511 0
0.427978 -6.792757 0.806232 1
0.392435 -6.764280 0.807064 1
0.373892 -6.776294 0.806955 1
0.342199 -6.759038 0.807530 2
0.321654 -6.763066 0.807594 2
0.297134 -6.759997 0.807829 2
0.277082 -6.767981 0.807807 4
0.252623 -6.764725 0.808042 3
0.228214 -6.761369 0.808278 3
0.206292 -6.761261 0.808430 3
0.185232 -6.769309 0.808408 3
0.159517 -6.761929 0.808731 3
0.138065 -6.765684 0.808797 4
0.113849 -6.761854 0.809034 4
0.092423 -6.765440 0.809101 4
0.070646 -6.764823 0.809254 4
0.048232 -6.768607 0.809321 4
0.028151 -6.775722 0.809303 5
0.005102 -6.771088 0.809543 4
-0.016290 -6.774271 0.809611 4
-0.037680 -6.777376 0.809680 4
-0.062898 -6.769032 0.810005 5
-0.082980 -6.775758 0.809989 5
-0.109337 -6.763422 0.810401 5
-0.127157 -6.773463 0.810301 5
-0.150927 -6.768545 0.810542 5
-0.172425 -6.767023 0.810699 5
-0.194701 -6.769868 0.810769 6
-0.218338 -6.764676 0.811012 6
-0.238403 -6.770860 0.810998 6
-0.258644 -6.772843 0.811070 7
-0.280887 -6.775355 0.811141 7
-0.304382 -6.769814 0.811385 13
-0.328936 -6.760339 0.811715 13
-0.348985 -6.766137 0.811703 13
-0.371237 -6.764171 0.811862 13
-0.391299 -6.769821 0.811850 13
-0.410438 -6.770992 0.811925 13
-0.436736 -6.761619 0.812255 14
-0.455821 -6.762640 0.812331 13
-0.476881 -6.768261 0.812320 15
-0.498971 -6.769936 0.812394 13
-0.521046 -6.767395 0.812556 13
-0.543085 -6.764770 0.812717 14
-0.561142 -6.769319 0.812709 13
-0.584139 -6.766788 0.812870 14
-0.605152 -6.767809 0.812947 14
-0.624296 -6.776533 0.812852 15
-0.646145 -6.769386 0.813102 17
-0.667228 -6.774310 0.813093 16
-0.687324 -6.778927 0.813085 17
-0.709186 -6.775670 0.813249 14
-0.727276 -6.779696 0.813243 15
-0.749245 -6.780415 0.813321 14
-0.772037 -6.777139 0.813486 18
-0.790131 -6.780968 0.813480 12
-0.810448 -6.789280 0.813387 13
-0.831389 -6.789478 0.813467 13
-0.853097 -6.785678 0.813633 13
-0.872992 -6.785525 0.813714 13
-0.894886 -6.785690 0.813795 13
-0.915020 -6.789513 0.813790 13
-0.933717 -6.801130 0.813614 12
-0.955745 -6.788894 0.813954 13
-0.975890 -6.792504 0.813950 13
-0.996732 -6.792104 0.814032 12
-1.017226 -6.799685 0.813942 13
-1.036399 -6.802913 0.813940 13
-1.057236 -6.802294 0.814023 13
-1.076168 -6.813448 0.813848 13
-1.097630 -6.808735 0.814018 13
-1.117844 -6.811850 0.814016 13
-1.136468 -6.818699 0.813928 13
-1.158441 -6.809806 0.814185 13
-1.177536 -6.820628 0.814012 13
-1.198885 -6.815540 0.814183 13
-1.218588 -6.822265 0.814097 13
-1.238848 -6.824957 0.814097 13
-1.259118 -6.827579 0.814097 13
-1.279888 -6.826162 0.814183 13
-1.299205 -6.836581 0.814012 13
-1.319050 -6.842964 0.813927 13
-1.338365 -6.845190 0.813928 13
-1.358563 -6.839402 0.814101 13
-1.379051 -6.849668 0.813931 13
-1.399406 -6.851800 0.813933 12
-1.417957 -6.861718 0.813764 11
-1.437971 -6.867695 0.813680 11
-1.459125 -6.861658 0.813855 10
-1.480541 -6.863601 0.813859 8
-1.500604 -6.869364 0.813776 8
-1.519678 -6.874973 0.813694 7
-1.539808 -6.880601 0.813612 6
-1.560868 -6.874197 0.813788 5
-1.581191 -6.891723 0.813449 5
-1.601421 -6.897139 0.813368 6
-1.621683 -6.902485 0.813288 5
-1.639922 -6.907637 0.813207 2
-1.660478 -6.908858 0.813213 1
-1.679524 -6.937960 0.812617 24
-1.698769 -6.967000 0.812022 64
-1.721038 -6.936059 0.812716 24
-1.762666 -6.981901 0.811786 16
-1.782464 -7.010668 0.811192 103
-1.801552 -7.003328 0.811372 115
-1.822895 -7.024003 0.810951 57
-1.841971 -7.056539 0.810272 56
-1.863558 -7.081066 0.809766 56
-1.881982 -7.113451 0.809087 56
-1.904821 -7.081854 0.809784 10
-1.967076 -7.318462 0.804748 0
-1.987475 -7.574477 0.799263 0
-2.099091 -63.733471 -0.406461 48
-2.318383 -63.804726 -0.407889 48
-2.542660 -64.399078 -0.420559 49
-2.777115 -65.492462 -0.443953 49
-2.988317 -64.597679 -0.424683 49
-3.195011 -64.374138 -0.419838 48
-3.423082 -64.185425 -0.415750 48
-3.622945 -63.808575 -0.407640 48
-3.845175 -63.906460 -0.409732 48
-4.099947 -64.634705 -0.425367 49
-2.562028 -11.462483 0.715822 15
-2.597564 -11.444489 0.716192 27
-2.635165 -11.462298 0.715791 18
-7.167851 -59.374191 -0.314194 43
-7.397564 -59.638538 -0.320091 44
-7.534230 -58.802284 -0.302351 42
-7.702159 -58.544842 -0.297042 42
-7.949085 -58.974125 -0.306524 43
-8.128139 -58.734287 -0.301628 42
-13.240625 -63.173382 -0.406198 48
-13.496703 -63.346138 -0.410527 49
-13.730471 -63.392094 -0.412125 49
-13.941360 -63.315422 -0.411078 49
-14.091979 -62.988953 -0.404593 48
-4.579361 -11.488484 0.711119 15
-4.616860 -11.483297 0.711089 16
-4.658290 -11.493481 0.710721 14
-22.016964 -62.509510 -0.425186 50
-22.247765 -62.488644 -0.425889 50
-22.316814 -61.981289 -0.415788 49
-22.479673 -61.762211 -0.412101 49
-22.689014 -61.682789 -0.411533 49
-22.841974 -61.440079 -0.407337 49
-23.457174 -62.526173 -0.432806 50
-23.558601 -62.198212 -0.426620 50
-23.997576 -62.721489 -0.439660 50
-5.952414 -11.872098 0.696894 25
-6.559165 -11.544408 0.699924 41
-6.585804 -11.515375 0.700333 9
-6.630485 -11.517599 0.699999 17
-6.668730 -11.505026 0.699999 25
-6.718803 -11.508904 0.699591 9
-13.278963 -22.230404 0.441411 4
-13.341509 -22.160730 0.442282 9
-13.430464 -22.149153 0.441817 36
-13.379672 -21.880926 0.447405 26
-13.498684 -21.925175 0.445614 30
-13.649177 -22.024803 0.442500 9
-13.710722 -21.963070 0.443199 9
-13.747024 -21.873913 0.444623 4
-13.847401 -21.881466 0.443668 4
-14.066897 -22.087761 0.437929 4
-13.447002 -20.852682 0.466647 7
-13.475944 -20.743473 0.468496 3
-13.570425 -20.739222 0.467795 3
-13.802023 -20.815979 0.464397 8
-13.902617 -20.835012 0.463186 44
-14.193340 -21.159391 0.454567 4
-14.361481 -21.277153 0.450901 74
-14.430976 -21.074793 0.454123 17
-13.808064 -19.922180 0.481252 18
-8.636609 -11.557633 0.683785 6
-8.666925 -11.524274 0.684144 23
-8.701726 -11.502109 0.684251 18
-14.416085 -20.137051 0.471842 11
-14.440008 -20.035536 0.473518 34
-14.411671 -19.848421 0.477257 52
-14.442978 -19.746180 0.478870 18
-15.093417 -20.576616 0.457517 12
-14.914492 -20.171675 0.466658 28
-15.597073 -21.032846 0.444431 13
-14.968827 -19.965549 0.469957 12
-15.713763 -20.904516 0.445705 9
-14.843463 -19.224802 0.484733 29
-14.931562 -19.221235 0.483956 7
-15.027610 -19.221514 0.483028 10
-15.900347 -20.298307 0.455008 56
-16.088739 -20.423620 0.450903 4
-16.378065 -20.534067 0.446074 13
-16.107767 -19.883047 0.460483 12
-16.367525 -20.098118 0.454031 70
-16.297144 -19.860558 0.458997 4
-16.411402 -19.874084 0.457607 4
-16.630915 -19.886787 0.455157 4
-16.604801 -19.724691 0.458308 4
-10.669208 -11.505554 0.664953 12
-10.703201 -11.472157 0.665175 19
-10.747345 -11.450907 0.665074 4
-18.708138 -20.803198 0.417312 5
-18.834101 -20.811775 0.415808 5
-18.942118 -20.798452 0.414871 5
-18.992956 -20.442379 0.420446 5
-19.065945 -20.388947 0.420559 5
-19.473207 -20.712154 0.410539 5
-19.315346 -20.397566 0.417653 5
-19.527342 -20.497536 0.413593 5
-19.766365 -20.631960 0.408641 5
-19.530155 -20.235970 0.417995 5
-19.470581 -20.030251 0.422141 5
-19.566719 -20.001438 0.421539 5
-19.545626 -19.846384 0.424384 5
-8.398614 -7.837813 0.752765 0
-8.378426 -7.768933 0.754148 2
-8.315319 -7.657926 0.756725 2
-8.281975 -7.579183 0.758420 2
-8.253218 -7.501431 0.760043 2
-8.228432 -7.430802 0.761501 3
-8.220009 -7.377577 0.762478 4
-8.205678 -7.318792 0.763614 5
-8.196647 -7.265863 0.764589 5
-8.191892 -7.219813 0.765400 7
-8.191885 -7.174523 0.766140 7
-8.201948 -7.141635 0.766557 8
-8.206144 -7.103153 0.767133 10
-8.210149 -7.064716 0.767708 11
-8.218661 -7.032970 0.768119 11
-8.220465 -6.990752 0.768778 11
-8.231549 -6.961812 0.769109 11
-8.231926 -6.920777 0.769763 10
-8.240834 -6.888030 0.770178 11
-8.250607 -6.854202 0.770599 10
-8.259204 -6.821474 0.771014 10
-8.271518 -6.796363 0.771260 10
-8.277892 -6.759846 0.771760 10
-8.294930 -6.735209 0.771937 9
-8.303955 -6.701390 0.772357 8
-8.309857 -6.670886 0.772762 12
-8.319554 -6.635990 0.773186 22
-8.351115 -6.624482 0.772969 22
-8.371700 -6.607139 0.772980 20
-8.393108 -6.582633 0.773090 17
-8.415515 -6.562897 0.773111 15
-8.428756 -6.535262 0.773368 13
-8.444926 -6.510195 0.773547 13
-8.462145 -6.489921 0.773638 14
-8.488276 -6.471345 0.773586 15
-8.511286 -6.450089 0.773614 21
-8.536364 -6.432429 0.773558 25
-8.556425 -6.414410 0.773571 28
-8.588545 -6.400462 0.773365 31
-8.619714 -6.387506 0.773154 35
-8.657104 -6.379415 0.772787 40
-8.703888 -6.378618 0.772187 43
-8.738217 -6.367615 0.771900 46
-8.778833 -6.361389 0.771457 50
-8.819489 -6.354943 0.771016 51
-8.863339 -6.350732 0.770497 55
-8.897742 -6.338953 0.770213 53
-8.936249 -6.328219 0.769858 53
-8.992951 -6.333008 0.769030 52
-9.033807 -6.325425 0.768594 53
-9.089773 -6.330843 0.767763 51
-9.137153 -6.327541 0.767173 54
-9.178161 -6.319223 0.766739 53
-9.219197 -6.310683 0.766307 50
-9.276431 -6.313685 0.765487 50
-9.323123 -6.310605 0.764895 46
-9.371720 -6.304700 0.764316 47
-9.419451 -6.299805 0.763732 47
-9.463970 -6.292334 0.763227 54
-9.520704 -6.295112 0.762408 54
-9.566251 -6.285789 0.761911 51
-9.623155 -6.287953 0.761094 52
-9.667883 -6.279408 0.760593 51
-9.713561 -6.269269 0.760100 51
-9.771609 -6.269174 0.759293 49
-9.826428 -6.266510 0.758564 48
-9.887982 -6.267958 0.757683 49
-9.934463 -6.262995 0.757099 50
-9.986161 -6.257198 0.756451 47
-10.037915 -6.251105 0.755805 48
-10.100716 -6.249809 0.754935 47
-10.159333 -6.247389 0.754138 47
-10.211283 -6.240333 0.753495 48
-10.274340 -6.237935 0.752630 51
-10.333189 -6.234478 0.751837 47
-10.400485 -6.239935 0.750804 49
-10.453609 -6.230094 0.750173 48
-10.509277 -6.223505 0.749461 52
-10.575260 -6.222814 0.748520 49
-10.641341 -6.221725 0.747582 47
-10.700651 -6.216137 0.746798 47
-10.770350 -6.216313 0.745787 45
-10.836706 -6.214040 0.744853 44
-10.906608 -6.213380 0.743845 47
-10.959303 -6.202284 0.743219 47
-11.031938 -6.204401 0.742132 47
-11.105589 -6.204504 0.741053 46
-11.165421 -6.196288 0.740280 43
-11.240166 -6.193923 0.739211 45
-11.328098 -6.200473 0.737835 43
-11.395170 -6.194893 0.736915 45
-11.458806 -6.186992 0.736072 42
-11.536567 -6.186328 0.734929 45
-11.606490 -6.183076 0.733932 42
-11.673867 -6.175846 0.733019 40
-11.773133 -6.185027 0.731428 33
-11.854868 -6.184295 0.730217 32
-11.943814 -6.186744 0.728858 30
-12.048021 -6.194206 0.727207 29
-12.139921 -6.199059 0.725769 27
-12.250707 -6.210608 0.723966 27
-12.354548 -6.217856 0.722316 22
-12.401275 -6.195935 0.721870 5
-22.295877 -10.943564 0.516433 7
-22.366390 -10.890100 0.515987 7
-22.335835 -10.787782 0.517638 7
-22.254259 -10.661732 0.520335 3
-23.069071 -10.959547 0.504487 4
-23.273922 -10.965549 0.501289 4
-23.835621 -10.950849 0.492846 9
-23.706079 -10.800635 0.496523 4
-23.373232 -10.565515 0.504274 4
-23.403955 -10.307186 0.506653 8
-23.366436 -10.202415 0.508380 4
-24.347767 -10.531871 0.489561 4
-24.428749 -10.474000 0.488928 4
-24.157366 -10.273197 0.495316 4
-26.434143 -10.919839 0.452864 5
-26.854589 -10.989329 0.445545 5
-26.906103 -10.914238 0.445525 5
-26.884666 -10.805287 0.446998 5
-47.098366 -18.030689 0.053975 27
-47.209938 -17.892744 0.053610 27
-28.794973 -10.913695 0.415729 6
-29.201923 -10.848710 0.409920 7
-29.239840 -10.755045 0.410247 7
-48.975708 -17.623610 0.028250 30
-45.775257 -16.320724 0.092050 24
-46.493683 -16.397757 0.079831 25
-46.460056 -16.212610 0.082162 25
-30.807547 -10.751766 0.385251 7
-30.773067 -10.628350 0.386985 7
-43.916500 -14.854966 0.135915 20
-43.759232 -14.641595 0.140459 19
-48.248695 -15.927615 0.056179 28
-44.477379 -14.564820 0.129625 21
-48.659363 -15.719101 0.051506 28
-32.728638 -10.570900 0.356057 8
-23.508400 -7.626984 0.531987 3
-23.403910 -7.517289 0.534677 3
-23.200439 -7.374786 0.539261 3
-23.093199 -7.258476 0.542045 3
-23.126369 -7.188173 0.542136 3
-23.224636 -7.136541 0.540998 3
-23.187109 -7.049705 0.542374 3
-23.069418 -6.936787 0.545279 3
-23.024427 -6.845053 0.546810 3
-23.142094 -6.794299 0.545331 3
-23.164991 -6.725200 0.545550 3
-23.142267 -6.639985 0.546648 3
-23.089014 -6.464561 0.549000 3
-23.122461 -6.398546 0.549003 3
-23.249727 -6.352037 0.547302 10
-23.272099 -6.278790 0.547538 6
-23.279577 -6.197954 0.548076 3
-23.281971 -6.119915 0.548669 3
-23.323004 -6.051108 0.548548 3
-23.463360 -6.013095 0.546540 3
-23.543039 -5.952426 0.545709 3
-23.802029 -5.931694 0.541599 3
-24.250275 -5.942984 0.534110 3
-24.314224 -5.875492 0.533576 3
-24.507032 -5.835224 0.530697 4
-24.858612 -5.835393 0.524877 4
-25.129848 -5.808272 0.520590 4
-25.456039 -5.790475 0.515318 4
-25.762775 -5.766541 0.510408 4
-26.108871 -5.748220 0.504799 4
-26.496044 -5.726550 0.498527 5
-26.948576 -5.723256 0.491028 5
-27.110359 -5.663048 0.488771 5
-46.689529 -9.138236 0.137976 22
-50.814072 -9.702800 0.065267 29
-61.282940 -11.340938 -0.120755 46
-47.667015 -8.822721 0.123908 24
-48.277782 -8.760921 0.114144 25
-48.826859 -8.676442 0.105555 26
-49.444363 -8.615958 0.095650 27
-50.308270 -8.581419 0.081441 28
-50.919487 -8.502240 0.071747 29
-51.049442 -8.338239 0.070659 29
-52.483620 -8.372170 0.046421 32
-61.963085 -9.549747 -0.120050 46
-62.299000 -9.372169 -0.124536 46
-54.621597 -8.130987 0.012137 35
-57.572437 -8.332314 -0.038646 39
-57.399288 -8.112894 -0.034365 39
-56.865318 -7.840237 -0.023707 38
-62.482025 -8.334863 -0.121114 46
-60.268127 -7.850517 -0.080956 43
-60.216125 -7.638501 -0.078806 43
-60.180992 -7.449430 -0.077088 43
-60.274677 -7.253963 -0.077511 43
-59.867496 -6.995967 -0.069149 43
-62.493637 -7.064495 -0.113774 46
-62.259602 -6.828740 -0.108483 46
-62.363152 -6.626130 -0.109081 46
-63.629215 -6.526803 -0.129870 47
-64.060364 -6.325214 -0.136026 48
-65.264542 -6.228004 -0.155808 49
-65.765656 -6.034033 -0.163214 49
-30.271400 -3.044558 0.451931 6
-30.344725 -2.851009 0.451699 6
-30.394558 -2.759697 0.451324 6
-30.378340 -2.554958 0.452626 40
-30.343338 -2.458817 0.453692 47
-30.344198 -2.359685 0.454160 47
-30.336723 -2.260214 0.454765 60
-30.337090 -2.156188 0.455252 47
-30.356693 -2.062802 0.455358 20
-30.364164 -1.963947 0.455689 6
-30.495367 -1.863771 0.453926 6
-30.536562 -1.665634 0.454115 6
-31.221504 -1.385235 0.443731 7
-32.838310 -1.297786 0.416725 8
-34.138893 -1.197312 0.395121 8
25.098791 2.371070 0.621480 3
24.959581 2.258111 0.622869 3
24.849306 1.959735 0.623405 3
24.927145 1.873260 0.622226 3
24.960945 1.781729 0.621561 3
24.930759 1.683606 0.621649 3
24.999744 1.595368 0.620560 3
24.976845 1.498132 0.620554 3
24.981483 1.403592 0.620219 3
25.088987 1.322721 0.618674 3
25.288324 1.244022 0.616018 3
25.252199 1.145270 0.616153 3
25.319410 1.054672 0.615056 3
25.338448 0.960164 0.614526 3
50.048832 2.567382 0.319758 16
49.358582 2.339724 0.327401 15
38.214256 0.210619 0.455489 8
38.354050 0.080966 0.453312 8
38.557735 -0.062225 0.450303 8
38.576820 -0.203481 0.449539 8
38.507198 -0.332183 0.449897 8
38.389458 -0.482251 0.450754 8
38.283024 -0.617269 0.451525 8
26.537790 -0.943895 0.593124 4
25.637945 -1.042769 0.603675 3
25.225765 -1.127962 0.608345 3
25.121157 -1.231688 0.609194 3
25.039093 -1.415121 0.609432 39
25.017633 -1.504425 0.609318 43
24.995781 -1.598303 0.609185 10
18.905886 -1.617539 0.683168 2
17.582130 -1.716553 0.698830 15
17.487654 -1.781312 0.699691 24
17.457190 -1.841349 0.699791 28
17.478020 -1.913758 0.699210 61
17.450975 -1.977165 0.699250 33
17.443338 -2.048238 0.699015 28
17.435825 -2.112484 0.698807 28
17.435883 -2.180560 0.698487 28
17.427719 -2.248144 0.698267 24
17.447481 -2.314155 0.697712 24
17.450583 -2.385986 0.697329 24
17.441954 -2.450185 0.697123 22
17.452530 -2.522666 0.696640 22
17.455135 -2.591202 0.696270 22
17.469744 -2.657385 0.695764 22
17.479843 -2.726734 0.695294 22
17.473764 -2.794720 0.695024 22
17.483376 -2.864193 0.694554 22
17.492737 -2.933755 0.694084 22
17.505831 -3.003809 0.693563 24
17.518673 -3.073977 0.693042 20
17.531631 -3.140851 0.692534 22
17.556288 -3.209168 0.691874 31
17.563625 -3.286083 0.691375 5
28.488083 -4.864628 0.550846 4
28.451851 -5.081637 0.550087 48
28.409744 -5.184111 0.550024 50
28.376326 -5.504079 0.548617 4
22.507479 -4.725191 0.623733 3
21.209599 -4.690733 0.639544 2
19.856083 -4.947502 0.654263 2
19.606190 -4.980501 0.657055 2
18.716129 -5.038267 0.667347 2
18.647039 -5.099701 0.667789 2
18.644432 -5.174114 0.667352 2
18.607090 -5.316504 0.666893 4
18.417191 -5.496778 0.667991 2
18.417847 -5.567937 0.667519 2
18.666288 -5.702846 0.663681 2
18.677095 -5.781239 0.663035 2
18.481199 -5.811475 0.665158 2
18.577192 -5.909755 0.663363 2
18.521978 -5.968588 0.663621 2
18.543427 -6.049705 0.662819 2
18.525740 -6.121384 0.662540 2
18.546585 -6.202784 0.661737 2
18.594236 -6.291333 0.660565 2
18.618290 -6.374247 0.659707 2
18.417688 -6.398301 0.661904 2
18.673140 -6.542833 0.657884 2
18.805275 -6.652117 0.655560 2
18.774910 -6.717905 0.655452 13
18.747183 -6.788245 0.655277 4
30.048958 -10.051064 0.499315 5
30.113380 -10.190337 0.497558 5
29.929714 -10.264596 0.499172 5
27.579119 -9.696051 0.530810 4
27.619196 -9.814583 0.529475 4
32.623211 -11.438624 0.459103 6
31.052105 -11.079204 0.480087 6
29.770723 -10.810528 0.497017 5
29.786337 -10.949142 0.495800 5
29.880842 -11.088701 0.493654 5
28.352503 -10.734345 0.514084 5
28.360947 -11.082869 0.511330 5
28.208075 -11.149368 0.512586 5
30.765226 -12.127840 0.475469 6
30.694153 -12.224762 0.475536 6
28.251472 -11.517593 0.509223 5
23.594624 -9.991806 0.574828 3
23.404812 -10.024971 0.576750 3
23.230145 -10.062318 0.578461 3
22.929857 -10.057944 0.581942 3
22.666897 -10.055274 0.584977 3
22.451414 -10.073274 0.587299 3
22.275726 -10.109537 0.589015 3
22.000696 -10.102209 0.592215 3
21.819410 -10.128787 0.594066 3
21.598787 -10.134235 0.596535 3
21.414059 -10.156940 0.598449 3
21.214579 -10.172600 0.600586 6
21.026423 -10.191420 0.602565 6
20.817760 -10.196097 0.604891 6
20.633657 -10.213976 0.606825 6
20.451801 -10.236118 0.608693 3
20.265923 -10.246215 0.610706 2
20.085993 -10.262123 0.612599 2
19.913593 -10.280002 0.614387 5
19.748697 -10.299930 0.616069 5
19.558220 -10.307743 0.618140 2
19.466980 -10.357413 0.618734 5
19.544115 -10.480534 0.616802 11
101.912476 -48.391933 -0.634135 44
18.842930 -11.130655 0.618797 2
17.621994 -10.623151 0.636840 9
17.545530 -10.678932 0.637168 4
21.944765 -13.051176 0.567182 3
19.471254 -12.091465 0.603063 2
16.235344 -10.503621 0.653086 6
16.113575 -10.520772 0.654245 4
18.749563 -11.995905 0.611787 5
18.651129 -12.036265 0.612468 2
20.479202 -13.213799 0.581546 3
20.807117 -13.489740 0.575377 3
15.563127 -10.782484 0.657673 14
20.944168 -13.984040 0.569130 3
20.467833 -13.818572 0.575818 3
19.578344 -13.512217 0.588270 34
20.581278 -14.198298 0.570881 6
20.883944 -14.801389 0.561690 3
16.577049 -12.385133 0.631105 2
20.857513 -15.113740 0.558820 3
21.011999 -15.320103 0.555117 3
13.585567 -10.856664 0.677782 1
13.581590 -10.922741 0.677146 17
13.518245 -10.962523 0.677392 3
19.504778 -14.904209 0.574991 52
12.697460 -10.655219 0.689021 1
18.746725 -14.928488 0.582508 3
18.837246 -15.094849 0.579837 3
99.973763 -70.941475 -0.833580 44
18.593269 -15.246354 0.580707 3
18.969503 -15.609228 0.573046 3
20.637821 -17.130306 0.539990 11
19.209764 -16.451155 0.561578 3
11.539974 -11.016310 0.696838 16
11.509957 -11.063541 0.696618 6
20.252558 -17.811520 0.536387 3
20.464050 -18.082134 0.531325 3
87.260948 -69.829201 -0.695104 44
86.937477 -70.051254 -0.694429 44
86.617683 -70.325020 -0.694382 44
85.793953 -70.176071 -0.684739 44
85.398033 -70.335106 -0.682702 44
85.627113 -70.991417 -0.692302 44
85.457298 -71.382317 -0.695086 44
85.176949 -71.659470 -0.695539 44
9.575103 -11.077797 0.715035 11
9.517092 -11.101714 0.715296 17
9.492596 -11.147784 0.714984 3
54.123970 -51.550617 -0.171466 41
54.036121 -51.826813 -0.173925 41
73.434853 -69.896576 -0.565251 44
64.235428 -69.079315 -0.473569 58
64.264259 -69.586197 -0.480089 59
63.119678 -68.850571 -0.461124 57
62.666424 -68.874535 -0.457537 57
7.549912 -11.178297 0.731897 12
7.498970 -11.198611 0.732075 18
7.479691 -11.249308 0.731602 3
62.427837 -71.498817 -0.488389 59
61.967896 -71.463364 -0.484094 59
56.967632 -67.807388 -0.396254 53
56.736763 -68.015831 -0.397017 53
56.161129 -67.828293 -0.389909 52
55.985096 -68.097473 -0.391922 52
55.990246 -68.578674 -0.398140 53
55.128799 -68.047104 -0.384333 52
54.944965 -68.281975 -0.385878 52
54.886333 -68.666344 -0.390371 52
55.168522 -69.509979 -0.403544 53
55.317013 -70.177185 -0.413378 53
55.308498 -70.635521 -0.419264 54
54.893009 -70.624565 -0.415837 54
54.388039 -70.525131 -0.410563 53
49.094646 -67.676186 -0.332142 48
48.897976 -67.901871 -0.333644 48
48.719975 -68.177338 -0.335960 48
5.603255 -11.160736 0.747748 1
48.252251 -68.533005 -0.337190 48
5.509673 -11.250079 0.747252 22
5.469770 -11.274302 0.747222 13
2.231045 -6.957947 0.829061 0
2.191814 -6.946557 0.829499 0
2.110072 -6.872056 0.831098 0
2.095454 -6.896924 0.830867 0
2.054437 -6.881580 0.831369 0
2.015840 -6.869319 0.831811 0
1.987409 -6.869386 0.832012 0
1.962482 -6.876644 0.832089 0
1.924176 -6.863876 0.832532 0
1.897098 -6.867554 0.832672 0
1.874455 -6.877786 0.832689 0
1.830858 -6.853827 0.833320 0
1.807266 -6.864478 0.833336 0
1.780326 -6.867656 0.833477 0
1.747952 -6.859964 0.833805 0
1.701761 -6.832530 0.834498 0
1.677174 -6.838654 0.834579 0
1.641966 -6.827735 0.834967 0
1.619473 -6.832358 0.835054 0
1.586547 -6.824543 0.835382 0
1.562081 -6.830207 0.835465 0
1.541777 -6.842606 0.835426 0
1.521429 -6.854934 0.835387 0
1.492820 -6.853464 0.835594 0
1.452009 -6.831235 0.836170 0
1.441855 -6.860478 0.835825 0
1.417408 -6.865551 0.835911 0
1.354845 -6.804789 0.837165 0
1.324659 -6.799130 0.837437 0
1.302482 -6.807227 0.837462 0
1.280289 -6.815239 0.837488 0
1.261997 -6.830142 0.837392 0
1.225193 -6.809481 0.837913 0
1.201095 -6.813703 0.838002 0
1.171240 -6.807304 0.838276 0
1.143379 -6.804282 0.838489 0
1.115578 -6.801136 0.838702 0
1.098136 -6.819572 0.838544 0
1.069522 -6.812144 0.838822 0
1.039981 -6.805121 0.839098 0
1.019768 -6.815698 0.839067 0
1.001353 -6.829757 0.838973 0
0.973760 -6.825959 0.839189 0
0.946231 -6.822040 0.839406 0
0.921349 -6.825654 0.839497 0
0.887016 -6.802598 0.840027 0
0.859716 -6.798302 0.840245 0
0.833234 -6.797972 0.840400 0
0.805312 -6.789351 0.840682 0
0.783419 -6.795506 0.840715 0
0.756345 -6.790751 0.840934 1
0.741317 -6.811182 0.840721 1
0.705797 -6.788127 0.841251 1
0.678901 -6.783030 0.841472 1
0.657094 -6.788713 0.841507 1
0.631958 -6.787038 0.841666 1
0.610162 -6.792546 0.841702 1
0.591630 -6.805272 0.841614 6
0.574053 -6.817490 0.841528 21
0.539909 -6.797595 0.841998 9
0.513338 -6.791758 0.842222 3
0.485254 -6.782134 0.842508 2
0.450984 -6.757672 0.843043 1
0.426265 -6.755142 0.843206 0
0.397956 -6.741024 0.843557 0
0.379503 -6.753054 0.843472 0
0.345793 -6.728032 0.844009 0
0.320828 -6.781368 0.843342 1
0.296257 -6.778289 0.843507 1
0.274673 -6.782549 0.843548 1
0.253644 -6.782218 0.843653 1
0.227173 -6.779637 0.843817 1
0.205624 -6.783641 0.843859 1
0.184670 -6.783062 0.843965 1
0.160325 -6.779419 0.844132 1
0.140206 -6.786925 0.844113 1
0.112165 -6.775957 0.844404 1
0.093065 -6.782930 0.844386 2
0.069224 -6.783034 0.844492 2
0.049094 -6.790222 0.844473 2
0.028621 -6.793212 0.844518 2
0.002198 -6.785496 0.844750 3
-0.023137 -6.777319 0.844982 3
-0.042240 -6.783844 0.844966 3
-0.063380 -6.790980 0.844948 3
-0.089834 -6.778725 0.845244 3
-0.110430 -6.777097 0.845354 3
-0.133007 -6.776049 0.845464 3
-0.156343 -6.779366 0.845509 3
-0.174446 -6.785131 0.845495 4
-0.200553 -6.772382 0.845793 4
-0.221650 -6.778939 0.845778 4
-0.244260 -6.773328 0.845952 4
-0.266663 -6.771763 0.846063 4
-0.286752 -6.777779 0.846049 5
-0.309117 -6.776050 0.846161 7
-0.328107 -6.785758 0.846086 5
-0.353651 -6.776466 0.846323 7
-0.372750 -6.781894 0.846311 7
-0.396026 -6.780114 0.846423 8
-0.415192 -6.781268 0.846475 8
-0.437408 -6.779046 0.846589 8
-0.459561 -6.780870 0.846640 4
-0.477654 -6.789814 0.846567 2
-0.501831 -6.783742 0.846743 2
-0.520954 -6.788679 0.846734 1
-0.541100 -6.793807 0.846724 1
-0.562231 -6.794983 0.846776 1
-0.584360 -6.796330 0.846829 1
-0.606341 -6.789330 0.847009 1
-0.620936 -6.817505 0.846624 2
-0.647567 -6.795024 0.847054 5
-0.662345 -6.823094 0.846669 8
-0.693227 -6.780923 0.847414 10
-0.711468 -6.789128 0.847344 10
-0.733480 -6.789906 0.847399 10
-0.756161 -6.782564 0.847580 9
-0.777115 -6.782958 0.847636 10
-0.796424 -6.791107 0.847567 10
-0.817380 -6.791355 0.847623 13
-0.838106 -6.787404 0.847743 7
-0.860029 -6.787700 0.847800 8
-0.880932 -6.787718 0.847857 9
-0.900065 -6.791398 0.847853 10
-0.920219 -6.795202 0.847848 9
-0.940386 -6.798936 0.847843 8
-0.961981 -6.794727 0.847965 8
-0.982146 -6.798315 0.847961 9
-1.001643 -6.805774 0.847895 9
-1.022170 -6.801167 0.848017 8
-1.042357 -6.804544 0.848014 8
-1.062186 -6.803741 0.848074 8
-1.084018 -6.803189 0.848134 8
-1.104211 -6.806351 0.848132 8
-1.125014 -6.805489 0.848193 8
-1.143620 -6.812315 0.848129 8
-1.165998 -6.807498 0.848253 8
-1.185650 -6.814334 0.848189 7
-1.205882 -6.817142 0.848189 8
-1.225595 -6.823843 0.848126 8
-1.245860 -6.826511 0.848125 8
-1.266635 -6.825140 0.848188 8
-1.285366 -6.823446 0.848252 7
-1.307183 -6.830119 0.848190 7
-1.324518 -6.840212 0.848065 7
-1.345409 -6.846624 0.848004 7
-1.368066 -6.837056 0.848194 6
-1.387959 -6.843204 0.848133 5
-1.407078 -6.857242 0.847947 5
-1.425812 -6.855096 0.848012 4
-1.446449 -6.865125 0.847889 4
-1.467583 -6.859056 0.848018 4
-1.487620 -6.864862 0.847958 3
-1.506670 -6.870515 0.847899 3
-1.528118 -6.872284 0.847903 2
-1.548243 -6.877883 0.847845 2
-1.567814 -6.891391 0.847661 2
-1.587106 -6.880751 0.847854 1
-1.607525 -6.898188 0.847608 1
-1.628821 -6.903578 0.847551 1
-1.647308 -6.904716 0.847556 0
-1.667757 -6.925935 0.847249 0
-1.686268 -6.966999 0.846628 0
-1.707030 -6.968058 0.846635 0
-1.723638 -7.036916 0.845575 0
-1.767788 -7.010765 0.846029 3
-1.788420 -7.019533 0.845912 1
-1.808190 -7.024199 0.845857 0
-1.828809 -7.036826 0.845677 0
-1.848716 -7.081368 0.844997 0
-1.869147 -7.165853 0.843690 0
-1.888523 -7.222237 0.842822 0
-1.911564 -7.126610 0.844336 0
-1.931476 -7.254858 0.842341 0
-1.952371 -7.371043 0.840535 0
-1.973949 -7.519151 0.838229 0
-1.992867 -11.326735 0.778625 8
-2.028734 -11.286702 0.779270 11
-2.064599 -11.290539 0.779227 13
-2.100529 -11.298249 0.779122 13
-2.136249 -11.285839 0.779330 14
-2.172152 -11.289300 0.779288 14
-2.207999 -11.288636 0.779310 14
-2.243939 -11.291846 0.779269 14
-2.279904 -11.294931 0.779229 14
-2.315893 -11.297890 0.779189 16
-2.349704 -11.288791 0.779337 16
-2.384205 -11.299565 0.779172 16
-2.421552 -11.290096 0.779322 16
-2.457757 -11.296554 0.779222 16
-2.491452 -11.286989 0.779371 13
-2.527700 -11.293200 0.779272 12
-2.563340 -11.287302 0.779361 10
-2.600970 -11.285169 0.779390 11
-2.636552 -11.279017 0.779479 13
-2.671093 -11.284832 0.779381 13
-2.707746 -11.294397 0.779222 13
-2.743608 -11.291864 0.779251 12
-2.781557 -11.293058 0.779220 12
-2.818048 -11.298242 0.779125 12
-2.853592 -11.291339 0.779218 12
-2.886201 -11.292591 0.779183 13
-2.922771 -11.297402 0.779090 12
-2.959757 -11.306066 0.778935 13
-2.996044 -11.306634 0.778905 13
-3.031148 -11.295135 0.779063 13
-3.067837 -11.299431 0.778971 13
-3.108587 -11.307184 0.778822 12
-3.144934 -11.307227 0.778794 13
-3.178158 -11.311527 0.778701 13
-3.215872 -11.307140 0.778739 13
-3.250463 -11.307022 0.778711 13
-3.288161 -11.302370 0.778749 13
-3.320969 -11.302239 0.778720 13
-3.359697 -11.305260 0.778635 13
-3.393261 -11.296731 0.778734 13
-3.431332 -11.307651 0.778523 12
-3.469030 -11.302336 0.778564 12
-3.504279 -11.305323 0.778478 13
-3.541360 -11.307920 0.778394 13
-3.577264 -11.302478 0.778434 13
-3.614389 -11.304812 0.778351 13
-3.650916 -11.303063 0.778331 13
-3.688098 -11.305132 0.778249 13
-3.722858 -11.303422 0.778227 15
-3.760539 -11.297039 0.778273 13
-3.795988 -11.299025 0.778190 13
-3.833264 -11.300568 0.778110 14
-3.873800 -11.309519 0.777909 16
-3.910438 -11.306849 0.777893 16
-3.947080 -11.304047 0.777877 16
-3.982688 -11.305388 0.777797 16
-4.023461 -11.313750 0.777598 18
-4.059940 -11.318749 0.777458 18
-4.097475 -11.319335 0.777382 17
-4.133416 -11.311951 0.777430 18
-4.171807 -11.316182 0.777294 17
-4.209414 -11.316360 0.777220 19
-4.248755 -11.324215 0.777022 17
-4.286444 -11.324112 0.776949 18
-4.322401 -11.316069 0.777000 18
-4.357414 -11.320418 0.776862 18
-4.394262 -11.316022 0.776852 18
-4.432948 -11.319280 0.776720 17
-4.470753 -11.318503 0.776649 17
-4.506688 -11.309816 0.776703 17
-4.546309 -11.308325 0.776637 14
-4.584309 -11.315341 0.776442 14
-4.621220 -11.310134 0.776436 15
-4.661129 -11.316411 0.776245 14
-4.699084 -11.314796 0.776178 14
-4.737061 -11.313044 0.776112 17
-4.780265 -11.330458 0.775739 17
-4.818038 -11.320199 0.775800 17
-4.856790 -11.334422 0.775484 17
-4.894941 -11.332088 0.775420 17
-4.932015 -11.325768 0.775418 15
-4.973096 -11.326481 0.775297 15
-5.010623 -11.328083 0.775171 15
-5.049993 -11.329018 0.775048 16
-5.087109 -11.322140 0.775048 17
-5.128336 -11.322237 0.774930 17
-5.167183 -11.327099 0.774744 17
-5.206709 -11.327438 0.774624 17
-5.246275 -11.327627 0.774504 17
-5.284667 -11.323854 0.774446 17
-5.324301 -11.323745 0.774328 16
-5.363973 -11.323484 0.774210 14
-5.406194 -11.330668 0.773970 15
-5.442903 -11.326903 0.773912 15
-5.485783 -11.329371 0.773738 17
-5.528221 -11.336062 0.773500 15
-5.566826 -11.331244 0.773447 16
-5.606762 -11.330056 0.773333 15
-5.646266 -11.333123 0.773155 16
-5.686285 -11.331631 0.773042 17
-5.728136 -11.329335 0.772934 15
-5.766422 -11.328185 0.772819 17
-5.806541 -11.326231 0.772708 16
-5.848091 -11.327869 0.772537 17
-5.888286 -11.325601 0.772427 18
-5.928512 -11.323177 0.772318 16
-5.970207 -11.324330 0.772149 15
-6.013409 -11.329044 0.771920 16
-6.056691 -11.333583 0.771692 15
-6.097423 -11.326078 0.771650 15
-6.139028 -11.330993 0.771419 15
-6.182511 -11.335014 0.771193 15
-6.226073 -11.338859 0.770968 15
-6.268184 -11.338828 0.770804 18
-6.307262 -11.331247 0.770761 17
-6.347650 -11.331649 0.770595 15
-6.391453 -11.334810 0.770372 15
-6.433752 -11.334117 0.770211 15
-6.477900 -11.332472 0.770054 17
-6.518689 -11.327767 0.769955 15
-6.562555 -11.334673 0.769670 15
-6.605226 -11.328836 0.769577 14
-6.647605 -11.331740 0.769354 13
-6.693511 -11.337298 0.769077 13
-6.734505 -11.331757 0.768981 13
-6.778880 -11.333312 0.768765 12
-6.825018 -11.338306 0.768490 12
-6.869543 -11.339487 0.768275 13
-6.910695 -11.333260 0.768182 12
-6.955328 -11.334081 0.767969 12
-6.998281 -11.331118 0.767817 11
-7.046545 -11.338758 0.767486 12
-7.093153 -11.342600 0.767216 12
-7.139851 -11.346243 0.766946 12
-7.183045 -11.342536 0.766797 11
-7.226277 -11.338654 0.766649 12
-7.273184 -11.341718 0.766382 12
-7.318343 -11.341024 0.766176 12
-7.361718 -11.336594 0.766030 12
-7.403269 -11.328443 0.765945 11
-7.450572 -11.339709 0.765552 10
