# .PCD v.7 - Point Cloud Data file format
VERSION .7
FIELDS x y z intensity
SIZE 4 4 4 1
TYPE F F F U
COUNT 1 1 1 1
WIDTH 1519
HEIGHT 1
VIEWPOINT 0 0 0 1 0 0 0
POINTS 1519
DATA ascii
-70.216537 53.061836 6.472307 58
-69.729942 53.047176 6.448568 58
-69.241425 53.046494 6.425407 59
-68.725761 53.039970 6.400770 59
-68.223282 53.021267 6.376281 59
-49.136894 38.287903 4.827413 31
-67.252129 52.981277 6.328951 60
-66.821236 53.027908 6.310900 60
-66.415497 53.073376 6.294032 61
-65.081123 52.342178 6.199192 62
-64.613892 52.308407 6.176018 62
-64.267960 52.389645 6.163703 63
-63.959064 52.499706 6.154461 63
-63.723789 52.688179 6.152232 63
-63.460304 52.815559 6.145977 63
-61.437298 51.449162 5.990898 60
-61.737312 52.081791 6.033664 61
-62.919937 53.443535 6.150236 63
-62.296337 53.644772 6.131357 63
-61.866169 53.639000 6.111714 63
-61.433788 53.628227 6.091794 62
-60.060596 52.775795 5.990331 60
-59.169380 52.341049 5.930093 58
-58.560326 52.134418 5.893234 57
-58.183514 52.151699 5.877334 57
-57.848358 52.222572 5.865878 56
-57.560528 52.317181 5.857697 56
-57.322636 52.438793 5.853055 56
-57.125088 52.615383 5.852867 56
-56.871788 52.739201 5.847759 56
-56.499588 52.749229 5.832037 55
-56.113564 52.743500 5.815007 55
-55.754131 52.760620 5.800289 55
-55.415306 52.795311 5.787369 54
-55.142601 52.892387 5.780390 54
-54.721828 52.842709 5.759933 53
-54.277054 52.747902 5.736286 53
-47.416122 46.259674 5.124665 37
-53.430061 52.608192 5.693406 52
-40.518356 39.930351 4.519419 30
-40.354111 40.036255 4.517761 30
-39.455189 39.658600 4.461238 61
-39.264515 39.731750 4.456954 61
-39.432400 40.179089 4.486410 30
-39.251305 40.263348 4.483160 61
-39.104340 40.369385 4.482454 91
-38.813751 40.335670 4.468799 30
-39.057865 40.888508 4.506889 30
-39.094276 41.208397 4.524674 30
-49.372261 52.683022 5.528825 47
-48.962948 52.597385 5.507855 47
-48.611042 52.571690 5.492330 46
-3.400204 2.593644 1.100499 1
-3.394258 2.609636 1.101088 6
-3.370422 2.593405 1.099298 9
-3.375315 2.610343 1.100373 10
-3.367032 2.612259 1.100146 17
-3.353542 2.608088 1.099398 16
-3.340099 2.603842 1.098649 16
-3.334454 2.608650 1.098682 16
-3.320791 2.604521 1.097933 17
-3.315426 2.609025 1.097964 17
-3.304659 2.607608 1.097474 17
-3.291378 2.603057 1.096722 16
-3.285736 2.607695 1.096754 17
-3.277558 2.609218 1.096524 17
-3.269386 2.610703 1.096293 18
-3.261219 2.612150 1.096063 18
-3.250855 2.610213 1.095569 19
-3.237759 2.605318 1.094815 20
-3.232109 2.609769 1.094845 19
-3.223989 2.611052 1.094613 20
-3.215876 2.612299 1.094380 20
-3.207770 2.613508 1.094148 21
-3.202091 2.617854 1.094177 23
-3.193988 2.618999 1.093943 26
-3.183492 2.616917 1.093449 27
-3.175414 2.617980 1.093215 27
-3.167344 2.619006 1.092981 27
-3.161647 2.623211 1.093008 30
-3.151226 2.620950 1.092512 32
-3.157237 2.641255 1.093849 43
-3.133094 2.619303 1.091779 35
-3.123038 2.616691 1.091280 34
-3.112729 2.614232 1.090782 30
-3.107049 2.618246 1.090808 33
-3.103642 2.625511 1.091096 34
-3.097922 2.629494 1.091121 35
-3.078603 2.613735 1.089573 35
-3.075177 2.620925 1.089861 36
-3.067233 2.621505 1.089623 35
-3.061527 2.625361 1.089648 36
-3.055809 2.629196 1.089672 35
-3.045949 2.626170 1.089170 34
-3.038032 2.626618 1.088932 39
-3.034493 2.633713 1.089218 34
-3.021943 2.627594 1.088455 36
-3.014056 2.627934 1.088215 36
-3.006467 2.628058 1.087975 36
-2.998602 2.628330 1.087735 34
-2.997124 2.638703 1.088283 36
-2.985019 2.632156 1.087517 33
-2.979277 2.635724 1.087539 33
-2.969343 2.632471 1.087035 33
-2.965678 2.639393 1.087320 33
-2.956067 2.635890 1.086815 32
-2.952367 2.642779 1.087099 30
-2.946588 2.646233 1.087120 32
-2.932675 2.635923 1.086088 36
-2.928939 2.642752 1.086372 36
-2.921154 2.642674 1.086130 36
-2.917370 2.649477 1.086414 35
-2.911858 2.652643 1.086433 36
-2.902103 2.649014 1.085926 36
-2.894345 2.648815 1.085682 35
-2.888545 2.652067 1.085702 36
-2.884669 2.658790 1.085985 37
-2.874990 2.655012 1.085477 37
-2.867259 2.654691 1.085232 40
-2.861439 2.657849 1.085251 41
-2.855608 2.660986 1.085270 43
-2.849767 2.664102 1.085288 45
-2.842053 2.663667 1.085042 45
-2.832797 2.659509 1.084532 50
-2.825415 2.658852 1.084285 49
-2.819581 2.661863 1.084303 52
-2.813737 2.664853 1.084320 53
-2.807589 2.667972 1.084338 55
-2.803510 2.674489 1.084619 61
-2.796141 2.673703 1.084371 64
-2.788493 2.673031 1.084124 66
-2.782609 2.675913 1.084140 64
-2.776421 2.678917 1.084157 66
-2.769088 2.678016 1.083908 66
-2.763187 2.680831 1.083924 68
-2.757277 2.683625 1.083940 68
-2.751357 2.686398 1.083955 68
-2.745131 2.689287 1.083972 68
-2.735868 2.684760 1.083458 70
-2.729944 2.687458 1.083473 71
-2.715338 2.702733 1.084045 4
-2.709651 2.705229 1.084059 4
-2.703655 2.707835 1.084073 4
-2.694505 2.703085 1.083558 4
-2.693499 2.716532 1.084364 4
-2.684670 2.711598 1.083848 4
-2.677117 2.710433 1.083597 2
-2.672325 2.716740 1.083875 2
-2.670818 2.730301 1.084682 2
-2.661742 2.725372 1.084166 2
-2.657161 2.731517 1.084443 2
-2.651379 2.733819 1.084455 2
-2.643826 2.732507 1.084202 2
-2.637736 2.734884 1.084214 2
-2.631332 2.737357 1.084227 2
-2.628369 2.747035 1.084768 2
-2.618011 2.738152 1.083984 2
-2.613294 2.744179 1.084261 2
-2.607163 2.746449 1.084272 2
-2.604067 2.756085 1.084812 2
-2.599249 2.762077 1.085088 2
-2.589033 2.753021 1.084303 1
-2.578887 2.743915 1.083519 2
-2.572758 2.746065 1.083529 2
-2.571828 2.763286 1.084599 2
-2.564342 2.761633 1.084344 2
-2.556876 2.759951 1.084089 2
-2.550690 2.762024 1.084098 2
-2.543249 2.760285 1.083842 2
-2.541081 2.773594 1.084646 2
-2.533625 2.771813 1.084390 2
-2.527399 2.773805 1.084399 2
-2.520280 2.771870 1.084142 2
-2.514053 2.773815 1.084150 2
-2.507820 2.775738 1.084158 2
-2.503894 2.785280 1.084697 2
-2.497621 2.787168 1.084705 2
-2.489897 2.785299 1.084447 1
-2.489206 2.806297 1.085781 2
-2.476241 2.785120 1.084196 2
-2.472148 2.794590 1.084734 2
-2.464004 2.788593 1.084210 2
-2.456969 2.786408 1.083951 2
-2.452478 2.795919 1.084489 2
-2.448241 2.805336 1.085026 2
-2.440875 2.803172 1.084767 2
-2.432836 2.797035 1.084241 2
-2.427519 2.802539 1.084512 2
-2.420869 2.804241 1.084518 2
-2.414530 2.805839 1.084524 2
-2.407230 2.803540 1.084263 2
-2.402153 2.808892 1.084534 2
-2.396727 2.814306 1.084804 2
-2.390353 2.815820 1.084809 2
-2.384293 2.817238 1.084813 2
-2.378478 2.822672 1.085083 2
-2.371519 2.820156 1.084821 2
-2.365125 2.821582 1.084825 2
-2.357877 2.819086 1.084563 2
-2.353156 2.828269 1.085098 2
-2.345592 2.825793 1.084836 2
-2.341114 2.834879 1.085370 1
-2.333875 2.832287 1.085107 1
-2.333679 2.864895 1.087235 1
-2.330525 2.881791 1.088300 1
-2.320902 2.867396 1.087240 1
-2.311798 2.856940 1.086445 1
-2.309232 2.877720 1.087775 1
-2.302637 2.878928 1.087777 1
-2.308613 2.950845 1.092561 1
-2.130725 3.150472 1.104214 1
-2.119572 3.103297 1.101022 1
-2.104262 3.096397 1.100482 6
-2.098716 3.124768 1.102336 4
-2.090770 3.117272 1.101799 5
-2.084495 3.137639 1.103122 7
-2.076777 3.134076 1.102851 4
-2.069288 3.134471 1.102845 2
-2.064447 3.190654 1.106555 2
-2.058163 3.222904 1.108673 3
-2.051402 3.239169 1.109728 3
-2.044732 3.271383 1.111845 3
-2.036766 3.283646 1.112633 3
-2.029396 3.291867 1.113157 2
-2.021569 3.300075 1.113680 2
-2.030133 4.018497 1.161445 0
-2.017437 3.910984 1.154269 1
-2.008655 3.998962 1.160096 0
-1.997033 3.911315 1.154246 1
-1.977150 4.003300 1.160326 2
-1.966644 4.011324 1.160844 1
-1.956087 4.015321 1.161096 1
-1.945559 4.007308 1.160553 1
-1.923627 3.400409 1.120197 1
-1.917246 3.312484 1.114352 1
-1.908873 3.324292 1.115136 1
-1.898796 3.399908 1.120163 1
-1.891302 3.367764 1.118030 1
-1.882869 3.371500 1.118283 1
-1.876413 3.319365 1.114824 1
-1.868907 3.303107 1.113751 1
-1.857409 3.382526 1.119040 1
-1.843495 3.333938 1.115833 2
-1.813809 3.284288 1.112599 1
-1.806065 3.279782 1.112320 1
-1.791592 3.370801 1.118398 1
-1.786529 3.326416 1.115469 1
-1.771184 3.313215 1.114645 2
-1.763071 3.312543 1.114629 2
-1.753614 3.331757 1.115938 2
-1.747259 3.311150 1.114598 2
-1.737991 3.318302 1.115111 2
-1.674665 3.178641 1.106213 1
-1.668612 3.165765 1.105403 1
-1.662530 3.096440 1.100873 1
-1.657828 3.079642 1.099799 1
-1.650532 3.078575 1.099781 1
-1.637176 3.068477 1.099217 1
-1.629293 3.071280 1.099463 1
-1.623946 3.058295 1.098652 1
-1.616071 3.061047 1.098898 1
-1.606837 3.071640 1.099671 1
-1.598207 3.078260 1.100180 1
-1.589525 3.084846 1.100689 1
-1.585047 3.067829 1.099613 1
-1.572735 3.093986 1.101441 1
-1.559499 3.124004 1.103531 1
-1.556548 3.099073 1.101928 1
-1.553003 3.078064 1.100588 1
-1.544936 3.080546 1.100831 1
-1.537212 3.083071 1.101075 1
-1.531512 3.073765 1.100527 1
-1.518514 3.099603 1.102351 1
-1.510318 3.101954 1.102593 1
-1.493652 3.143282 1.105469 1
-1.483559 3.153335 1.106237 1
-0.934018 3.433705 1.133215 1
-0.942209 3.389508 1.130305 1
-0.909120 3.444832 1.134439 1
-0.903720 3.433821 1.133877 1
-0.830342 3.484294 1.138620 1
-0.869344 3.374870 1.131026 1
-0.859765 3.374865 1.131247 1
-0.837965 3.399960 1.133286 1
-0.832530 3.388607 1.132721 1
-0.858778 3.312722 1.127480 1
-0.826970 3.359472 1.131080 2
-0.781574 3.368461 1.132726 34
-0.762149 3.385548 1.134238 27
-0.751992 3.384917 1.134453 16
23.646194 50.480553 4.581292 61
23.847183 50.466164 4.585580 61
24.074926 50.459572 4.591062 61
24.304838 50.455498 4.596794 61
24.518896 50.440948 4.601530 61
24.738861 50.436043 4.607035 61
24.958115 50.448925 4.613617 61
4.875668 13.247317 1.869893 36
4.936044 13.254701 1.871973 16
5.242612 13.695874 1.906381 19
5.265386 13.627811 1.903004 19
5.283569 13.557560 1.899382 14
5.255063 13.412665 1.890089 21
5.318575 13.421856 1.892412 19
5.339634 13.358564 1.889309 14
5.354218 13.284986 1.885432 12
5.378556 13.233278 1.883118 12
5.402696 13.176844 1.880532 4
28.188179 50.500263 4.706605 30
28.440260 50.524021 4.715330 30
28.806818 50.325577 4.714650 30
28.972574 50.207760 4.712783 30
29.133577 50.101559 4.711483 30
29.311361 50.002838 4.711153 30
29.469406 49.873257 4.708501 30
2.495986 7.867637 1.488429 0
2.513207 7.789680 1.484512 1
2.508258 7.730774 1.481012 1
2.498519 7.665347 1.476998 1
2.495063 7.610006 1.473758 1
2.483411 7.545635 1.469756 1
2.489384 7.507789 1.467810 0
2.498550 7.472487 1.466114 0
2.507523 7.437201 1.464418 0
2.518590 7.405204 1.462979 0
2.535196 7.378955 1.462046 0
2.552867 7.356714 1.461377 0
2.553095 7.312476 1.458920 0
2.572820 7.293446 1.458508 0
2.604177 7.290518 1.459376 0
2.609684 7.251979 1.457425 0
2.652807 7.264939 1.459571 0
2.677072 7.252009 1.459668 0
2.704983 7.246201 1.460284 0
2.719614 7.220306 1.459356 0
2.736530 7.197569 1.458684 0
2.753345 7.174790 1.458012 0
2.784641 7.170969 1.458872 0
2.824373 7.175643 1.460490 0
2.848403 7.162056 1.460582 0
2.886103 7.168066 1.462213 0
2.902703 7.144850 1.461537 0
2.939085 7.146583 1.462902 0
3.005496 7.185515 1.467327 0
3.032120 7.174360 1.467668 0
3.076355 7.184775 1.469792 0
3.097962 7.167160 1.469621 0
3.115502 7.142425 1.468932 0
3.162471 7.155377 1.471306 0
3.249493 7.217969 1.477760 0
3.285558 7.218983 1.479120 0
3.322776 7.218904 1.480469 0
3.340399 7.193433 1.479773 0
3.356827 7.168845 1.479086 0
3.386220 7.159301 1.479670 0
3.438154 7.177638 1.482548 0
3.441291 7.137768 1.480589 0
3.497120 7.157745 1.483708 0
3.598300 7.228075 1.491138 0
3.631808 7.219547 1.491957 0
3.671184 7.221705 1.493555 0
3.674109 7.181346 1.491592 0
3.706490 7.173417 1.492418 0
3.817395 7.250413 1.500589 0
3.863685 7.256528 1.502675 0
3.885539 7.236165 1.502482 0
3.926486 7.236061 1.504059 0
3.951016 7.218374 1.504116 0
34.412994 38.796928 4.282057 61
46.830700 51.351044 5.398500 47
47.042557 51.217598 5.400170 47
47.287651 51.117458 5.404863 47
47.583176 51.067299 5.414091 48
47.932484 51.069420 5.428101 48
48.477196 51.281425 5.460338 49
49.123455 51.571350 5.500532 50
49.510769 51.582497 5.516663 50
50.992355 52.316700 5.612505 100
51.349644 52.303219 5.626377 100
51.698524 52.297234 5.640321 54
52.059525 52.300491 5.655256 54
52.226814 52.100685 5.652482 54
52.224380 51.742050 5.635124 54
52.337025 51.492817 5.627826 54
52.753586 51.525112 5.646652 54
52.597328 51.028923 5.616493 53
52.839676 50.900032 5.620488 54
53.031452 50.724533 5.620210 54
53.519688 50.815048 5.645007 54
54.015182 50.908073 5.670282 55
54.395439 50.895023 5.685757 56
54.950417 51.050667 5.716589 56
55.798443 51.440014 5.770842 58
56.197498 51.431683 5.787495 58
56.639286 51.439610 5.806788 59
57.030613 51.418961 5.822653 59
57.392399 51.388466 5.836845 60
57.818367 51.392025 5.855424 60
58.223652 51.375282 5.872234 61
58.647968 51.371635 5.890523 61
59.026806 51.327518 5.905048 62
59.455479 51.321857 5.923548 62
59.853886 51.288620 5.939533 63
74.003342 62.362598 7.059626 48
74.067802 61.977192 7.045223 48
74.149231 61.607010 7.032319 48
64.076736 53.209023 6.211994 60
64.312134 53.020130 6.214111 59
74.465454 60.561356 7.000099 48
74.558563 60.226978 6.989567 48
68.579933 55.205788 6.501252 55
62.792576 50.399055 6.030973 62
63.066624 50.249897 6.036857 62
60.759159 48.158180 5.841815 61
60.677231 47.755085 5.820701 60
61.071156 47.707344 5.836573 61
61.510525 47.690544 5.855899 61
75.332939 57.445957 6.904411 49
75.358398 57.051640 6.888819 49
75.427414 56.690483 6.876702 50
75.517586 56.345776 6.866322 50
69.458046 51.640694 6.388606 57
69.566010 51.342861 6.381147 57
69.856026 51.172947 6.387538 56
75.830864 54.944763 6.822353 50
75.933388 54.614067 6.813468 50
75.965332 54.236015 6.799397 50
76.061668 53.903210 6.790270 51
76.114326 53.561718 6.778800 51
76.187981 53.215698 6.768197 51
76.286789 52.887459 6.759569 51
76.367584 52.548191 6.749711 51
76.473709 52.226460 6.741825 51
76.545036 51.882900 6.731478 51
76.802948 51.660431 6.734919 51
80.277138 52.685768 6.941882 48
81.114426 52.808342 6.986981 47
81.227066 52.476055 6.979466 47
85.550667 53.476177 7.227744 63
87.610283 54.287163 7.359092 63
87.850967 54.006691 7.360219 63
89.586967 54.622841 7.468503 63
90.620468 54.816673 7.526507 63
98.703575 57.188457 8.013541 63
100.320915 57.623920 8.109791 63
100.737999 57.363979 8.121103 63
102.396614 57.801239 8.219643 63
9.201612 7.015909 1.734651 1
9.225305 6.878252 1.730935 52
9.281856 6.760952 1.729671 1
9.274486 6.705232 1.727362 1
9.383511 6.710934 1.733090 1
9.291744 6.617922 1.725230 1
9.278174 6.564615 1.722716 1
9.301168 6.527119 1.722613 1
9.378130 6.321268 1.719667 1
9.399385 6.285332 1.719579 1
9.343344 6.111039 1.711008 1
9.277391 6.033951 1.705107 1
9.273061 5.984966 1.703315 1
9.300544 5.952523 1.703713 1
9.318077 5.822168 1.700530 22
9.323871 5.778096 1.699463 24
9.392902 5.758358 1.702473 14
9.478713 5.749833 1.706717 6
9.864894 5.765871 1.727540 7
9.989030 5.767557 1.734146 3
10.393905 5.829672 1.757418 1
10.754627 5.871415 1.777785 3
10.961970 5.899329 1.789621 2
51.967937 11.114060 4.172825 30
78.500854 10.659414 5.660671 62
78.613579 10.387776 5.662956 62
78.713478 10.114124 5.664543 62
78.580673 9.828718 5.652829 62
78.597755 9.560349 5.649909 62
78.643204 9.280761 5.648490 62
78.636024 8.995830 5.644068 62
78.655655 8.713716 5.641265 62
78.491394 8.414682 5.627850 63
78.518524 7.553943 5.617965 144
78.551918 7.287993 5.616440 126
78.545662 7.004862 5.612497 144
78.565292 6.737891 5.610283 204
78.577034 6.456258 5.607493 232
78.583801 6.174358 5.604475 232
78.597549 5.892962 5.601917 232
78.606331 5.611306 5.599131 232
78.598183 5.328790 5.595428 144
78.616959 5.047793 5.593332 144
78.617119 3.076142 5.572740 63
78.699898 2.796591 5.574764 63
78.709839 2.515129 5.572676 63
78.699051 2.219236 5.569331 63
78.743912 0.543817 5.557626 144
78.702179 0.276576 5.553159 232
78.711311 -0.005102 5.551535 232
78.731438 -0.287041 5.550592 144
78.730614 -0.568747 5.548515 127
78.732796 -0.850554 5.546666 126
78.737984 -1.132499 5.545044 126
78.738205 -1.414383 5.543197 126
78.733902 -1.682079 5.541239 126
78.756142 -1.964877 5.540752 126
78.765419 -2.247382 5.539587 126
78.773705 -2.529988 5.538421 126
78.788986 -2.813066 5.537708 126
78.791306 -3.095687 5.536317 126
78.800606 -3.378802 5.535378 126
78.788986 -3.660883 5.533311 122
78.808266 -3.944885 5.533051 126
78.810600 -4.228047 5.531888 126
78.814980 -4.525653 5.530837 126
78.832222 -4.796022 5.530691 126
78.851486 -5.080967 5.530655 126
78.865768 -5.365804 5.530395 126
78.960785 -9.916074 5.526441 126
78.981697 -10.206653 5.527520 144
78.942253 -10.489095 5.525251 128
78.953201 -10.778871 5.525884 126
79.002609 -11.074749 5.528746 126
78.987778 -11.361475 5.528039 121
78.970169 -11.633506 5.527225 120
78.978714 -11.938834 5.527966 135
78.972641 -12.227693 5.527929 144
79.003334 -12.508453 5.530007 122
-45.420086 3.383440 3.567913 20
-44.765659 3.497312 3.530373 19
-44.776501 3.647959 3.532784 19
-44.778839 3.798190 3.534717 19
-44.761257 3.939623 3.535391 19
-44.766556 4.090169 3.537563 19
-44.782696 4.249169 3.540514 19
-44.779545 4.391794 3.542146 19
-44.771313 4.541577 3.543597 19
-44.790405 4.693753 3.546729 19
-44.816910 4.846821 3.550343 19
-44.874668 5.003093 3.555882 20
-171.378769 22.189966 11.286037 63
-122.845764 18.695738 8.369400 63
-122.723785 19.108730 8.369150 63
-121.735413 19.366823 8.315408 63
-122.718895 19.927851 8.382841 63
-122.589317 20.360849 8.382746 63
-122.453781 20.770828 8.381990 63
-122.942924 21.285122 8.419830 63
-116.487625 20.592976 8.028814 63
-121.130043 21.816069 8.323132 63
-124.590096 22.884293 8.545429 63
-121.075737 22.686211 8.336017 63
-101.132401 19.411591 7.107781 63
-210.097595 47.908215 14.027402 63
-207.550476 48.088867 13.883443 63
-202.048386 48.301189 13.569152 63
-201.644867 48.942501 13.559733 63
-196.495682 49.109032 13.265732 63
-66.375694 17.162287 5.040070 41
-193.786560 49.862770 13.126275 63
-191.032364 49.864639 12.967573 63
-185.839828 49.894611 12.669374 63
-185.478775 50.485260 12.662383 63
-168.165176 47.063076 11.587781 63
-175.203720 50.941162 12.084251 63
-173.120605 50.956017 11.965547 63
-172.780212 51.504517 11.959630 63
-169.878326 51.316502 11.789422 63
-169.351105 51.764156 11.770589 63
-14.858130 5.050344 1.796761 1
-14.782991 5.075951 1.793158 1
-14.685035 5.093730 1.788068 1
-14.628860 5.124501 1.785694 1
-14.477853 5.123633 1.777130 1
-14.289142 5.109112 1.766082 1
-14.165704 5.112925 1.759218 1
-13.951685 5.134142 1.747735 1
-13.853484 5.149076 1.742621 1
-13.794436 5.172532 1.739951 1
-13.606808 5.152019 1.728855 1
-13.543375 5.175015 1.725943 1
-13.536175 5.218164 1.726753 1
-13.352791 5.196325 1.715885 1
-13.203367 5.185820 1.707244 1
-13.080304 5.184186 1.700336 1
-13.110341 5.240042 1.703621 1
-12.958315 5.223928 1.694698 1
-12.809504 5.210195 1.686032 1
-12.768677 5.237821 1.684581 1
-12.701817 5.254901 1.681383 1
-14.895203 6.178112 1.830244 2
-12.482290 5.255177 1.669256 1
-12.386038 5.258605 1.664050 1
-12.353359 5.285532 1.663069 1
-12.268283 5.292571 1.658604 1
-12.315722 5.354888 1.663126 1
-12.395908 5.431661 1.669901 1
-12.358314 5.458606 1.668681 1
-12.404892 5.521891 1.673210 1
-12.231750 5.489447 1.662732 1
-14.356468 6.469241 1.809648 1
-14.180476 6.442535 1.799214 1
-14.161345 6.485161 1.799540 1
-12.234076 5.660387 1.668324 1
-12.216868 5.698013 1.668611 1
-12.457538 5.852930 1.686688 1
-12.430485 5.882646 1.686201 1
-12.489149 5.954922 1.691749 1
-12.421267 5.967634 1.688515 1
-12.378615 5.992027 1.687035 1
-12.296401 5.997040 1.682789 1
-12.278840 6.033092 1.683064 1
-13.335309 6.598705 1.758764 1
-12.300530 6.133458 1.687635 1
-12.189723 6.122973 1.681367 1
-12.318674 6.230760 1.691943 1
-12.482581 6.357597 1.705045 1
-12.350167 6.335852 1.697263 1
-12.508591 6.464028 1.710136 1
-12.630875 6.574864 1.720497 1
-12.586580 6.599036 1.719013 1
-12.559868 6.632346 1.718789 1
-12.513155 6.702412 1.718841 1
-93.529175 50.949741 7.558608 63
-93.404800 51.276218 7.563924 63
-124.484779 77.519943 13.536395 63
-88.195854 55.273151 9.833228 63
-87.621986 55.330521 9.795894 63
-87.246872 55.511185 9.779016 63
-86.227791 55.254368 9.694298 63
-85.693306 55.324791 9.660699 63
-85.166039 55.396511 9.627770 44
-16.440632 10.676626 2.480104 20
-16.438133 10.744637 2.483589 19
-81.132591 55.160614 9.336448 48
-80.575333 55.183369 9.299501 48
-80.601189 55.586960 9.323348 48
-80.481735 55.911411 9.333024 48
-79.895172 55.907463 9.292893 48
-79.338844 55.920853 9.255871 49
-77.671646 55.135960 9.099307 50
-76.185478 54.465889 8.961481 52
-75.665970 54.483608 8.927468 52
-75.320953 54.625347 8.912262 53
-75.007927 54.788967 8.900528 53
-73.981010 54.421604 8.810987 54
-73.739578 54.632153 8.806886 54
-73.344749 54.726635 8.786023 54
-70.594170 53.032581 8.506112 57
-70.098373 53.032421 8.473284 58
-69.609352 53.015194 8.439999 58
-69.105812 53.002144 8.406078 58
-68.609482 52.991119 8.372834 59
-68.148506 53.004349 8.343413 59
-49.151127 38.342548 6.239954 44
-67.259911 53.047909 8.288006 60
-66.807281 53.058506 8.259224 60
-66.504097 53.186855 8.247213 60
-65.190254 52.472267 8.119648 62
-63.813881 52.805149 8.051372 62
-63.678123 53.059307 8.058173 62
-63.031155 52.861305 8.004985 63
-62.917599 53.520737 8.038246 63
-62.658428 53.667927 8.031000 63
-62.207161 53.627750 8.000176 63
-61.777557 53.621918 7.972915 63
-61.393211 53.671677 7.952024 63
-60.165398 52.947472 7.830343 62
-59.628063 52.812637 7.788548 61
-58.001343 52.422279 7.663586 60
-57.581333 52.395847 7.636167 59
-57.378296 52.550175 7.633605 59
-57.157085 52.705189 7.630050 59
-56.929676 52.853817 7.625783 59
-56.560356 52.867008 7.604285 59
-56.111423 52.783413 7.571805 59
-55.680008 52.749332 7.543660 58
-55.930393 53.704063 7.620797 59
-53.710415 52.606262 7.417052 57
-53.332958 52.588955 7.393666 57
-52.961861 52.575317 7.370969 56
-52.605442 52.573933 7.350018 56
-52.258007 52.579250 7.330109 56
-51.997070 52.671513 7.321108 56
-50.935280 52.629005 7.256972 55
-50.598843 52.634335 7.238053 55
-50.230312 52.603027 7.214889 55
-49.892418 52.601894 7.195590 54
-49.730701 52.789417 7.199208 54
-49.414879 52.808952 7.182709 54
-48.135288 51.748810 7.038031 53
-47.683689 51.963200 7.027521 52
-47.285351 51.875568 6.999301 52
-47.058113 51.959965 6.992556 52
-46.823494 52.071049 6.987322 52
-46.524284 52.089230 6.972134 52
-46.349213 52.230728 6.972430 52
-45.920479 52.095406 6.939550 51
-45.997837 52.548500 6.975584 52
-45.563541 52.384373 6.940508 51
-45.255661 52.768471 6.951095 100
-45.243938 53.104877 6.974344 100
-44.994171 53.192482 6.967272 100
-44.670200 53.169743 6.948463 100
-44.364502 53.167027 6.932120 100
-44.051842 53.153511 6.914702 100
-43.753887 53.137375 6.897933 100
-43.425068 53.099018 6.878014 100
-42.535442 52.329746 6.776230 49
-42.242683 52.326900 6.760878 49
-41.903923 52.262920 6.738783 49
-41.239460 51.774887 6.669199 48
-40.873371 51.684654 6.643928 48
-40.616325 51.715622 6.633127 48
-3.248478 2.693074 1.149996 0
-3.200823 2.654118 1.144737 7
-3.207148 2.674234 1.146537 10
-3.187097 2.659316 1.144437 16
-3.176560 2.657153 1.143755 18
-3.163716 2.651710 1.142719 20
-3.178838 2.685015 1.145940 40
-3.161629 2.672836 1.144191 29
-3.148538 2.667477 1.143155 30
-3.138086 2.665098 1.142472 28
-3.127957 2.662463 1.141787 29
-3.122107 2.666531 1.141813 33
-3.113985 2.667295 1.141484 35
-3.103624 2.664733 1.140799 30
-3.093296 2.662119 1.140114 30
-3.087447 2.666066 1.140139 30
-3.077160 2.663365 1.139454 33
-3.069107 2.663933 1.139123 32
-3.065441 2.671124 1.139503 33
-3.057384 2.671637 1.139172 34
-3.045298 2.665236 1.138128 36
-3.037577 2.665475 1.137795 43
-3.031717 2.669227 1.137819 43
-3.025844 2.672958 1.137842 41
-3.013598 2.666549 1.136799 43
-3.007735 2.670218 1.136821 43
-2.999762 2.670477 1.136488 50
-2.993885 2.674097 1.136511 49
-2.987995 2.677696 1.136533 52
-2.975911 2.671045 1.135487 60
-2.970032 2.674582 1.135509 60
-2.964140 2.678098 1.135531 60
-2.958533 2.681419 1.135551 60
-2.950604 2.681457 1.135216 61
-2.942392 2.681632 1.134882 57
-2.932499 2.678147 1.134191 68
-2.926891 2.681363 1.134210 67
-2.919011 2.681263 1.133874 68
-2.913097 2.684601 1.133895 66
-2.905230 2.684438 1.133558 68
-2.897376 2.684242 1.133222 73
-2.891452 2.687505 1.133241 67
-2.881707 2.683747 1.132547 72
-2.877676 2.690461 1.132923 70
-2.868267 2.686471 1.132228 67
-2.862335 2.689631 1.132246 67
-2.854536 2.689246 1.131908 73
-2.850438 2.695891 1.132283 67
-2.842642 2.695451 1.131945 69
-2.833041 2.691433 1.131249 71
-2.827092 2.694470 1.131267 73
-2.821430 2.697337 1.131283 71
-2.813679 2.696771 1.130944 69
-2.809481 2.703310 1.131318 71
-2.805248 2.709841 1.131692 69
-2.792255 2.698455 1.130280 73
-2.786282 2.701351 1.130297 70
-2.780298 2.704225 1.130313 71
-2.774305 2.707079 1.130329 71
-2.764913 2.702700 1.129631 76
-2.758924 2.705500 1.129647 75
-2.754897 2.711757 1.130018 73
-2.745563 2.707276 1.129319 76
-2.739559 2.710009 1.129334 82
-2.728650 2.701817 1.128278 88
-2.725904 2.711770 1.129007 82
-2.718277 2.710788 1.128664 82
-2.712262 2.713425 1.128678 84
-2.706538 2.715911 1.128692 86
-2.695498 2.707649 1.127634 96
-2.689493 2.710207 1.127648 94
-2.685022 2.716416 1.128018 100
-2.680516 2.722616 1.128389 88
-2.677797 2.732363 1.129117 46
-2.665688 2.720103 1.127700 22
-2.656236 2.732509 1.128441 4
-2.653076 2.742339 1.129169 1
-2.642898 2.733500 1.128107 2
-2.635363 2.732159 1.127761 2
-2.630394 2.738343 1.128132 4
-2.624283 2.740673 1.128143 4
-2.619870 2.746596 1.128512 4
-2.616506 2.756358 1.129239 3
-2.609265 2.754787 1.128892 3
-2.603405 2.756931 1.128902 3
-2.595570 2.755530 1.128556 4
-2.593097 2.769108 1.129640 3
-2.587189 2.771199 1.129650 3
-2.582273 2.777140 1.130018 3
-2.572136 2.768001 1.128955 3
-2.567205 2.773899 1.129323 3
-2.563511 2.783560 1.130048 3
-2.555984 2.781876 1.129700 3
-2.549721 2.783946 1.129709 3
-2.543451 2.785995 1.129718 3
-2.535051 2.780334 1.129011 3
-2.529999 2.786128 1.129377 3
-2.522529 2.784306 1.129028 3
-2.512722 2.774843 1.127962 4
-2.509128 2.784285 1.128686 4
-2.502856 2.786192 1.128694 4
-2.498857 2.795712 1.129418 3
-2.493672 2.801404 1.129784 3
-2.482891 2.787955 1.128358 4
-2.478806 2.797428 1.129082 3
-2.472489 2.799229 1.129089 3
-2.466166 2.801007 1.129096 3
-2.461954 2.810445 1.129819 1
-2.453501 2.804498 1.129109 1
-2.449542 2.813821 1.129832 1
-2.444188 2.819370 1.130196 1
-2.437794 2.821050 1.130202 1
-2.432388 2.826566 1.130566 1
-2.425969 2.828204 1.130572 1
-2.418900 2.825875 1.130219 1
-2.413116 2.831414 1.130582 1
-2.407619 2.836857 1.130946 1
-2.402090 2.842283 1.131309 1
-2.394705 2.839938 1.130955 1
-2.387342 2.837563 1.130601 1
-2.383864 2.850624 1.131681 1
-2.375619 2.844318 1.130968 1
-2.366566 2.834087 1.129897 1
-2.360966 2.839389 1.130259 1
-2.356164 2.848570 1.130979 1
-2.350486 2.853842 1.131341 1
-2.345580 2.862998 1.132061 1
-2.339824 2.868238 1.132422 1
-2.333261 2.869554 1.132425 1
-2.110692 3.104076 1.150676 0
-2.104653 3.124464 1.152463 0
-2.091565 3.149260 1.154603 3
-2.083189 3.141774 1.153881 3
-2.075885 3.146170 1.154233 2
-2.070952 3.198287 1.158886 1
-2.064183 3.210583 1.159955 1
-2.058202 3.242758 1.162815 1
-2.050811 3.255030 1.163883 0
-2.043663 3.287199 1.166742 0
-2.035506 3.283496 1.166376 0
-2.045071 3.881076 1.220111 0
-2.037347 3.972956 1.228341 0
-2.029249 4.052855 1.235496 0
-2.007103 4.005465 1.231174 0
-1.996281 4.025537 1.232953 0
-1.985677 4.025646 1.232941 0
-1.964979 4.013801 1.231842 1
-1.954402 4.021769 1.232545 1
-1.943621 4.057587 1.235755 0
-1.922681 4.017564 1.232147 0
-1.911791 4.037333 1.233923 0
-1.902223 3.981383 1.228896 0
-1.904287 3.451447 1.181264 0
-1.897875 3.367604 1.173733 0
-1.890042 3.351445 1.172289 0
-1.882585 3.327297 1.170129 0
-1.875004 3.311088 1.168685 0
-1.866737 3.314759 1.169031 0
-1.859138 3.302480 1.167944 0
-1.850873 3.306094 1.168289 0
-1.844193 3.277848 1.165771 0
-1.835126 3.297321 1.167547 0
-1.827067 3.296872 1.167534 0
-1.818766 3.300371 1.167877 0
-1.811356 3.295915 1.167506 0
-1.803166 3.303360 1.168208 0
-1.795370 3.298826 1.167836 0
-1.787603 3.294265 1.167464 0
-1.778529 3.301562 1.168164 0
-1.770130 3.304886 1.168506 0
-1.752603 3.323384 1.170264 1
-1.744820 3.318679 1.169890 1
-1.735165 3.333778 1.171304 2
-1.727768 3.325051 1.170573 1
-1.604113 4.445766 1.271723 2
-1.586980 4.492043 1.275987 2
-1.573442 4.502601 1.277033 2
-1.560889 4.509219 1.277723 2
-1.548599 4.507805 1.277697 1
-1.692241 3.148727 1.155087 0
-1.684702 3.147780 1.155071 0
-1.679756 3.127056 1.153267 0
-1.674420 3.110272 1.151821 0
-1.667015 3.109263 1.151804 0
-1.661101 3.100391 1.151073 0
-1.653363 3.099282 1.151054 0
-1.648567 3.078443 1.149250 0
-1.641037 3.081338 1.149590 0
-1.632258 3.092079 1.150644 0
-1.623662 3.098792 1.151339 0
-1.609885 3.136927 1.154890 0
-1.608938 3.096394 1.151302 0
-1.601582 3.095156 1.151283 0
-1.594913 3.089968 1.150906 0
-1.581315 3.123987 1.154098 0
-1.575992 3.110892 1.153008 0
-1.567510 3.117443 1.153702 0
-1.558236 3.123822 1.154394 0
-1.553788 3.106757 1.152947 0
-1.544103 3.117057 1.153996 0
-1.537046 3.115667 1.153976 0
-1.524877 3.137607 1.156094 0
-1.518987 3.128272 1.155359 0
-1.507428 3.146216 1.157119 0
-1.484091 3.218652 1.163869 0
-1.074941 4.633089 1.295070 0
-1.080348 4.556483 1.288264 0
-1.068862 4.549527 1.287868 0
-1.058396 4.538673 1.287115 0
-1.036685 4.574247 1.290635 0
-1.094593 3.779246 1.220392 0
-1.096315 3.738047 1.216802 0
-1.085512 3.738814 1.217120 0
-1.114229 3.618327 1.206077 0
-1.042477 3.479843 1.196066 0
-1.058817 3.409420 1.189650 0
-1.058794 3.383888 1.187488 0
-1.047603 3.388177 1.188160 0
-1.036372 3.392416 1.188832 0
-1.033756 3.374323 1.187379 0
-1.011402 3.335474 1.184754 0
-0.994174 3.354280 1.186840 0
-0.981362 3.361945 1.187864 0
-0.980745 3.340126 1.186057 0
-0.970996 3.340367 1.186373 0
-0.965907 3.329568 1.185627 0
-0.949886 3.344392 1.187356 0
-0.920690 3.366489 1.190105 1
-0.878117 3.373707 1.192065 39
-0.863159 3.384407 1.193437 28
-0.851457 3.387798 1.194101 15
-0.838034 3.394747 1.195118 4
21.623417 50.651539 5.829394 30
21.850199 50.658207 5.837634 30
22.040913 50.610683 5.840266 30
22.282259 50.666275 5.853120 30
22.468096 50.628536 5.856489 31
22.698050 50.657188 5.866858 31
22.907091 50.642090 5.872988 31
23.125309 50.643917 5.880873 32
23.347462 50.651924 5.889455 32
23.741499 50.566055 5.896732 65
23.946487 50.558266 5.903578 32
24.156651 50.538052 5.909665 66
24.396215 50.551079 5.919568 66
24.603848 50.544197 5.926744 33
24.819300 50.550507 5.935320 68
4.851974 13.282029 2.200441 20
4.904591 13.275574 2.201951 20
5.221263 13.737561 2.250920 8
5.248042 13.681240 2.247496 7
5.272535 13.621430 2.243721 8
5.236940 13.458077 2.229405 25
5.296310 13.465148 2.232320 11
5.327754 13.419126 2.229951 7
5.353017 13.358039 2.226165 6
5.367620 13.284524 2.220987 8
5.383851 13.214474 2.216161 5
5.401746 13.147870 2.211688 4
5.419229 13.085979 2.207578 6
28.693916 50.457169 6.081815 39
28.826269 50.304569 6.075519 39
28.983509 50.173222 6.071971 39
29.157312 50.049408 6.069767 39
29.538170 49.891323 6.073863 39
29.765221 49.868000 6.081856 39
30.018663 49.883705 6.094043 40
30.250677 49.864967 6.102719 40
30.573582 50.000252 6.127194 41
30.968349 50.220940 6.161394 42
31.362825 50.436157 6.195225 43
31.609234 50.428349 6.205600 44
31.804621 50.362831 6.209381 44
32.864201 51.137890 6.315665 91
33.114567 51.123795 6.325984 91
33.374439 51.121593 6.337691 92
33.623657 51.121147 6.349099 92
33.888454 51.103848 6.360025 92
34.149513 51.098049 6.371701 92
34.395191 51.087708 6.382382 93
34.435951 50.777164 6.361233 46
34.444271 50.425240 6.335553 46
34.588268 50.259487 6.330112 46
35.039246 50.505108 6.369656 46
35.331013 50.211040 6.362005 46
35.551098 50.143951 6.367695 46
35.771168 50.075928 6.373377 46
36.011982 50.016094 6.380729 46
36.207542 49.914696 6.382913 46
36.459484 49.884590 6.393099 46
37.032578 49.924297 6.424295 47
37.591022 50.253395 6.475783 47
38.594734 51.143795 6.589917 49
38.310642 50.455902 6.526362 48
38.435215 50.256512 6.518391 48
38.774559 50.318027 6.539962 48
39.062889 50.332851 6.555679 48
39.365501 50.345200 6.572010 48
39.491444 50.145840 6.564362 48
41.091721 50.253853 6.655075 49
41.282005 50.124241 6.656057 49
41.550556 50.099911 6.668549 50
41.841263 50.081566 6.682689 50
42.135029 50.064754 6.697164 50
45.113567 52.631214 7.033212 54
44.789780 51.917645 6.966891 53
45.091084 51.905777 6.982374 53
45.409111 51.909973 6.999920 53
45.723671 51.872711 7.014528 54
46.651150 51.785263 7.059545 54
46.825016 51.629555 7.058706 54
47.029896 51.470459 7.059429 54
47.158623 51.250725 7.051936 54
34.325520 37.349304 5.409228 19
49.463120 51.820679 7.219460 56
50.487904 52.472801 7.320547 57
51.227222 52.474094 7.362942 58
51.573425 52.448334 7.381185 58
51.948921 52.448296 7.402857 58
52.203594 52.331120 7.410047 58
52.202538 51.990070 7.388048 58
52.243717 51.655182 7.368977 58
52.595669 51.628368 7.387855 58
52.892376 51.566074 7.401302 58
53.095215 51.398548 7.402609 58
53.315247 51.246311 7.405974 100
53.558666 51.132217 7.413203 58
53.852207 51.044579 7.425144 59
54.199192 50.985462 7.442136 59
54.609425 50.997677 7.467447 59
55.640400 51.551849 7.563818 60
56.039036 51.544289 7.587353 61
56.414425 51.531708 7.609249 61
56.874969 51.589951 7.640734 61
57.302959 51.599110 7.667300 62
57.695255 51.574970 7.689732 62
58.057617 51.523037 7.708716 62
58.487606 51.525429 7.735224 62
58.951710 51.535164 7.764355 63
59.272522 51.441380 7.778491 63
59.695656 51.447575 7.805038 63
73.938438 62.662281 9.359867 46
74.038719 62.304424 9.344767 46
74.128098 61.939148 9.328643 46
74.190903 61.554150 9.309785 46
74.278954 61.212399 9.295157 47
74.397995 60.874630 9.282803 47
74.491409 60.496490 9.266567 47
74.575905 60.134266 9.250799 47
74.623238 59.766136 9.232425 47
74.758430 59.445358 9.222467 47
74.761993 59.025776 9.198517 47
74.852798 58.673893 9.184128 48
74.977226 58.348289 9.173493 48
75.049065 57.984589 9.157404 48
75.213699 57.276573 9.127961 48
75.297035 56.904591 9.112439 48
69.566994 52.019005 8.466504 56
75.631783 55.917625 9.079199 49
75.692833 55.554832 9.063129 49
75.762428 55.219528 9.049228 49
75.866699 54.909332 9.039070 49
75.952370 54.547005 9.024927 49
76.063347 54.223091 9.014648 49
76.114265 53.879166 8.999397 49
76.189484 53.532974 8.985724 49
76.279816 53.197960 8.973753 50
76.345497 52.847557 8.959407 50
76.409691 52.497334 8.945065 50
76.545830 52.195194 8.938189 50
76.699753 51.885506 8.932205 50
77.655228 52.110260 9.008390 49
78.547119 52.306602 9.078887 48
80.197960 52.956364 9.224430 46
80.976601 53.044331 9.281809 46
81.147881 52.748234 9.278194 46
82.287796 53.050797 9.371391 45
84.444145 53.553120 9.544399 63
85.470177 53.759949 9.625234 63
87.525444 54.596302 9.808591 63
87.688278 54.269405 9.803432 63
88.989807 54.614101 9.910447 63
90.226013 54.910107 10.010633 63
91.954918 55.482174 10.158698 63
94.041283 56.245621 10.341094 63
95.279160 56.507034 10.440018 63
98.253822 57.281158 10.685208 63
99.693001 57.623577 10.802451 63
100.668304 57.698322 10.874453 63
101.844604 57.876129 10.965606 63
103.769310 58.451805 11.128432 63
104.983528 58.628956 11.222463 63
107.096649 59.277420 11.402256 63
110.313538 59.992558 11.663590 63
111.569191 60.172726 11.761175 63
119.017105 62.452557 12.396655 63
122.114883 62.940235 12.640647 63
124.266678 63.492451 12.819928 63
126.656647 64.089836 13.018493 63
130.997726 65.071671 13.375028 63
20.235027 11.592013 3.028323 3
20.111942 11.349264 3.008907 9
52.117764 11.297519 5.472887 30
-66.379700 16.959892 6.589422 50
-66.141739 17.138968 6.575304 50
-185.852310 49.313328 17.107584 63
-183.760300 49.442806 16.943682 63
-182.242950 49.713211 16.830132 63
-180.153214 49.816677 16.666018 63
-178.445160 50.011761 16.535345 63
-176.750381 50.166092 16.404678 63
-175.139893 50.366169 16.282301 63
-172.590668 50.930332 16.096668 63
-171.918121 51.378407 16.057211 63
-169.626053 51.336403 15.873757 63
-168.969666 51.743832 15.834638 63
-167.502228 51.961586 15.725273 63
-165.896027 52.094368 15.602349 63
-164.204865 52.158260 15.470619 63
-161.612885 52.569324 15.279449 63
-161.738312 53.226662 15.311357 63
-161.766495 53.854210 15.334765 63
-161.833801 54.496506 15.361923 63
-161.879700 55.133526 15.387384 63
-161.957031 55.783142 15.415915 63
-162.071579 56.416447 15.446963 63
-162.076096 57.044838 15.469374 63
-162.104462 57.683250 15.494173 63
-162.111557 58.315826 15.517272 63
-162.276230 58.975410 15.553803 63
-162.263321 59.604507 15.575547 63
-133.930450 52.403824 13.109518 63
-186.154587 75.729164 18.031893 63
-184.380157 75.752075 17.896471 63
-184.278091 76.417580 17.914825 63
-184.241196 77.148834 17.940958 63
-184.425415 77.975258 17.987995 63
-184.515900 79.519760 18.057081 63
-174.535126 77.378487 17.210394 63
-170.562454 76.997169 16.893541 63
-169.751556 77.337708 16.846525 63
-32.638432 15.078665 3.870103 6
-77.055290 36.433746 8.124302 60
-163.434265 77.928406 16.396458 63
-162.226852 78.040955 16.310959 63
-161.116608 78.158234 16.233103 63
-160.129883 78.363144 16.168484 63
-160.183609 79.075325 16.204008 63
-160.198624 79.771057 16.236097 63
-160.346024 80.535820 16.281282 63
-160.457809 81.251488 16.321789 63
-128.639084 76.023186 13.755394 63
-127.722527 76.074791 13.692533 63
-126.714973 76.065430 13.620273 63
-125.671555 76.027229 13.544152 63
-124.544937 75.930702 13.459314 63
-124.414169 76.409981 13.474478 63
-127.513420 75.726662 19.679426 63
-126.536255 75.705948 19.573738 63
-125.553833 75.675484 19.466990 63
-125.099144 76.018631 19.443413 63
-125.055740 76.583023 19.479675 63
-125.077354 77.189796 19.526117 63
-125.102928 77.771942 19.571386 63
-125.062073 78.344925 19.609186 63
-124.998596 78.905830 19.643934 63
-87.498085 55.577660 13.980453 63
-86.802765 55.551910 13.905781 63
-86.115334 55.526295 13.832094 63
-85.542076 55.570301 13.775693 63
-84.966232 55.608791 13.718756 63
-16.421627 10.724547 3.199573 22
-16.413765 10.792791 3.204023 22
-81.158371 55.515347 13.318954 49
-80.429062 55.397938 13.235201 49
-80.400940 55.785156 13.262718 49
-80.325645 56.140873 13.283093 49
-79.737465 56.134186 13.222846 49
-79.198723 56.158653 13.170227 50
-77.646370 55.450134 12.956796 51
-75.942543 54.617367 12.718272 53
-75.668060 54.812160 12.706373 53
-75.281105 54.903564 12.674963 53
-74.942307 55.048233 12.652823 53
-74.641541 55.219662 12.636800 54
-74.264366 55.332451 12.608502 54
-73.691177 55.294804 12.548506 54
-70.450325 53.218655 12.056108 57
-69.537170 53.254128 11.968997 58
-69.038170 53.262520 11.920682 58
-68.542915 53.251442 11.871237 59
-67.422745 52.724213 11.717345 60
-67.104889 52.843735 11.696487 60
-66.675781 52.891079 11.658814 60
-66.567986 53.176529 11.672724 60
-65.560196 52.712208 11.535573 61
-64.924744 52.561905 11.461414 62
-64.569611 52.637520 11.433814 62
-63.890514 52.808670 11.383689 62
-63.657375 52.962673 11.374917 62
-63.333111 53.057137 11.352384 62
-62.870201 53.031433 11.306271 2
-62.781101 53.323978 11.323674 2
-62.783852 53.678665 11.355349 2
-62.509323 53.830853 11.343100 62
-62.064976 53.814087 11.300007 2
-61.630714 53.784451 11.256822 63
-60.216610 52.897255 11.045506 61
-59.946205 53.020844 11.031565 61
-59.596176 53.071373 11.003764 60
-58.542347 52.479313 10.852834 58
-58.069527 52.408531 10.802926 58
-57.705765 52.434620 10.771984 57
-57.467457 52.574921 10.763094 57
-57.298367 52.779240 10.766513 57
-57.018822 52.879623 10.750421 57
-56.716682 52.939087 10.728601 57
-56.333961 52.938122 10.694001 56
-55.986221 52.968121 10.665548 56
-55.624691 52.982529 10.634512 56
-55.158669 52.892551 10.584455 55
-54.906158 53.008465 10.572910 55
-54.512493 52.983749 10.535665 54
-54.100624 52.919827 10.493200 54
-53.622532 52.786339 10.438384 53
-53.192036 52.732960 10.395495 52
-52.802258 52.699368 10.358182 52
-52.461178 52.694607 10.327989 51
-52.108139 52.711365 10.298933 51
-51.863750 52.820408 10.288317 51
-51.603611 52.893906 10.273002 51
-51.162350 52.793671 10.225328 50
-50.828545 52.803535 10.197701 50
-50.526031 52.826389 10.174120 49
-50.173355 52.829796 10.144467 49
-49.768471 52.755939 10.102905 49
-47.631523 52.208855 9.869609 45
-48.676304 53.731903 10.108602 49
-46.057655 52.544868 9.774406 44
-45.880981 52.721302 9.778075 44
-45.380306 52.495239 9.714672 43
-45.105389 52.900890 9.734239 88
-45.087788 53.250072 9.768768 89
-44.851151 53.316139 9.756834 88
-44.522770 53.287132 9.727921 88
-44.222542 53.290413 9.704668 87
-43.915363 53.282955 9.679857 86
-43.606285 53.270893 9.654518 86
-43.316780 53.262535 9.631184 85
-42.382404 52.468521 9.475818 3
-42.072971 52.443542 9.449398 40
-41.544930 52.115269 9.374398 39
-41.102497 51.910381 9.319040 38
-40.763050 51.835472 9.285349 38
-40.477306 51.828369 9.263004 38
-40.196857 51.826233 9.241682 37
-39.605297 52.147266 9.231893 37
-39.430946 52.284798 9.233783 37
-38.293102 51.800102 9.098255 35
-37.704021 51.721844 9.047170 70
-37.733349 52.142124 9.095015 71
-37.289402 52.266560 9.076968 71
-37.024891 52.265186 9.058109 70
-36.751911 52.249466 9.037172 70
-36.488335 52.245625 9.018293 69
-36.220802 52.233974 8.998371 69
-35.958160 52.227692 8.979474 68
-35.707115 52.217628 8.961048 68
-35.441051 52.202351 8.941097 100
-35.173038 52.201622 8.922727 100
-34.920868 52.203873 8.905863 66
-34.853149 52.473358 8.931390 67
-34.836548 52.845833 8.971962 100
-34.817745 53.218815 9.012536 100
-34.805134 53.605755 9.055182 70
-34.786045 53.986500 9.096794 100
-34.536243 53.996037 9.081454 100
-34.280586 53.994316 9.064553 70
-34.025337 53.991463 9.047644 70
-33.785892 53.992119 9.032244 69
-33.529415 53.983654 9.014799 69
-33.271366 53.970634 8.996827 68
-33.021820 53.970150 8.980918 68
-32.760700 53.947994 8.961893 67
-32.504074 53.931538 8.943894 100
-32.259762 53.934593 8.928996 66
-32.021141 53.924442 8.913021 66
-31.773668 53.918495 8.897071 66
-31.522739 53.904549 8.880075 32
-31.310719 53.958878 8.873436 32
-2.964782 2.818358 1.232648 0
-2.954590 2.814890 1.231632 0
-2.886452 2.747900 1.219787 11
-2.876935 2.743934 1.218768 18
-2.864654 2.750295 1.218805 24
-2.854895 2.746375 1.217786 31
-2.846964 2.745949 1.217285 36
-2.844373 2.756128 1.218341 42
-2.834669 2.752100 1.217321 39
-2.827062 2.751433 1.216818 41
-2.820593 2.754601 1.216836 41
-2.814421 2.757595 1.216853 40
-2.806525 2.756990 1.216351 40
-2.802046 2.763519 1.216887 39
-2.791086 2.755537 1.215346 41
-2.783234 2.754833 1.214843 40
-2.778416 2.761440 1.215379 40
-2.770570 2.760681 1.214875 38
-2.766015 2.767113 1.215410 41
-2.756858 2.762542 1.214386 39
-2.750659 2.765314 1.214401 40
-2.740939 2.760943 1.213379 40
-2.737921 2.770928 1.214432 40
-2.732004 2.773499 1.214446 41
-2.722641 2.768893 1.213422 42
-2.715180 2.767763 1.212916 42
-2.709274 2.770258 1.212929 40
-2.701211 2.769332 1.212424 41
-2.697701 2.779372 1.213477 41
-2.685759 2.767122 1.211412 42
-2.681031 2.773323 1.211945 43
-2.674794 2.775830 1.211958 42
-2.668549 2.778315 1.211970 42
-2.660847 2.777086 1.211463 43
-2.653163 2.775825 1.210956 43
-2.648340 2.781937 1.211488 43
-2.640665 2.780622 1.210980 43
-2.636113 2.786583 1.211511 44
-2.627063 2.781499 1.210483 47
-2.620799 2.783818 1.210495 47
-2.615884 2.789841 1.211025 44
-2.609905 2.792007 1.211036 45
-2.602272 2.790530 1.210527 50
-2.597295 2.796502 1.211057 43
-2.585753 2.783737 1.208989 48
-2.580774 2.789661 1.209519 48
-2.577042 2.799325 1.210568 50
-2.569448 2.797711 1.210058 52
-2.566889 2.811116 1.211628 35
-2.556799 2.801924 1.210077 28
-2.552919 2.811539 1.211127 14
-2.544439 2.805946 1.210095 4
-2.532922 2.813767 1.210633 1
-2.528896 2.823333 1.211681 1
-2.517837 2.810141 1.209610 1
-2.512941 2.815777 1.210137 1
-2.507374 2.821593 1.210666 2
-2.500970 2.823493 1.210674 2
-2.496778 2.832987 1.211721 2
-2.489239 2.831039 1.211209 2
-2.483885 2.836692 1.211736 1
-2.479891 2.846058 1.212783 1
-2.473402 2.847862 1.212790 1
-2.462734 2.834338 1.210716 1
-2.458346 2.843743 1.211763 1
-2.449832 2.837805 1.210729 1
-2.448387 2.858690 1.213336 1
-2.438885 2.848863 1.211781 1
-2.430435 2.842836 1.210746 1
-2.425883 2.852163 1.211792 1
-2.419373 2.853779 1.211797 1
-2.415664 2.866934 1.213363 1
-2.407258 2.860800 1.212328 1
-2.400136 2.858413 1.211812 1
-2.393604 2.859939 1.211816 1
-2.389714 2.873042 1.213382 1
-2.382263 2.870662 1.212866 1
-2.377399 2.879871 1.213910 1
-2.367425 2.865815 1.211833 1
-2.361696 2.871105 1.212357 1
-2.359194 2.891904 1.214962 1
-2.349341 2.877750 1.212883 1
-2.343861 2.882918 1.213407 1
-2.337244 2.884248 1.213410 1
-2.333667 2.901123 1.215494 1
-2.328481 2.910207 1.216537 1
-2.321035 2.907585 1.216019 1
-2.516705 4.004755 1.362244 0
-2.507247 4.070955 1.370575 1
-2.497158 4.076756 1.371098 1
-2.487701 4.086433 1.372141 1
-2.465130 4.017843 1.362776 1
-2.464131 4.078302 1.370583 1
-2.453876 4.079958 1.370584 1
-2.435807 4.102854 1.373187 1
-2.424967 4.108501 1.373708 1
-2.414067 4.110107 1.373708 1
-2.403719 4.115602 1.374228 2
-2.393885 4.120986 1.374747 1
-2.382395 4.122557 1.374746 1
-2.373027 4.131806 1.375785 1
-2.363053 4.141098 1.376824 1
-2.351060 4.134616 1.375782 1
-2.340545 4.139902 1.376300 2
-2.329998 4.145152 1.376817 1
-2.319971 4.150303 1.377335 1
-2.308056 4.143658 1.376291 2
-2.296483 4.144914 1.376287 2
-2.285863 4.150016 1.376803 2
-2.275212 4.155083 1.377319 2
-2.264704 4.156113 1.377315 2
-2.253825 4.153158 1.376790 2
-2.243123 4.158116 1.377305 2
-2.232174 4.167038 1.378340 2
-2.221396 4.171923 1.378854 1
-2.210897 4.180725 1.379889 0
-2.182904 4.095334 1.368429 0
-2.167091 4.187846 1.380381 1
-2.156566 4.208378 1.382974 1
-2.129047 4.106680 1.369431 0
-2.112127 4.210789 1.382939 0
-2.099832 4.187529 1.379809 1
-2.078938 4.228065 1.384991 1
-2.067359 4.220534 1.383940 1
-2.056424 4.232784 1.385489 1
-2.045344 4.221193 1.383918 1
-2.034235 4.229403 1.384947 1
-2.022992 4.233610 1.385455 2
-2.011657 4.233811 1.385443 2
-2.000372 4.237940 1.385951 2
-1.989093 4.245995 1.386978 2
-1.977715 4.246078 1.386965 2
-1.966338 4.246122 1.386951 2
-1.954948 4.254058 1.387977 2
-1.943522 4.257988 1.388483 2
-1.931967 4.273776 1.390548 2
-1.920493 4.273660 1.390533 2
-1.909715 4.265582 1.389479 2
-1.898545 4.281260 1.391544 2
-1.887309 4.269132 1.389968 2
-1.875953 4.264895 1.389432 2
-1.863705 4.272496 1.390455 1
-1.852626 4.260250 1.388878 1
-1.842488 4.240060 1.386263 0
-1.859108 3.327813 1.266676 0
-1.850940 3.327448 1.266663 0
-1.843170 3.319132 1.265610 0
-1.836307 3.294949 1.262478 0
-1.829159 3.278666 1.260386 0
-1.820202 3.294032 1.262451 0
-1.812554 3.293557 1.262438 0
-1.805040 3.285115 1.261385 0
-1.796740 3.288518 1.261890 0
-1.788120 3.295846 1.262914 0
-1.769753 3.322263 1.266521 1
-1.760932 3.329490 1.267545 1
-1.751708 3.340634 1.269087 0
-1.652197 4.207709 1.383327 1
-1.643531 4.174988 1.379148 1
-1.644307 4.063452 1.364584 1
-1.623229 4.164934 1.378066 0
-1.717875 3.129966 1.241968 0
-1.698379 3.103700 1.238804 0
-1.687488 3.130316 1.242421 0
-1.683099 3.105757 1.239290 0
-1.676077 3.104828 1.239273 0
-1.669404 3.095917 1.238217 0
-1.661491 3.098818 1.238719 0
-1.653554 3.101689 1.239220 0
-1.647711 3.092816 1.238165 0
-1.640365 3.091714 1.238147 0
-1.632413 3.094506 1.238648 0
-1.618200 3.136436 1.244337 0
-1.612614 3.123487 1.242761 0
-1.607115 3.110526 1.241186 0
-1.595054 3.136653 1.244798 0
-1.592982 3.104105 1.240628 0
-1.575908 3.157488 1.247870 0
-1.573982 3.124912 1.243701 0
-1.565805 3.127453 1.244199 0
-1.559071 3.122167 1.243660 0
-1.439637 3.705058 1.321420 0
-1.399009 3.810284 1.335883 1
-1.391520 3.796648 1.334300 1
-1.382206 3.794749 1.334273 2
-1.370781 3.800481 1.335281 1
-1.359309 3.806166 1.336288 1
-1.348631 3.807930 1.336777 1
-1.337933 3.809654 1.337266 1
-1.332424 3.788116 1.334645 0
-1.327058 3.766575 1.332024 0
-1.326310 3.725710 1.326813 0
-1.328565 3.673292 1.320049 0
-1.324725 3.647927 1.316911 0
-1.316376 3.641840 1.316363 0
-1.309961 3.628026 1.314780 0
-1.300746 3.625742 1.314750 0
-1.295901 3.608165 1.312649 0
-1.288733 3.598150 1.311584 0
-1.287190 3.564974 1.307410 0
-1.302582 3.470595 1.294954 0
-1.300524 3.445419 1.291820 0
-1.297159 3.423969 1.289203 0
-1.293302 3.406465 1.287105 0
-1.295545 3.365926 1.281900 0
-1.299819 3.317686 1.275659 0
-1.294976 3.303932 1.274078 0
-1.270260 3.358721 1.281810 0
-1.194536 3.314517 1.278917 0
-1.175134 3.345701 1.283537 0
-1.189711 3.275291 1.274202 0
-1.175330 3.291361 1.276754 0
-1.172864 3.273748 1.274656 0
-1.145305 3.327170 1.282373 0
-1.135824 3.328054 1.282856 0
-1.123663 3.336373 1.284372 0
-1.110090 3.348367 1.286404 1
