# .PCD v.7 - Point Cloud Data file format
VERSION .7
FIELDS x y z intensity
SIZE 4 4 4 1
TYPE F F F U
COUNT 1 1 1 1
WIDTH 1539
HEIGHT 1
VIEWPOINT 0 0 0 1 0 0 0
POINTS 1539
DATA ascii
7.811520 7.760378 0.519330 18
7.891071 7.764733 0.516500 16
7.983976 7.777629 0.513073 15
8.067163 7.783232 0.510086 17
8.149322 7.790101 0.507111 16
8.236148 7.796939 0.503967 15
8.316481 7.798838 0.501117 16
8.413649 7.811240 0.497517 15
8.497637 7.814307 0.494509 16
8.595193 7.825562 0.490900 15
8.689590 7.834057 0.487434 13
8.777435 7.837677 0.484263 15
8.875567 7.847180 0.480639 15
8.967125 7.851829 0.477308 15
9.065631 7.860149 0.473674 13
9.167727 7.869967 0.469884 12
9.262010 7.876933 0.466407 15
9.371318 7.889689 0.462307 15
9.470587 7.895565 0.458652 16
9.565400 7.900788 0.455159 15
9.665014 7.905473 0.451493 15
9.775127 7.915640 0.447371 13
9.883211 7.921036 0.443376 13
9.997195 7.931832 0.439091 15
10.103258 7.940032 0.435121 15
10.217659 7.949446 0.430825 14
10.325317 7.954204 0.426824 16
10.440124 7.962212 0.422516 14
10.551644 7.967555 0.418352 14
10.680840 7.981878 0.413427 14
10.796268 7.987693 0.409100 14
10.911891 7.992787 0.404767 14
11.038257 8.002852 0.399973 13
11.164847 8.012120 0.395172 13
11.295191 8.022462 0.390213 14
11.420999 8.032454 0.385419 15
11.548247 8.039330 0.380597 14
11.686356 8.050913 0.375313 14
11.814038 8.056144 0.370478 12
11.963299 8.071441 0.364722 12
12.091418 8.074984 0.359872 12
12.237607 8.086653 0.354253 12
12.391210 8.100937 0.348320 11
12.537908 8.110709 0.342685 11
12.677659 8.116045 0.337347 5
12.799623 8.111805 0.332767 5
12.871251 8.082658 0.330323 5
12.805601 7.988047 0.333698 5
12.902278 7.970447 0.330179 5
13.028001 7.965749 0.325427 7
13.179278 7.971975 0.319594 8
13.325927 7.978237 0.313930 6
13.488564 7.987504 0.307620 8
13.662390 8.000630 0.300839 8
13.841371 8.011494 0.293870 12
14.012095 8.020706 0.287224 10
14.176974 8.022799 0.280852 6
14.365313 8.040562 0.273440 6
14.557618 8.058723 0.265864 6
14.755137 8.074330 0.258097 6
14.949279 8.087096 0.250474 7
15.143710 8.098592 0.242840 7
15.345818 8.111858 0.234886 7
15.551926 8.125307 0.226766 7
15.758335 8.137403 0.218634 7
15.981137 8.150942 0.209843 7
16.191870 8.161706 0.201532 7
16.412807 8.178659 0.192771 7
16.639038 8.192424 0.183814 7
16.865585 8.204696 0.174845 8
17.107391 8.221141 0.165240 8
17.330828 8.228964 0.156401 5
17.517076 8.221402 0.149109 5
17.668482 8.203651 0.143242 6
17.734840 8.150112 0.140931 6
17.819866 8.102960 0.137835 6
17.780531 8.011102 0.139898 6
17.793585 7.938171 0.139772 3
17.821468 7.870488 0.139020 3
17.849119 7.802695 0.138267 3
17.853834 7.727072 0.138455 3
17.918882 7.671875 0.136132 3
17.911655 7.438664 0.137484 54
18.029169 7.399769 0.132951 18
7.818069 2.926027 0.557825 0
7.279414 2.785883 0.579968 0
6.794872 2.660010 0.599882 0
6.285999 2.533131 0.620794 0
4.833535 2.164619 0.680446 1
4.676020 2.113543 0.686895 0
4.161790 1.938757 0.707910 0
4.121589 1.910801 0.709521 0
4.108944 1.887228 0.709994 0
4.088297 1.862613 0.710794 0
4.099066 1.843667 0.710300 1
4.054488 1.815986 0.712081 2
4.045443 1.793396 0.712396 2
4.060093 1.773976 0.711730 3
4.031066 1.748939 0.712863 4
4.009871 1.725091 0.713670 5
4.012394 1.704247 0.713496 5
3.998843 1.682592 0.713986 5
4.001334 1.660747 0.713804 5
3.999659 1.639500 0.713795 5
4.009831 1.619531 0.713293 3
4.000058 1.597473 0.713612 1
3.990202 1.575490 0.713932 1
3.956296 1.552351 0.715249 1
3.954236 1.531332 0.715242 0
3.972008 1.512085 0.714411 0
3.991428 1.471949 0.713407 2
4.009006 1.452406 0.712574 1
3.994556 1.431428 0.713071 1
3.988081 1.410076 0.713229 1
3.997548 1.388806 0.712718 1
3.998897 1.368008 0.712545 1
4.004162 1.347444 0.712207 1
4.013288 1.328115 0.711712 1
4.010434 1.307050 0.711706 1
4.015540 1.285362 0.711359 1
4.020473 1.265729 0.711029 0
4.033370 1.245362 0.710357 0
4.046198 1.224908 0.709685 0
4.054963 1.204225 0.709179 0
4.027705 1.182329 0.710173 0
4.024338 1.161312 0.710167 0
4.040873 1.140823 0.709328 0
4.021356 1.120486 0.709999 0
4.352832 0.423213 0.689382 0
4.330913 0.403037 0.690057 1
4.328924 0.382178 0.689889 2
4.346639 0.358237 0.688856 2
4.360173 0.333475 0.687985 2
4.385649 0.308429 0.686609 1
4.379375 0.287830 0.686610 0
4.388789 0.264344 0.685918 0
-31.245089 1.055712 -0.196771 5
-31.044872 1.156781 -0.188045 5
-31.443819 1.261984 -0.202978 5
-31.542637 1.366162 -0.206074 5
-31.641087 1.471033 -0.209164 5
-31.751152 1.576832 -0.212721 5
-31.836983 1.677635 -0.215372 5
-32.813335 1.807861 -0.253005 6
-32.159805 2.001543 -0.225835 23
-32.675243 2.233515 -0.244634 6
-32.606861 2.337904 -0.241256 6
-32.669624 2.453447 -0.243000 6
-33.187279 2.587375 -0.262600 6
-32.826641 2.671560 -0.247858 6
-31.900640 2.830821 -0.210393 11
-31.451670 2.901395 -0.192288 16
-31.018169 2.975171 -0.174789 16
-30.572559 3.045084 -0.156848 16
-30.154718 3.114014 -0.140022 15
-29.768625 3.182565 -0.124462 15
-29.358501 3.246479 -0.107992 15
-28.976149 3.309950 -0.092632 14
-28.589710 3.370425 -0.077139 14
-28.282780 3.435625 -0.064766 14
-27.880236 3.489505 -0.048696 13
-27.513435 3.544182 -0.034040 13
-27.174856 3.594809 -0.020523 13
-26.832251 3.642796 -0.006870 12
-26.540787 3.698511 0.004792 12
-26.245268 3.751772 0.016592 12
-26.037014 3.813245 0.024984 8
-26.122276 3.908770 0.021964 12
-25.937443 3.971387 0.029416 12
-25.673172 4.022608 0.039935 11
-25.349396 4.064208 0.052744 15
-25.037502 4.105189 0.065075 18
-24.756735 4.152398 0.076192 18
-24.484966 4.190856 0.086923 17
-24.200764 4.229703 0.098130 21
-23.928427 4.268375 0.108861 16
-23.660046 4.305789 0.119424 19
-23.407471 4.343840 0.129361 22
-23.159431 4.377101 0.139101 25
-22.918705 4.413699 0.148551 18
-22.646444 4.443393 0.159209 24
-22.413635 4.477947 0.168327 20
-22.184776 4.511605 0.177279 23
-21.959869 4.544407 0.186067 24
-21.742849 4.577109 0.194537 24
-21.510124 4.605432 0.203604 21
-21.297083 4.635878 0.211898 23
-21.087996 4.665635 0.220029 23
-20.882860 4.694745 0.227996 22
-20.681677 4.723250 0.235800 22
-20.472692 4.748806 0.243896 22
-20.279417 4.776184 0.251375 23
-20.082932 4.798274 0.258969 23
-19.909286 4.827246 0.265671 21
-19.727850 4.853353 0.272665 22
-19.534742 4.875652 0.280102 20
-19.368998 4.902787 0.286473 22
-19.191587 4.926141 0.293287 21
-19.025909 4.951016 0.299639 21
-18.864161 4.975701 0.305832 21
-18.686899 4.995582 0.312617 21
-18.533010 5.019940 0.318491 20
-18.375277 5.042316 0.324507 18
-18.205957 5.060725 0.330964 22
-18.040585 5.078988 0.337263 20
-17.913988 5.106131 0.342053 28
-17.752598 5.123332 0.348185 22
-17.602873 5.142534 0.353858 22
-17.460928 5.162819 0.359225 18
-17.311319 5.180060 0.364883 24
-17.173340 5.199505 0.370084 21
-17.035412 5.218039 0.375279 19
-16.886745 5.229777 0.380893 24
-16.756632 5.248684 0.385774 21
-16.618896 5.264497 0.390946 24
-16.488899 5.281665 0.395813 24
-16.358961 5.297977 0.400673 17
-16.232914 5.314595 0.405378 22
-16.110746 5.331558 0.409927 17
-15.977185 5.344164 0.414915 21
-15.858962 5.360687 0.419303 22
-15.736986 5.375226 0.423832 22
-15.611274 5.387741 0.428503 22
-15.504646 5.405628 0.432428 21
-15.383648 5.415472 0.436920 24
-15.261961 5.426884 0.441425 21
-15.151721 5.441336 0.445479 22
-15.056675 5.460237 0.448938 21
-14.938989 5.470702 0.453276 24
-14.844032 5.488307 0.456724 22
-14.718958 5.494657 0.461346 22
-14.624114 5.510941 0.464783 22
-14.518034 5.522546 0.468657 22
-14.419538 5.536207 0.472231 22
-14.321099 5.549236 0.475800 22
-14.215232 5.558841 0.479657 22
-14.113190 5.569171 0.483362 22
-14.022432 5.583114 0.486623 24
-13.935457 5.597914 0.489732 23
-13.841881 5.607193 0.493113 24
-13.747568 5.617959 0.496506 24
-13.652516 5.630164 0.499909 24
-13.562867 5.639173 0.503130 24
-13.465064 5.646649 0.506654 24
-13.382152 5.659550 0.509590 27
-13.299290 5.671929 0.512521 26
-13.211973 5.684212 0.515609 24
-13.132907 5.697073 0.518386 60
-13.053890 5.709441 0.521159 30
-12.971250 5.719737 0.524074 28
-12.874004 5.723151 0.527565 25
-12.799668 5.733673 0.530166 25
-12.717241 5.742402 0.533068 23
-12.642186 5.753870 0.535676 22
-12.568017 5.763021 0.538266 27
-12.482151 5.768612 0.541301 27
-12.403644 5.776993 0.544042 23
-12.339719 5.791598 0.546200 23
-12.257709 5.797361 0.549078 26
-12.186634 5.807721 0.551519 23
-12.115614 5.817643 0.553956 22
-12.037440 5.823671 0.556678 23
-11.962948 5.830954 0.559252 23
-11.902896 5.844792 0.561246 21
-11.839284 5.856503 0.563382 21
-11.758661 5.857225 0.566220 21
-11.691589 5.866325 0.568492 21
-9.264134 6.152189 0.698979 12
-9.216764 6.156781 0.700215 14
-9.162954 6.156444 0.701683 13
-9.119860 6.161571 0.702789 12
-9.084702 6.176011 0.703562 12
-9.040770 6.181933 0.704674 12
-9.000098 6.189988 0.705668 12
-8.940210 6.183501 0.707356 11
-8.894157 6.185042 0.708569 13
-8.860032 6.197171 0.709325 9
-8.819540 6.204285 0.710311 11
-8.782257 6.213612 0.711179 10
-8.731417 6.214156 0.712518 12
-8.684732 6.215679 0.713730 13
-8.645331 6.220702 0.714700 12
-8.605057 6.226680 0.715677 11
-8.567954 6.234928 0.716537 11
-8.524629 6.237987 0.717626 13
-8.484478 6.243315 0.718598 13
-8.438158 6.243390 0.719798 12
-8.391917 6.243207 0.720997 13
-8.358109 6.252924 0.721733 11
-8.318153 6.257368 0.722698 9
-8.281316 6.264159 0.723546 12
-8.229201 6.257896 0.724967 19
-8.204679 6.274580 0.725353 13
-8.161856 6.275597 0.726426 11
-8.116991 6.272699 0.727604 13
-8.083393 6.281087 0.728329 12
-8.040764 6.281430 0.729397 10
-8.010236 6.292080 0.730005 13
-7.976709 6.299937 0.730727 13
-7.935162 6.298614 0.731782 13
-7.901703 6.306107 0.732501 13
-7.866222 6.309723 0.733325 16
-7.828926 6.315213 0.734162 21
-7.786695 6.314088 0.735218 13
-7.744544 6.312734 0.736272 10
-7.717137 6.324739 0.736756 11
-7.680947 6.328434 0.737579 13
-7.647716 6.334679 0.738288 12
-7.615444 6.339771 0.738988 13
-7.582267 6.345689 0.739694 13
-7.537576 6.340369 0.740853 12
-7.507370 6.348692 0.741442 12
-7.465709 6.345718 0.742484 12
-7.441275 6.359306 0.742845 11
-7.402580 6.358749 0.743770 10
-7.378140 6.372078 0.744129 11
-7.342365 6.373990 0.744938 12
-7.309461 6.378556 0.745634 13
-7.274724 6.379183 0.746434 12
-7.236303 6.377703 0.747352 12
-7.203533 6.381754 0.748043 14
-7.165243 6.379890 0.748959 14
-7.135334 6.386483 0.749534 13
-7.106384 6.392034 0.750103 9
-7.073764 6.395441 0.750789 11
-7.040238 6.399572 0.751480 12
-7.011368 6.404693 0.752045 12
-6.984291 6.413492 0.752503 13
-6.949093 6.413339 0.753296 13
-6.913958 6.413007 0.754088 14
-6.881572 6.415458 0.754767 13
-6.846554 6.414778 0.755556 13
-6.816932 6.419879 0.756120 13
-6.784678 6.421852 0.756795 14
-6.753418 6.422828 0.757463 12
-6.729162 6.433511 0.757800 11
-6.699640 6.438057 0.758360 11
-6.672759 6.445490 0.758807 13
-6.640677 6.446732 0.759476 14
-6.608644 6.447815 0.760144 13
-6.581825 6.454849 0.760587 12
-6.549870 6.455637 0.761253 13
-6.520527 6.459341 0.761806 12
-6.491215 6.462905 0.762357 13
-6.451776 6.453978 0.763353 13
-6.423522 6.456453 0.763897 14
-6.401902 6.468893 0.764112 13
-6.372727 6.471905 0.764660 13
-6.341090 6.471656 0.765317 13
-6.314478 6.477518 0.765751 14
-6.262253 6.488134 0.766612 34
-6.238135 6.496801 0.766933 34
-6.209125 6.499036 0.767475 26
-6.172858 6.491611 0.768346 13
-6.146375 6.496732 0.768775 13
-6.122316 6.504928 0.769092 13
-6.086263 6.497023 0.769960 14
-6.059861 6.501766 0.770386 13
-6.033477 6.506393 0.770810 15
-6.010438 6.513421 0.771119 13
-5.985044 6.517124 0.771537 13
-5.961047 6.524658 0.771849 12
-5.931419 6.526289 0.772384 14
-5.899125 6.519886 0.773130 15
-5.873844 6.523124 0.773545 15
-5.846653 6.527612 0.773967 15
-5.818162 6.528021 0.774494 14
-5.796539 6.538165 0.774690 16
-5.763579 6.531742 0.775435 15
-5.736496 6.535729 0.775853 15
-5.711372 6.538283 0.776263 16
-5.683076 6.538062 0.776785 14
-5.654827 6.537711 0.777306 14
-5.633241 6.547238 0.777497 16
-5.605053 6.546651 0.778016 16
-5.580066 6.548656 0.778421 15
-5.555335 6.555168 0.778723 14
-5.534707 6.563693 0.778908 14
-5.506648 6.562643 0.779423 16
-5.480774 6.564846 0.779828 17
-5.457052 6.570324 0.780123 16
-5.432198 6.571703 0.780523 17
-5.412698 6.583788 0.780599 20
-5.388981 6.588985 0.780891 19
-5.361116 6.587251 0.781402 22
-5.336456 6.592828 0.781696 21
-5.310729 6.594284 0.782096 20
-5.285032 6.595627 0.782494 20
-5.255311 6.589968 0.783109 19
-5.231717 6.594529 0.783397 23
-5.209110 6.598427 0.783681 18
-5.183542 6.599332 0.784076 19
-5.157029 6.600686 0.784473 17
-5.133495 6.604848 0.784758 17
-5.110951 6.608365 0.785038 17
-5.087439 6.612340 0.785321 17
-5.063937 6.616220 0.785604 18
-5.041428 6.619466 0.785882 19
-5.017949 6.623158 0.786163 18
-4.995393 6.630806 0.786338 17
-4.973808 6.637838 0.786509 16
-4.949456 6.637198 0.786892 17
-4.926014 6.640517 0.787170 18
-4.902586 6.643742 0.787447 16
-4.877337 6.643318 0.787832 17
-4.853949 6.646346 0.788107 15
-4.828766 6.645714 0.788490 17
-4.807215 6.652120 0.788656 18
-4.780303 6.647709 0.789145 17
-4.758771 6.653934 0.789310 16
-4.734701 6.652411 0.789687 14
-4.714166 6.657983 0.789847 17
-4.690900 6.660357 0.790117 16
-4.664206 6.655419 0.790602 16
-4.644419 6.664823 0.790655 16
-4.619507 6.663297 0.791031 15
-4.598009 6.668918 0.791191 15
-4.576503 6.674459 0.791349 15
-4.550014 6.669004 0.791831 16
-4.526887 6.670722 0.792096 16
-4.504771 6.671903 0.792358 17
-4.483306 6.677095 0.792514 18
-4.461835 6.682207 0.792669 17
-4.435572 6.676239 0.793146 21
-4.414130 6.681173 0.793300 19
-4.394255 6.689704 0.793346 17
-4.371234 6.690801 0.793606 16
-4.349781 6.695493 0.793758 17
-4.326792 6.696413 0.794016 16
-4.302307 6.693542 0.794382 15
-4.280883 6.697978 0.794532 22
-4.265429 6.717172 0.794251 39
-4.234583 6.695071 0.795149 33
-4.214660 6.702975 0.795190 38
-4.193255 6.707085 0.795337 34
-4.173290 6.714845 0.795376 18
-4.146154 6.703862 0.795951 17
-4.123370 6.703978 0.796203 18
-4.102014 6.707749 0.796348 21
-4.080657 6.711442 0.796491 22
-4.060678 6.718808 0.796527 16
-4.037947 6.718587 0.796777 17
-4.016593 6.722041 0.796919 15
-3.992565 6.717879 0.797274 15
-3.973888 6.728711 0.797201 15
-3.948606 6.720595 0.797662 14
-3.928596 6.727500 0.797694 15
-3.905993 6.726763 0.797939 16
-3.884419 6.725602 0.798183 16
-3.865651 6.736079 0.798106 13
-3.844341 6.738895 0.798243 13
-3.821803 6.737829 0.798486 17
-3.801734 6.744292 0.798514 14
-3.778025 6.739247 0.798863 16
-3.754374 6.734107 0.799210 21
-3.735496 6.744156 0.799130 18
-3.711908 6.738843 0.799477 21
-3.694140 6.752580 0.799288 19
-3.670603 6.747098 0.799633 21
-3.650502 6.753034 0.799658 20
-3.629268 6.755058 0.799788 21
-3.610238 6.764693 0.799704 17
-3.589998 6.766285 0.799832 16
-3.566613 6.760383 0.800174 15
-3.547525 6.769810 0.800088 15
-3.526300 6.771456 0.800215 14
-3.507147 6.780751 0.800129 14
-3.484892 6.778382 0.800361 13
-3.462672 6.775928 0.800593 14
-3.443464 6.785011 0.800505 15
-3.422253 6.786276 0.800629 14
-3.402017 6.791344 0.800645 13
-3.379921 6.784442 0.800981 13
-3.357815 6.781589 0.801209 15
-3.334736 6.778892 0.801438 15
-3.317359 6.791204 0.801239 16
-3.296323 6.787880 0.801465 18
-3.276966 6.796408 0.801372 17
-3.253070 6.789487 0.801705 18
-3.230955 6.790280 0.801824 21
-3.209021 6.786863 0.802048 24
-3.188967 6.787061 0.802165 26
-3.169545 6.795229 0.802068 26
-3.153289 6.819002 0.801546 41
-3.129786 6.807450 0.801981 25
-3.108943 6.803451 0.802202 28
-3.089664 6.807229 0.802209 26
-3.067592 6.807401 0.802323 25
-3.045816 6.803370 0.802543 24
-3.026242 6.811057 0.802442 25
-3.005215 6.810807 0.802554 22
-2.984203 6.810481 0.802665 21
-2.965243 6.821901 0.802456 25
-2.942888 6.813545 0.802779 23
-2.923211 6.820885 0.802676 26
-2.902857 6.824211 0.802678 26
-2.882492 6.827466 0.802680 21
-2.862114 6.830649 0.802681 20
-2.839937 6.821900 0.803001 25
-2.823659 6.852627 0.802256 32
-2.800919 6.839774 0.802682 23
-2.779853 6.830650 0.803000 27
-2.759465 6.833476 0.802998 25
-2.738540 6.832266 0.803102 25
-2.718662 6.838913 0.802993 23
-2.698246 6.841525 0.802989 21
-2.677334 6.840096 0.803092 26
-2.657387 6.846534 0.802980 23
-2.636027 6.840988 0.803188 22
-2.616180 6.839223 0.803289 25
-2.597059 6.853403 0.802963 26
-2.576593 6.855590 0.802956 26
-2.555716 6.853728 0.803055 23
-2.534859 6.851791 0.803153 26
-2.514399 6.853762 0.803144 25
-2.494295 6.859643 0.803028 20
-2.473808 6.861471 0.803018 21
-2.453315 6.863228 0.803008 19
-2.432495 6.860928 0.803103 23
-2.412414 6.854488 0.803305 21
-2.393557 6.863931 0.803080 18
-2.371751 6.861491 0.803173 23
-2.350993 6.858902 0.803266 22
-2.330761 6.864222 0.803145 21
-2.310021 6.861487 0.803237 26
-2.291228 6.874592 0.802903 56
-2.270058 6.863733 0.803207 52
-2.249121 6.876810 0.802870 47
-2.228394 6.873788 0.802959 46
-2.208886 6.874646 0.802942 26
-2.188658 6.883469 0.802711 26
-2.167062 6.884267 0.802691 20
-2.147519 6.884920 0.802672 19
-2.126946 6.885538 0.802652 17
-2.106470 6.890082 0.802525 18
-2.085880 6.890556 0.802504 21
-2.065359 6.894957 0.802375 21
-2.044751 6.895288 0.802353 18
-2.025129 6.891538 0.802438 24
-2.004533 6.891728 0.802414 21
-1.982939 6.899848 0.802175 23
-1.962314 6.899892 0.802150 21
-1.942721 6.899867 0.802126 19
-1.922072 6.903768 0.801993 23
-1.901395 6.907597 0.801860 21
-1.880798 6.903358 0.801939 21
-1.860027 6.911041 0.801698 22
-1.839202 6.918651 0.801456 21
-1.819926 6.902227 0.801856 22
-1.799077 6.909695 0.801612 28
-1.778175 6.917090 0.801368 23
-1.757492 6.916419 0.801337 23
-1.736360 6.927662 0.800985 18
-1.715969 6.918855 0.801167 21
-1.695102 6.921961 0.801027 21
-1.674017 6.928987 0.800780 26
-1.652675 6.939932 0.800425 25
-1.632353 6.930837 0.800605 26
-1.611623 6.929657 0.800570 24
-1.590401 6.936385 0.800320 23
-1.569128 6.943038 0.800069 27
-1.548080 6.945626 0.799925 30
-1.527298 6.944151 0.799888 24
-1.506523 6.942604 0.799850 23
-1.486474 6.945053 0.799706 25
-1.465364 6.947348 0.799559 30
-1.443543 6.957535 0.799197 31
-1.422362 6.959678 0.799049 29
-1.401905 6.953783 0.799115 24
-1.379937 6.963737 0.798751 30
-1.359894 6.953719 0.798924 30
-1.338258 6.959541 0.798666 30
-1.316573 6.965285 0.798408 29
-1.296609 6.955054 0.798578 31
-1.276381 6.956793 0.798428 30
-1.255199 6.966406 0.798063 27
-1.233865 6.967878 0.797909 27
-1.210972 6.973111 0.797645 26
-1.190097 6.970460 0.797597 25
-1.170274 6.967873 0.797552 22
-1.146760 6.976824 0.797178 19
-1.124769 6.981869 0.796913 21
-1.104344 6.983024 0.796758 21
-1.084593 6.972087 0.796923 23
-1.062536 6.976903 0.796657 26
-1.041042 6.977686 0.796497 25
-1.019957 6.982506 0.796232 26
-0.997784 6.987083 0.795963 21
-0.978156 6.975796 0.796126 21
-0.954629 6.988106 0.795640 26
-0.932354 6.992442 0.795369 26
-0.910036 6.996695 0.795097 20
-0.889081 6.992992 0.795041 21
-0.868138 6.989217 0.794985 26
-0.845020 6.997163 0.794603 25
-0.822272 6.996964 0.794434 25
-0.799335 7.008862 0.793945 26
-0.777847 7.012827 0.793672 24
-0.757620 7.004743 0.793721 26
-0.734245 7.012263 0.793335 26
-0.710562 7.015560 0.793054 23
-0.687891 7.018986 0.792775 28
-0.666234 7.022553 0.792499 21
-0.644138 7.017770 0.792432 25
-0.620511 7.024850 0.792043 22
-0.599632 7.024275 0.791873 24
-0.575011 7.035079 0.791373 21
-0.553017 7.034102 0.791199 21
-0.531013 7.033044 0.791023 22
-0.508999 7.031907 0.790848 23
-0.484135 7.042344 0.790344 23
-0.465038 7.033534 0.790388 25
-0.440062 7.043791 0.789884 20
-0.420920 7.030698 0.790032 23
-0.396846 7.036902 0.789635 23
-0.373725 7.039144 0.789346 19
-0.349542 7.045162 0.788947 22
-0.327380 7.043364 0.788765 26
-0.309429 7.026057 0.789020 56
-0.283034 7.039524 0.788400 47
-0.257607 7.049031 0.787889 44
-0.232093 7.058434 0.787376 21
-0.208710 7.060048 0.787082 21
-0.186416 7.057735 0.786896 25
-0.160711 7.066843 0.786381 19
-0.140575 7.060842 0.786307 21
-0.114656 7.073906 0.785685 20
-0.091088 7.075072 0.785386 24
-0.068677 7.072329 0.785197 21
-0.045062 7.073318 0.784897 25
-0.019141 7.077686 0.784482 26
0.003320 7.074679 0.784290 27
0.028443 7.083339 0.783772 27
0.050948 7.080158 0.783579 22
0.075990 7.084478 0.783165 24
0.099805 7.084909 0.782860 17
0.124942 7.089032 0.782445 19
0.148827 7.089275 0.782138 17
0.171418 7.085650 0.781941 17
0.195612 7.089858 0.781528 18
0.220640 7.089446 0.781214 20
0.247349 7.096838 0.780684 21
0.271697 7.100752 0.780268 25
0.294393 7.096675 0.780067 23
0.321281 7.103753 0.779534 22
0.346835 7.106976 0.779110 18
0.372439 7.110095 0.778685 21
0.399530 7.116840 0.778149 25
0.423415 7.111876 0.777940 24
0.449154 7.114682 0.777513 20
0.476826 7.125239 0.776867 25
0.501616 7.128258 0.776443 24
0.526024 7.127039 0.776124 19
0.553039 7.128987 0.775688 17
0.577502 7.127567 0.775367 18
0.603527 7.129741 0.774935 20
0.626973 7.128575 0.774617 20
0.653075 7.130544 0.774183 26
0.676066 7.125059 0.773970 22
0.705416 7.134160 0.773311 16
0.734861 7.143131 0.772650 22
0.761168 7.144657 0.772212 22
0.789147 7.149726 0.771661 26
0.813910 7.147383 0.771332 23
0.843656 7.155861 0.770667 16
0.870159 7.156939 0.770225 25
0.898384 7.161534 0.769670 17
0.923905 7.162889 0.769231 23
0.948839 7.160017 0.768898 21
0.975505 7.160657 0.768452 21
1.000481 7.157582 0.768117 25
1.030700 7.165203 0.767444 19
1.057497 7.165503 0.766995 21
1.084333 7.165691 0.766545 22
1.112987 7.169347 0.765982 17
1.143496 7.176452 0.765305 17
1.172287 7.179851 0.764739 21
1.206593 7.193808 0.763834 16
1.226392 7.179162 0.763830 19
1.260869 7.192841 0.762922 20
1.286205 7.188643 0.762578 21
1.320887 7.202023 0.761668 16
1.347100 7.201696 0.761215 16
1.374430 7.200683 0.760754 15
1.403697 7.203070 0.760179 16
1.429190 7.198309 0.759830 18
1.458546 7.200451 0.759253 17
1.489899 7.205960 0.758562 19
1.519379 7.207837 0.757983 19
1.550879 7.213065 0.757290 18
1.582458 7.218149 0.756595 18
1.616104 7.226557 0.755785 17
1.643848 7.224421 0.755315 17
1.667595 7.215257 0.755071 30
1.697397 7.216346 0.754485 32
1.726164 7.217947 0.753905 28
1.762214 7.229077 0.752975 13
1.793294 7.229097 0.752378 16
1.821262 7.226214 0.751902 17
1.857596 7.236859 0.750968 17
1.894049 7.247325 0.750032 17
1.924296 7.247422 0.749437 14
1.955619 7.251457 0.748734 17
1.988104 7.254663 0.748022 14
2.020658 7.257720 0.747310 14
2.046817 7.250521 0.746939 15
2.077307 7.249937 0.746339 12
2.114378 7.259273 0.745393 17
2.154848 7.275835 0.744223 41
2.177865 7.265492 0.743971 13
2.214110 7.270264 0.743128 12
2.253798 7.282232 0.742061 13
2.284675 7.280742 0.741452 13
2.320088 7.285726 0.740612 10
2.346550 7.277345 0.740232 13
2.382090 7.282018 0.739389 14
2.415432 7.283237 0.738661 13
2.453423 7.290849 0.737699 13
2.484604 7.288472 0.737083 15
2.521672 7.296512 0.736127 13
2.563373 7.306049 0.735037 14
2.597082 7.306433 0.734301 14
2.635550 7.313127 0.733332 13
2.658848 7.301079 0.733065 14
2.697451 7.307446 0.732093 13
2.736154 7.313619 0.731119 10
2.777352 7.322800 0.730027 13
2.821077 7.334964 0.728817 13
2.852857 7.330975 0.728187 14
2.891954 7.336370 0.727206 13
2.928706 7.338402 0.726341 13
2.967983 7.343413 0.725356 13
3.002431 7.341926 0.724604 12
3.035820 7.341148 0.723859 13
3.077815 7.348742 0.722753 13
3.119923 7.356119 0.721645 13
3.159639 7.360163 0.720653 13
3.196930 7.360900 0.719776 14
3.234288 7.361453 0.718897 12
3.271713 7.361823 0.718017 12
3.309203 7.362010 0.717135 9
3.354434 7.371228 0.715899 8
3.396109 7.378080 0.714787 10
3.436424 7.380728 0.713782 10
3.471642 7.377081 0.713011 11
3.517303 7.385413 0.711768 9
3.557866 7.387448 0.710757 10
3.598509 7.389277 0.709746 10
3.641865 7.393909 0.708614 11
3.687963 7.401318 0.707362 11
3.731528 7.405490 0.706226 11
3.775189 7.409437 0.705088 9
3.815154 7.411192 0.704077 8
3.853629 7.408774 0.703172 11
3.901361 7.414004 0.701900 10
3.950793 7.422946 0.700517 9
3.997643 7.428686 0.699251 9
4.041879 7.431252 0.698101 11
4.082345 7.431726 0.697078 9
4.124004 7.430941 0.696043 9
4.171242 7.435737 0.694769 12
4.224119 7.446055 0.693253 14
4.279918 7.458961 0.691616 11
4.316381 7.451479 0.690812 11
4.361256 7.452397 0.689647 10
4.409018 7.455927 0.688362 10
4.465329 7.467719 0.686714 12
4.515017 7.474669 0.685315 13
4.560284 7.474582 0.684142 11
4.606760 7.473112 0.682956 13
4.655036 7.475341 0.681659 12
4.714867 7.488468 0.679879 10
4.769121 7.495697 0.678336 11
4.817737 7.497089 0.677032 11
4.866445 7.498220 0.675725 10
4.917010 7.503039 0.674307 9
4.977557 7.514603 0.672513 10
5.035345 7.523094 0.670837 10
5.081550 7.520385 0.669641 9
5.130763 7.520142 0.668323 10
5.188910 7.527728 0.666639 10
5.241276 7.529613 0.665194 15
5.299681 7.536565 0.663504 3
5.501191 7.671213 0.655987 3
5.444592 7.530280 0.659646 15
5.476385 7.512302 0.659041 23
5.490052 7.478426 0.659165 18
5.515670 7.454996 0.658802 13
5.571548 7.457513 0.657219 8
5.785735 7.594613 0.649287 16
5.833143 7.588202 0.648060 13
5.883661 7.584114 0.646708 14
5.943453 7.587439 0.644987 17
6.014522 7.602025 0.642786 20
6.077671 7.607183 0.640936 17
6.134761 7.606919 0.639329 43
6.195051 7.608857 0.637596 33
6.252339 7.607946 0.635983 41
6.325329 7.619204 0.633752 37
6.379714 7.615111 0.632256 38
6.471841 7.640430 0.629280 14
6.539063 7.645466 0.627285 15
6.600109 7.645206 0.625533 13
6.667587 7.649486 0.623531 14
6.744718 7.660671 0.621155 13
6.818850 7.668978 0.618899 11
6.876029 7.666342 0.617272 12
6.950441 7.673842 0.615009 11
7.030259 7.687250 0.612509 13
7.099743 7.687527 0.610472 9
7.181074 7.698440 0.607949 11
7.262590 7.708866 0.605422 13
7.324852 7.704746 0.603637 13
7.403437 7.711931 0.601227 13
7.559915 7.726561 0.596409 15
7.640154 7.730679 0.593972 15
7.725935 7.740561 0.591295 15
7.795460 7.738553 0.589240 15
7.886980 7.753701 0.586320 13
7.975404 7.766063 0.583522 12
8.046517 7.760970 0.581439 15
8.146418 7.777266 0.578239 13
8.225407 7.781420 0.575804 12
8.309053 7.785538 0.573222 13
8.412903 7.802323 0.569883 13
8.490198 7.801002 0.567544 12
8.581038 7.807908 0.564697 12
8.678781 7.818582 0.561594 11
8.769981 7.824360 0.558738 15
8.868111 7.833856 0.555625 13
8.952888 7.834252 0.553012 15
9.059361 7.844892 0.549618 11
9.151251 7.848383 0.546743 13
9.262556 7.865804 0.543120 15
9.354802 7.868122 0.540234 12
9.462095 7.876145 0.536819 15
9.556900 7.881339 0.533814 13
9.665615 7.894145 0.530296 13
9.766617 7.896123 0.527117 12
9.870035 7.901533 0.523825 13
9.987469 7.914323 0.520017 12
10.094737 7.920400 0.516585 13
10.205665 7.927791 0.513020 13
10.321482 7.934317 0.509302 13
10.431596 7.942458 0.505745 13
10.555870 7.957722 0.501670 13
10.664099 7.960370 0.498209 13
10.790030 7.971947 0.494101 14
10.917416 7.980482 0.489967 11
11.047332 7.992341 0.485718 11
11.158629 7.996253 0.482124 9
11.299582 8.012163 0.477475 10
11.423107 8.017880 0.473462 8
11.553924 8.026512 0.469185 12
11.692067 8.037984 0.464643 14
11.816217 8.041289 0.460610 12
11.961947 8.054669 0.455795 10
12.097223 8.061726 0.451360 12
12.243448 8.073277 0.446529 10
12.397092 8.087435 0.441432 11
12.543825 8.097087 0.436585 11
12.690799 8.105802 0.431731 11
12.856020 8.122246 0.426219 11
13.016678 8.138515 0.420852 10
13.178853 8.151154 0.415452 12
13.334058 8.159353 0.410304 12
13.489502 8.166555 0.405148 10
13.656076 8.177774 0.399592 10
13.819278 8.186257 0.394157 8
13.990013 8.196980 0.388452 10
14.161013 8.206598 0.382738 8
14.339581 8.218350 0.376753 9
14.522087 8.230551 0.370627 6
14.701208 8.239970 0.364622 6
14.887937 8.251390 0.358345 7
15.077353 8.266137 0.351953 7
15.213091 8.253341 0.347494 4
15.227260 8.188717 0.347365 4
15.273174 8.140875 0.346079 7
15.423740 8.132333 0.341079 7
15.596674 8.131865 0.335279 7
15.782185 8.131660 0.329048 7
15.988964 8.142197 0.322041 7
16.205938 8.158948 0.314654 7
16.443090 8.178403 0.306567 7
16.665680 8.190521 0.298995 8
16.884842 8.199744 0.291544 8
17.115511 8.211770 0.283682 8
17.361464 8.227882 0.275278 8
17.604010 8.240975 0.266992 8
17.865646 8.259343 0.258028 9
18.123890 8.274609 0.249182 9
18.408817 8.297608 0.239390 9
18.694145 8.318707 0.229582 9
18.978584 8.341556 0.219789 6
19.279791 8.364138 0.209415 6
19.562500 8.378215 0.199693 7
19.879635 8.401971 0.188751 7
20.185822 8.419787 0.178192 7
20.503778 8.439329 0.167214 7
20.742361 8.430594 0.159034 7
20.874662 8.385794 0.154596 3
20.934584 8.317006 0.152702 3
20.944750 8.232224 0.152552 3
20.950787 8.146266 0.152538 3
20.990883 8.070963 0.151312 3
21.003963 7.987310 0.151029 3
21.024397 7.905955 0.150476 3
20.979395 7.805189 0.152218 3
7.978178 2.951823 0.610198 1
7.376641 2.799242 0.631319 0
6.911622 2.677023 0.647637 0
5.134946 2.236795 0.709995 0
4.776858 2.125444 0.722502 0
4.366275 2.010878 0.736862 0
4.267128 1.972589 0.740299 0
4.191495 1.938660 0.742905 0
4.135469 1.908249 0.744818 0
4.083106 1.879877 0.746603 0
4.074147 1.858125 0.746855 0
4.026324 1.765035 0.748244 41
4.021055 1.743135 0.748350 69
4.027609 1.722739 0.748035 107
4.014246 1.699946 0.748423 107
4.020652 1.679546 0.748108 107
3.991235 1.655113 0.749060 101
4.017360 1.636916 0.748041 110
4.011624 1.615214 0.748149 113
3.970014 1.589939 0.749529 101
3.995938 1.571567 0.748509 38
3.977788 1.507084 0.748839 2
3.977257 1.465299 0.748637 5
3.970902 1.443961 0.748749 6
3.976431 1.423547 0.748435 5
3.981818 1.404136 0.748130 6
3.983221 1.383392 0.747958 5
3.984552 1.362644 0.747786 5
3.989801 1.342128 0.747472 4
3.998971 1.321801 0.747014 3
3.992156 1.299543 0.747119 2
4.001129 1.280191 0.746670 2
4.014080 1.259923 0.746069 2
4.014980 1.239067 0.745897 1
4.011812 1.218057 0.745868 1
4.012529 1.198252 0.745705 1
4.021205 1.177653 0.745246 1
4.017821 1.156662 0.745218 1
4.034346 1.136184 0.744471 0
4.038810 1.115342 0.744155 0
4.039204 1.094402 0.743983 0
4.039526 1.073460 0.743811 0
4.039774 1.052517 0.743639 0
4.051942 1.031656 0.743034 0
4.060040 1.010698 0.742573 0
4.064066 0.989683 0.742256 0
4.076014 0.968613 0.741650 0
4.071907 0.948624 0.741630 0
4.071719 0.927569 0.741458 0
4.059467 0.906680 0.741720 0
4.051140 0.885807 0.741838 0
4.062723 0.864575 0.741231 0
4.074231 0.843261 0.740624 0
4.077672 0.822087 0.740306 0
4.133011 0.800325 0.738106 0
4.323577 0.486299 0.728037 0
4.309824 0.465368 0.728301 0
4.335823 0.441055 0.727093 0
4.306095 0.422703 0.727956 2
4.300090 0.401208 0.727926 3
4.279906 0.359127 0.728164 41
4.317415 0.333189 0.726510 69
4.334948 0.309132 0.725593 66
4.368279 0.283169 0.724083 56
4.397534 0.257422 0.722719 38
-39.982269 1.106681 -0.320350 11
-40.441441 1.235692 -0.334785 11
-39.880730 1.364479 -0.314870 11
-39.221725 1.618134 -0.290699 10
-38.559849 1.734768 -0.267517 10
-37.933590 1.847647 -0.245578 20
-37.330971 1.956819 -0.224478 19
-36.744019 2.062287 -0.203948 18
-36.184734 2.164630 -0.184387 25
-35.557468 2.254650 -0.162637 16
-35.025856 2.344450 -0.144122 15
-34.465816 2.435173 -0.124657 14
-33.929512 2.523153 -0.106024 14
-33.428642 2.614747 -0.088573 13
-32.923843 2.697067 -0.071065 12
-32.474731 2.779158 -0.055444 12
-32.037399 2.858880 -0.040247 11
-31.711922 2.937710 -0.028830 5
-31.828251 3.055284 -0.032051 11
-31.541777 3.139244 -0.021940 16
-31.096018 3.204001 -0.006597 10
-30.649765 3.270833 0.008762 10
-30.255604 3.333938 0.022340 15
-29.844574 3.402815 0.036502 15
-29.445370 3.469788 0.050245 14
-29.074358 3.531753 0.063004 19
-28.679377 3.588837 0.076531 13
-28.328550 3.643002 0.088553 13
-27.985613 3.695697 0.100293 13
-27.634190 3.749774 0.112313 13
-27.286192 3.806293 0.124217 12
-26.958487 3.858217 0.135411 12
-26.635210 3.904052 0.146421 12
-26.315359 3.952508 0.157317 12
-25.994951 4.002961 0.168228 11
-25.698826 4.050034 0.178304 11
-25.387354 4.088889 0.188852 11
-25.091190 4.131898 0.198894 10
-24.798971 4.173430 0.208790 10
-24.527100 4.211851 0.217986 14
-24.258612 4.252975 0.227070 13
-23.973726 4.293735 0.236689 13
-23.705233 4.331087 0.245741 9
-23.452545 4.369089 0.254260 13
-23.184072 4.402830 0.263283 15
-22.927464 4.436684 0.271903 15
-22.694534 4.472762 0.279732 15
-22.454344 4.502327 0.287778 14
-22.241135 4.538696 0.294935 11
-21.996439 4.567998 0.303113 16
-21.775389 4.599935 0.310504 13
-21.546499 4.628912 0.318140 13
-21.333364 4.659311 0.325249 13
-21.116331 4.687510 0.332475 15
-20.906536 4.719088 0.339457 20
-20.709185 4.748266 0.346017 17
-20.508602 4.772075 0.352668 17
-20.319151 4.800235 0.358950 16
-20.125820 4.826293 0.365349 16
-19.925386 4.846233 0.371969 16
-19.736065 4.870546 0.378219 18
-19.570213 4.898781 0.383693 18
-19.384882 4.921507 0.389795 18
-19.226885 4.949243 0.394995 18
-19.057228 4.973201 0.400568 17
-18.883726 4.995104 0.406260 14
-18.710281 5.015844 0.411942 14
-18.540783 5.036371 0.417487 18
-18.398510 5.062493 0.422134 14
-18.229118 5.080848 0.427662 20
-18.083761 5.101187 0.432398 16
-17.930708 5.118606 0.437379 16
-17.788595 5.140858 0.441995 16
-17.623343 5.156003 0.447362 15
-17.469757 5.173170 0.452341 16
-17.331671 5.193533 0.456807 15
-17.201338 5.215119 0.461012 15
-17.051796 5.230441 0.465842 14
-16.921562 5.250244 0.470033 15
-16.772167 5.263649 0.474846 14
-16.633629 5.281990 0.479295 15
-16.515823 5.299974 0.483068 15
-16.378160 5.314002 0.487482 14
-16.263529 5.334093 0.491136 14
-16.122187 5.345211 0.495662 14
-15.992392 5.358961 0.499804 16
-15.878693 5.374236 0.503420 14
-15.745234 5.385143 0.507674 16
-15.638506 5.403766 0.511047 16
-15.501410 5.411769 0.515413 16
-15.398594 5.430159 0.518649 16
-15.273064 5.440279 0.522627 16
-15.170351 5.457263 0.525851 15
-15.048769 5.467114 0.529693 15
-14.949951 5.484015 0.532782 15
-14.832306 5.493678 0.536487 15
-14.737368 5.510576 0.539441 16
-14.634940 5.524174 0.542638 18
-14.536334 5.538472 0.545706 16
-14.419008 5.545272 0.549388 13
-14.332587 5.560238 0.552058 15
-14.230424 5.571231 0.555234 16
-14.135816 5.584391 0.558158 15
-14.041266 5.596946 0.561077 15
-13.928125 5.601710 0.564608 15
-13.848630 5.618795 0.567024 17
-13.743117 5.625137 0.570297 19
-13.663715 5.641135 0.572705 16
-13.569504 5.650678 0.575600 19
-13.479074 5.661122 0.578367 16
-13.392414 5.672508 0.581007 20
-13.294731 5.678761 0.584010 19
-13.222970 5.695177 0.586151 17
-13.140181 5.706488 0.588656 17
-13.039060 5.709445 0.591767 23
-12.967437 5.724390 0.593896 17
-12.881176 5.732524 0.596510 16
-12.798656 5.741718 0.598998 15
-12.727172 5.755250 0.601115 17
-12.633825 5.758554 0.603960 18
-12.566934 5.770920 0.605934 13
-12.488324 5.779768 0.608284 17
-12.409782 5.788125 0.610630 17
-12.334939 5.797673 0.612850 15
-12.271023 5.811839 0.614703 13
-12.185439 5.815380 0.617280 16
-12.110786 5.823539 0.619490 14
-12.047013 5.836430 0.621332 13
-11.972481 5.843703 0.623534 16
-11.890839 5.847003 0.625975 15
-11.830809 5.860406 0.627687 14
-11.767227 5.871668 0.629516 13
-11.697394 5.877258 0.631571 14
-11.630345 5.885932 0.633514 13
-11.563356 5.894198 0.635455 14
-11.489319 5.898395 0.637632 16
-11.418917 5.903978 0.639686 16
-11.362760 5.916552 0.641256 13
-11.303095 5.926927 0.642944 15
-11.222301 5.925663 0.645347 16
-11.162763 5.935251 0.647029 16
-11.099755 5.942579 0.648827 15
-11.050844 5.957197 0.650143 17
-10.977428 5.958027 0.652294 16
-10.914604 5.964231 0.654083 13
-10.858824 5.973965 0.655630 13
-10.803084 5.983370 0.657175 14
-10.744786 5.988936 0.658825 13
-10.682208 5.993704 0.660602 13
-10.622290 6.001610 0.662269 14
-10.577999 6.014195 0.663435 23
-10.519053 6.019936 0.665085 15
-10.456733 6.023289 0.666851 14
-10.408225 6.034467 0.668140 14
-10.345160 6.038585 0.669912 13
-10.293314 6.047079 0.671314 13
-10.234690 6.051100 0.672951 11
-10.182946 6.058970 0.674348 11
-10.134645 6.068651 0.675625 12
-10.077096 6.070275 0.677243 15
-10.028887 6.079379 0.678515 13
-9.967215 6.079628 0.680257 12
-9.919996 6.086748 0.681514 10
-9.878648 6.099326 0.682544 9
-9.823901 6.102960 0.684043 11
-9.769225 6.106275 0.685539 11
-9.714623 6.109270 0.687032 13
-9.666753 6.116376 0.688288 11
-9.622250 6.125436 0.689425 10
-9.571150 6.129773 0.690794 12
-9.516809 6.131567 0.692278 13
-9.475739 6.142087 0.693292 12
-9.424818 6.145566 0.694654 12
-9.381429 6.152026 0.695771 10
-9.333904 6.157247 0.697012 11
-9.997777 6.078973 0.734731 16
-9.947149 6.084095 0.735875 16
-9.888068 6.087381 0.737226 12
-9.840919 6.094077 0.738271 12
-9.789574 6.099699 0.739418 12
-9.747415 6.112975 0.740290 10
-9.712827 6.129078 0.740962 6
-9.678221 6.145002 0.741632 6
-9.621274 6.143782 0.742949 4
-9.571042 6.146728 0.744075 2
-9.528079 6.160121 0.744947 2
-9.367837 6.124942 0.748885 13
-9.371921 6.168088 0.748429 23
-9.363618 6.200832 0.748338 16
-9.353744 6.228688 0.748322 9
-9.360535 6.274341 0.747774 7
-39.827698 32.649979 -0.170327 46
-39.693092 32.773090 -0.168784 46
-8.242560 6.355400 0.771277 2
-38.521065 32.435013 -0.140639 43
-38.374840 32.531017 -0.138634 43
-38.074699 32.492317 -0.131987 42
-37.961792 32.839046 -0.133470 42
-37.708870 33.062885 -0.130779 42
-37.643898 33.218773 -0.131209 42
-37.513741 33.338570 -0.129920 42
-36.872448 33.192093 -0.115264 41
-36.853622 33.400845 -0.117299 41
-36.693584 33.478733 -0.114993 41
-36.822861 34.058914 -0.124389 42
-37.557720 34.969006 -0.149772 46
-37.300217 34.983452 -0.144848 45
-36.293861 34.235310 -0.116025 41
-36.730228 34.893764 -0.132549 44
-36.336605 34.969395 -0.125776 43
-36.336555 35.219307 -0.128846 43
-34.478100 35.942787 -0.102723 41
-34.003773 35.662750 -0.090240 40
-32.868141 34.680798 -0.056278 35
-33.520969 35.865917 -0.084043 39
-33.284134 35.847961 -0.079476 39
-32.103180 34.758305 -0.043311 34
-32.037590 34.934399 -0.044507 34
-33.107632 36.640255 -0.087040 40
-29.943487 33.233845 0.016368 27
-29.807301 33.304058 0.017825 27
-29.444763 33.109371 0.026956 25
-28.988634 33.483810 0.029703 25
-29.175575 33.941788 0.019957 27
-10.200918 11.107303 0.673360 3
-10.081792 11.100803 0.675489 46
-10.063912 11.150975 0.675064 50
-10.056411 11.218233 0.674210 22
-27.315222 33.461517 0.058546 45
-27.093184 33.421463 0.062833 44
-26.894503 33.398056 0.066471 43
-26.914768 33.659679 0.062242 45
-26.822355 33.775261 0.062030 22
-31.667780 40.464397 -0.117474 46
-31.498154 40.496670 -0.115205 46
-31.200958 40.413857 -0.109149 45
-27.867338 36.149605 0.009241 30
-27.922445 36.496109 0.003074 30
-27.776394 36.543171 0.004678 61
-30.327311 40.344326 -0.094147 43
-27.295715 36.411472 0.014298 29
-27.561892 37.022259 0.000666 31
-27.344429 36.994915 0.004481 31
-26.707308 36.352650 0.024384 28
-26.758804 36.677532 0.018501 29
-27.138176 37.494690 -0.000166 31
-26.820868 37.305157 0.007667 30
-26.729944 37.444633 0.006838 31
-26.669655 37.630337 0.004797 31
-26.444052 37.584373 0.008915 31
-28.158949 40.444733 -0.062459 40
-25.076767 36.068111 0.053571 25
-25.024256 36.255684 0.051322 25
-27.346180 40.388691 -0.049598 39
-24.304520 35.935375 0.067015 23
-27.005838 40.478146 -0.046139 38
-24.266754 36.418766 0.059647 24
-24.308254 36.760952 0.053428 25
-24.505667 37.358776 0.040769 27
-24.257126 37.225574 0.046471 26
-23.757519 36.692211 0.062315 24
-23.823412 37.082760 0.054894 25
-23.775448 37.303192 0.051873 26
-23.241232 36.681492 0.069626 23
-23.267214 37.010258 0.063743 24
-23.351877 37.443111 0.055296 25
-23.520292 38.025600 0.043174 27
-23.056931 37.522289 0.057912 25
-24.525515 40.382164 -0.010275 34
-24.389881 40.464165 -0.009885 35
-22.616364 37.640160 0.061715 25
-24.026009 40.462696 -0.005105 34
-23.800858 40.382088 -0.000805 33
-19.466183 33.331654 0.176592 31
-19.311600 33.315041 0.178827 31
-19.149828 33.283623 0.181397 46
-19.044491 33.357571 0.181409 31
-18.981497 33.512669 0.179463 15
-18.862370 33.561234 0.180065 47
-18.737619 33.598694 0.180918 15
-19.775478 36.202866 0.122325 18
-21.673096 40.293484 0.027055 30
-21.338182 40.308174 0.030723 30
-21.172762 40.318081 0.032464 30
-18.442049 35.029064 0.158893 16
-18.003098 34.720753 0.169442 33
-17.895514 34.798248 0.169249 33
-17.572647 34.415237 0.179792 32
-17.749863 35.104641 0.165300 33
-17.538277 34.942356 0.170576 33
-17.542166 35.265926 0.164624 33
-17.386322 35.239883 0.166780 33
-17.268330 35.297169 0.166989 33
-17.230967 35.536934 0.162976 33
-17.127954 35.630322 0.162336 33
-17.064257 35.815132 0.159585 17
-17.034180 36.080753 0.154978 52
-16.950766 36.225151 0.153152 17
-16.759386 36.115105 0.157135 17
-16.376432 35.884907 0.165252 33
-16.260622 35.949818 0.165177 33
-16.186567 36.118134 0.162744 17
-15.955789 36.253757 0.162411 34
-16.017275 36.754044 0.152393 35
-15.901077 36.825253 0.152137 17
-17.141001 40.419144 0.072586 25
-15.453184 36.778419 0.157141 17
-15.363148 36.918968 0.155274 52
-15.293065 37.115601 0.152147 17
-15.417909 37.849365 0.137024 18
-16.505011 41.262501 0.062203 27
-15.106499 37.791771 0.140826 18
-14.034806 35.167763 0.200378 15
-15.604522 40.486412 0.084759 24
-15.422651 40.405125 0.087826 24
-12.891319 34.104774 0.230291 13
-13.182646 35.801723 0.194995 15
-12.627545 34.459423 0.225431 14
-12.480820 34.422001 0.227272 14
-12.359332 34.443241 0.227763 14
-12.018324 33.749142 0.243878 13
-13.896339 40.330063 0.101055 22
-13.778484 40.461655 0.099314 22
-11.965490 34.792599 0.223747 14
-11.688890 34.327854 0.234841 13
-11.243176 33.603138 0.252207 38
-11.050360 33.354279 0.258424 25
-10.836967 33.023544 0.266389 36
-10.703396 33.018806 0.267350 24
-10.610279 33.118637 0.265961 36
-10.477013 33.046650 0.268233 36
-10.371166 33.099396 0.267838 36
-10.287677 33.216160 0.266018 36
-10.240550 33.525505 0.260119 37
-10.127926 33.558086 0.260133 25
-10.386795 35.043228 0.228878 28
-10.215811 34.858738 0.233556 27
-9.811672 33.746822 0.258153 25
-11.254265 40.309689 0.118257 20
-9.165084 33.518364 0.266194 36
-9.034494 33.465160 0.267926 24
-8.943552 33.566647 0.266320 24
-8.812595 33.537231 0.267548 36
-8.643058 33.290733 0.273348 23
-8.488868 33.110073 0.277728 23
-8.401002 33.254238 0.275196 35
-8.260671 33.135239 0.278238 34
-8.170697 33.242348 0.276446 23
-8.018749 33.055557 0.280896 34
-7.895145 33.013592 0.282263 22
-7.784064 33.038048 0.282211 22
-7.665872 33.022743 0.282988 22
-7.516916 32.829723 0.287507 22
-7.351967 32.501091 0.294850 32
-7.264843 32.690243 0.291291 33
-7.147422 32.632675 0.292886 21
-7.147769 33.341606 0.278338 23
-7.007578 33.185677 0.282008 22
-6.872779 33.056835 0.285092 22
-6.978036 34.525307 0.254560 25
-6.871374 34.613842 0.253062 25
-6.748921 34.595146 0.253806 12
-8.697183 49.477589 -0.058452 45
-6.743891 36.323906 0.218177 14
-8.380015 49.685989 -0.061901 45
-8.081304 49.921932 -0.066032 46
-6.751861 40.411236 0.133720 18
-6.602693 40.388813 0.134518 18
-5.443918 34.469933 0.259446 25
-5.329716 34.626308 0.256400 12
-5.521648 37.838253 0.189425 16
-5.402300 37.950005 0.187287 16
-5.280460 37.896904 0.188564 48
-4.704109 34.217655 0.265782 24
-4.591813 34.126446 0.267806 36
-4.471578 34.151814 0.267402 36
-4.369126 34.263664 0.265169 36
-4.254858 34.383980 0.262758 37
-4.157040 34.679111 0.256681 25
-4.039700 34.690563 0.256515 37
-3.939916 34.800728 0.254271 38
-3.838360 35.215054 0.245677 26
-3.738292 35.716946 0.235242 27
-3.634433 35.958328 0.230230 14
-3.719512 40.630348 0.132744 18
-3.571846 40.408485 0.137376 18
-3.301918 40.370571 0.138132 18
-3.158453 40.403206 0.137410 18
-3.032214 40.570862 0.133860 18
-3.107095 49.601883 -0.054720 44
-2.936873 49.577599 -0.054312 44
-2.767832 49.612694 -0.055162 44
-2.477856 40.450001 0.136031 18
-2.341566 40.599525 0.132786 18
-2.203132 40.568619 0.133294 18
-2.064718 40.461246 0.135386 18
-1.926885 40.557350 0.133213 18
-1.789213 40.461010 0.135047 18
-1.658197 40.480221 0.134463 18
-1.513581 40.470848 0.134442 18
-1.421301 37.394054 0.198575 15
-1.304348 36.840160 0.209947 14
-1.186616 36.785809 0.210870 14
-0.959569 40.576691 0.131259 18
-0.950615 36.295837 0.220643 14
-0.689807 40.580948 0.130615 18
-0.555911 40.456371 0.132921 18
-0.279626 40.465580 0.132077 18
-0.143526 40.423515 0.132613 18
-0.003541 40.464863 0.131385 18
0.134211 40.457787 0.131158 18
0.276229 40.526096 0.129334 18
0.067248 34.741730 0.250521 12
0.809079 40.420174 0.129909 18
0.953140 40.498005 0.127811 18
1.098203 40.491047 0.127460 18
1.232690 40.524532 0.126291 18
1.369300 40.497204 0.126365 18
1.516151 40.508636 0.125581 18
1.645699 40.480957 0.125661 18
1.786140 40.495995 0.124799 18
1.917881 40.491314 0.124367 18
2.068276 40.464195 0.124309 18
2.194335 40.471226 0.123631 18
2.181981 37.877937 0.177429 32
2.749325 40.445103 0.121692 19
2.899674 40.531620 0.119192 19
3.035635 40.498543 0.119220 19
3.180188 40.532417 0.117809 19
3.315510 40.494411 0.117913 19
3.457691 40.507446 0.116916 19
3.596328 40.443764 0.117504 19
3.725923 40.465691 0.116362 19
3.880590 40.560333 0.113575 19
3.333635 36.008209 0.210256 14
3.543339 35.712692 0.215140 28
3.663542 35.725830 0.214170 28
4.721389 40.467587 0.110623 19
4.848154 40.421566 0.110789 19
4.984337 40.389683 0.110593 19
5.132415 40.424236 0.108951 19
5.272159 40.411037 0.108322 19
5.411161 40.393414 0.107775 19
5.701242 40.456169 0.104561 39
5.844360 40.456646 0.103576 20
5.990731 40.472286 0.102245 20
6.129276 40.448204 0.101762 40
6.269382 40.431469 0.101104 20
6.391201 40.328175 0.102319 20
6.573174 40.505959 0.097388 61
6.711887 40.479836 0.096888 41
6.847036 40.437611 0.096725 41
7.001465 40.480724 0.094679 41
5.498385 33.333607 0.250371 24
5.699884 33.179596 0.251887 36
5.830023 33.226513 0.249902 36
5.898644 33.020466 0.253480 35
6.078349 33.313850 0.246125 36
6.153918 33.138245 0.249014 36
6.284914 33.183331 0.247013 24
7.134380 35.991474 0.183715 30
-0.322172 7.204310 0.821976 1
-0.304991 7.096229 0.823978 9
7.225432 33.966698 0.223199 26
7.348067 33.961372 0.222191 26
7.448778 33.878696 0.222902 39
8.047801 35.516472 0.184986 30
8.117530 35.308659 0.188433 44
8.233534 35.282715 0.187845 44
8.316258 35.124386 0.190169 43
8.405099 34.967911 0.192384 29
8.485845 34.830181 0.194298 28
9.194340 36.682934 0.151030 16
8.948093 35.057899 0.185245 29
10.771809 40.280983 0.064928 23
11.127590 40.437851 0.058217 23
11.210942 40.207649 0.061812 69
11.337034 40.152393 0.061554 46
0.144510 7.121349 0.819096 1
0.168518 7.121521 0.818835 1
0.197851 7.136693 0.818226 2
0.219022 7.124974 0.818220 2
0.236364 7.106039 0.818393 7
0.260721 7.109999 0.818047 7
0.286197 7.113473 0.817695 9
0.307553 7.105595 0.817604 11
0.334495 7.112621 0.817163 11
0.354432 7.100834 0.817159 11
0.381462 7.107657 0.816716 11
0.407125 7.110636 0.816360 15
0.434293 7.117235 0.815916 14
0.458598 7.116279 0.815645 14
0.483338 7.119369 0.815291 16
0.510265 7.121500 0.814927 19
0.538113 7.131796 0.814395 16
0.564091 7.134135 0.814034 20
0.591648 7.140061 0.813583 19
0.616186 7.138494 0.813308 18
0.645419 7.147878 0.812767 19
0.671606 7.149778 0.812402 19
0.696255 7.147898 0.812123 20
0.722519 7.149588 0.811756 19
0.747217 7.147508 0.811476 18
0.771934 7.145330 0.811195 19
0.796669 7.143055 0.810914 23
0.826364 7.151614 0.810366 20
0.852831 7.152763 0.809994 17
0.875994 7.146539 0.809798 17
0.904206 7.151107 0.809336 19
0.932483 7.155553 0.808872 22
0.956964 7.157280 0.808507 24
0.989881 7.168200 0.807858 20
1.011424 7.157865 0.807747 30
1.039924 7.161842 0.807280 21
1.067409 7.166223 0.806816 20
1.098887 7.173007 0.806252 21
1.126509 7.177143 0.805786 18
1.152757 7.172932 0.805487 20
1.183369 7.179856 0.804925 17
1.210420 7.179524 0.804540 16
1.240098 7.186742 0.803981 16
1.268327 7.185610 0.803588 16
1.293649 7.181383 0.803290 15
1.320565 7.185267 0.802823 16
1.355632 7.193786 0.802152 15
1.386748 7.199776 0.801581 17
1.414128 7.198596 0.801189 16
1.445383 7.204315 0.800616 18
1.472851 7.202890 0.800222 17
1.507048 7.215929 0.799472 15
1.536586 7.217736 0.798986 16
1.561152 7.213068 0.798685 16
1.593842 7.217486 0.798099 15
1.618455 7.212600 0.797796 16
1.649258 7.213279 0.797299 44
1.683063 7.221356 0.796625 54
1.716821 7.234002 0.795873 44
1.744712 7.231445 0.795469 19
1.769611 7.221256 0.795239 15
1.803728 7.228744 0.794560 16
1.835866 7.232652 0.793971 19
1.868076 7.236412 0.793381 16
1.897167 7.237293 0.792887 16
1.934826 7.246879 0.792105 15
1.965137 7.246795 0.791602 16
1.995496 7.246576 0.791098 16
2.026957 7.250289 0.790508 16
2.059579 7.253161 0.789910 18
2.093363 7.255174 0.789303 44
2.128306 7.261086 0.788611 28
2.164439 7.270893 0.787832 19
2.199573 7.276468 0.787137 15
2.232577 7.278546 0.786532 16
2.263416 7.277151 0.786017 15
2.294297 7.275616 0.785502 14
2.325218 7.273943 0.784985 17
2.361875 7.282773 0.784198 15
2.400836 7.289906 0.783394 18
2.434232 7.291046 0.782781 20
2.467689 7.292028 0.782166 18
2.502415 7.296898 0.781466 18
2.533682 7.294308 0.780941 18
2.564985 7.291576 0.780414 15
2.596323 7.288703 0.779887 15
2.639472 7.301847 0.778895 19
