# .PCD v.7 - Point Cloud Data file format
VERSION .7
FIELDS x y z intensity
SIZE 4 4 4 1
TYPE F F F U
COUNT 1 1 1 1
WIDTH 1564
HEIGHT 1
VIEWPOINT 0 0 0 1 0 0 0
POINTS 1564
DATA ascii
0.843551 12.772777 -0.076635 76
0.889312 12.782285 -0.078472 40
0.933275 12.783875 -0.079628 21
0.966690 12.742761 -0.077032 67
1.014502 12.759517 -0.079556 77
1.056526 12.752918 -0.080033 45
1.082485 12.684458 -0.075049 67
1.116138 12.646788 -0.072797 77
1.166073 12.678870 -0.076684 67
1.237074 12.779430 -0.086728 90
1.276063 12.760509 -0.086187 47
1.307470 12.714586 -0.083256 52
1.346179 12.695434 -0.082717 76
1.362860 12.599524 -0.075345 91
1.425534 12.664404 -0.082325 76
1.490947 12.736634 -0.089992 85
1.513711 12.663396 -0.084672 73
1.560157 12.670274 -0.086531 87
1.598549 12.650288 -0.085998 81
1.654494 12.687291 -0.090596 60
1.667904 12.587117 -0.082883 56
1.722770 12.619971 -0.087142 90
1.773043 12.637403 -0.090035 68
1.834549 12.688743 -0.096010 65
1.853418 12.615502 -0.090685 100
1.893944 12.602117 -0.090844 90
1.963600 12.675484 -0.098879 45
2.010742 12.680580 -0.100753 13
0.750952 8.705432 0.257068 0
0.753830 8.628324 0.263124 0
0.768330 8.585046 0.266098 0
0.786641 8.552998 0.268043 0
0.808883 8.532138 0.268960 0
0.828240 8.503742 0.270563 0
0.849017 8.487480 0.271147 0
0.879623 8.403415 0.276741 0
0.908340 8.400888 0.275941 0
0.932719 8.387116 0.276170 0
0.957214 8.377481 0.276061 1
1.031347 8.339138 0.276400 75
1.056962 8.328649 0.276283 79
1.084068 8.321751 0.275821 78
1.111163 8.314754 0.275359 74
1.139799 8.311325 0.274552 72
1.168449 8.307787 0.273744 68
1.198691 8.307796 0.272592 72
1.227695 8.308240 0.271445 71
1.256080 8.300152 0.270972 71
1.283175 8.292521 0.270505 67
1.310612 8.288998 0.269699 60
1.342250 8.287850 0.268535 20
1.437323 8.296816 0.264031 2
1.461095 8.281302 0.264247 2
1.484799 8.265712 0.264462 1
1.579177 8.335435 0.255252 5
1.632198 8.376167 0.249944 2
1.661448 8.370736 0.249120 4
1.662418 8.308046 0.253810 2
1.686139 8.291789 0.254020 7
1.720548 8.296810 0.252160 6
1.742399 8.276810 0.252713 14
1.783417 8.300611 0.249140 10
1.808335 8.283298 0.249339 9
1.894523 8.386721 0.237813 4
1.920298 8.373219 0.237671 5
1.919897 8.310331 0.242361 8
2.042708 8.293878 0.237986 2
2.125978 8.384498 0.227474 2
2.126529 8.324931 0.231818 2
2.176319 8.296941 0.231527 9
2.211654 8.299760 0.229648 9
2.245072 8.298967 0.228114 10
2.281258 8.305666 0.225894 12
2.320087 8.310710 0.223657 14
2.353686 8.309455 0.222119 13
2.391399 8.314907 0.219886 12
2.425108 8.313346 0.218345 10
2.458859 8.311639 0.216803 9
2.492651 8.309785 0.215259 9
2.528567 8.311182 0.213368 9
2.562452 8.309027 0.211822 9
2.599312 8.314285 0.209589 9
2.631182 8.308450 0.208387 9
2.671584 8.315954 0.205797 9
2.709953 8.319904 0.203551 9
2.746252 8.320323 0.201651 9
2.781333 8.321404 0.199759 8
2.815576 8.318161 0.198203 6
2.847666 8.311437 0.196993 7
2.886364 8.314548 0.194741 7
2.922931 8.314161 0.192834 7
2.957333 8.310301 0.191273 7
2.998467 8.316189 0.188669 7
3.039703 8.321879 0.186062 6
3.081038 8.327371 0.183454 5
3.120204 8.329386 0.181192 3
3.157166 8.327949 0.179276 2
3.187307 8.316560 0.178403 3
3.235848 8.331071 0.174744 4
3.275299 8.332354 0.172476 3
3.314821 8.333450 0.170206 2
3.359087 8.340816 0.167238 2
3.403468 8.347963 0.164268 2
3.462115 8.374160 0.159206 2
3.539966 8.425666 0.151354 2
3.592052 8.441568 0.147332 3
3.629758 8.443213 0.145068 3
3.677333 8.452270 0.141738 2
3.719102 8.450579 0.139443 1
3.771756 8.465491 0.135411 1
5.083795 10.110608 -0.049001 1
5.110665 10.079672 -0.048544 1
5.142322 10.054932 -0.048786 1
5.166485 10.020697 -0.047981 1
5.197935 9.995763 -0.048224 1
5.216846 9.955165 -0.046721 1
5.240563 9.920749 -0.045917 1
5.266640 9.889370 -0.045463 1
5.288517 9.856098 -0.044647 1
5.318399 9.826392 -0.044556 1
4.248818 8.477153 0.106296 2
4.241685 8.415673 0.110634 2
4.257283 8.381780 0.111824 1
4.290582 8.316970 0.113854 2
4.339465 8.322305 0.110492 3
4.380639 8.318348 0.108178 3
4.448038 8.344234 0.102360 3
4.517642 8.320214 0.099475 21
4.585548 8.345181 0.093648 5
4.620513 8.335303 0.092037 3
4.667440 8.335954 0.089011 2
4.703734 8.324569 0.087386 2
4.742719 8.315959 0.085409 1
5.678101 9.280054 -0.033118 1
5.696122 9.241654 -0.031968 1
5.720695 9.213305 -0.031859 1
5.749324 9.186441 -0.032114 1
5.775118 9.156585 -0.032019 1
5.795298 9.120881 -0.031221 1
5.790482 9.059274 -0.027259 1
5.821342 9.035031 -0.027867 1
5.843788 9.002108 -0.027421 1
5.860518 8.963437 -0.026272 1
5.888274 8.936087 -0.026530 1
5.896266 8.888865 -0.024325 1
5.926580 8.864204 -0.024936 1
5.942671 8.825402 -0.023786 1
5.964266 8.792175 -0.023342 1
5.978674 8.754707 -0.022180 1
5.992756 8.711678 -0.020691 1
6.016764 8.681101 -0.020599 1
6.029144 8.639429 -0.019097 1
6.058655 8.614238 -0.019712 1
6.085191 8.586198 -0.019974 1
6.091555 8.544525 -0.018093 1
6.117847 8.516371 -0.018356 1
6.138192 8.482713 -0.017914 1
6.167202 8.457091 -0.018531 1
6.179766 8.413826 -0.017042 1
6.184929 8.366642 -0.014833 1
6.210999 8.343680 -0.015425 1
6.228953 8.305716 -0.014643 1
6.246738 8.267718 -0.013861 1
6.269073 8.236391 -0.013774 1
6.279292 8.194506 -0.012271 1
6.295336 8.157862 -0.011476 1
6.328084 8.138250 -0.012792 1
6.339065 8.094866 -0.011302 1
6.361319 8.068756 -0.011544 1
6.376817 8.031950 -0.010749 1
6.379950 7.984880 -0.008537 1
6.404287 7.955723 -0.008806 1
6.421173 7.922866 -0.008352 1
6.446497 7.892097 -0.008635 1
6.459354 7.851169 -0.007500 1
6.483224 7.821735 -0.007770 2
6.500780 7.787227 -0.007331 1
6.521311 7.755165 -0.007248 1
6.533130 7.721060 -0.006426 2
6.551450 7.684956 -0.006001 2
6.581020 7.660106 -0.006985 2
6.590472 7.621976 -0.005822 2
6.604072 7.584794 -0.005028 2
6.627011 7.554856 -0.005302 2
6.630805 7.510387 -0.003441 1
6.653484 7.480357 -0.003715 2
6.656917 7.435928 -0.001853 2
6.686853 7.409049 -0.002853 2
6.693142 7.367005 -0.001347 2
6.704570 7.331214 -0.000539 2
6.716954 7.293902 0.000255 2
6.741015 7.267422 -0.000363 2
6.743412 7.223090 0.001501 2
6.769416 7.193453 0.000854 1
6.787734 7.160645 0.000934 2
6.788542 7.117885 0.002813 2
6.803309 7.082758 0.003251 2
6.817937 7.047603 0.003688 2
6.835713 7.014671 0.003768 2
6.853367 6.981688 0.003848 2
6.878375 6.908924 0.005079 2
6.895636 6.875828 0.005158 2
6.912773 6.842684 0.005237 2
6.909788 6.796399 0.007464 2
6.919951 6.758888 0.008259 1
6.933310 6.723536 0.008696 2
6.953241 6.692455 0.008417 2
6.952885 6.648492 0.010287 1
6.962442 6.610973 0.011083 1
6.967495 6.572902 0.012252 1
6.990286 6.543803 0.011614 2
7.008627 6.514089 0.011347 2
7.007432 6.470282 0.013220 1
7.003580 6.422920 0.015439 1
7.039533 6.401860 0.013363 1
7.033457 6.357692 0.015611 1
7.048683 6.324234 0.015690 2
7.056916 6.286699 0.016487 2
7.068438 6.251177 0.016925 2
7.083271 6.217633 0.017004 2
7.084157 6.176123 0.018521 1
7.098714 6.142549 0.018600 2
7.106208 6.105021 0.019398 2
7.110074 6.065558 0.020557 2
7.117259 6.028065 0.021356 2
7.124292 5.990582 0.022155 2
7.140799 5.960427 0.021888 2
7.151060 5.924832 0.022327 2
7.147146 5.881685 0.024208 2
7.150074 5.842371 0.025369 2
7.156362 5.804958 0.026170 1
7.180144 5.776800 0.025166 1
7.186164 5.739355 0.025967 1
7.181408 5.696456 0.027852 2
7.183561 5.657271 0.029015 2
7.199770 5.625323 0.028733 2
7.216670 5.591716 0.028437 2
7.221948 5.554333 0.029239 2
7.219142 5.515050 0.030779 2
7.202642 5.467238 0.033753 2
7.214897 5.396139 0.035014 8
7.230195 5.364083 0.034732 15
7.241777 5.330274 0.034813 12
7.267671 5.303185 0.033443 3
7.275781 5.228684 0.035053 1
7.286867 5.194768 0.035133 2
7.279669 5.152644 0.037027 2
7.279305 5.075146 0.039366 9
7.286184 5.039671 0.039810 9
7.289273 5.002612 0.040618 10
7.288557 4.964008 0.041789 11
7.306011 4.933258 0.041144 10
7.311670 4.899411 0.041603 10
7.328909 4.868555 0.040957 10
7.342364 4.836104 0.040674 11
7.340961 4.797570 0.041847 11
7.350476 4.763582 0.041928 11
7.359868 4.729573 0.042010 10
7.369136 4.695544 0.042091 10
7.394725 4.630320 0.041525 1
7.399914 4.594778 0.041970 1
7.404969 4.559243 0.042416 1
7.391254 4.516690 0.044686 1
7.414677 4.488201 0.043309 1
7.438015 4.459592 0.041930 1
7.408288 4.413367 0.045677 1
7.416409 4.379288 0.045759 1
7.424405 4.345193 0.045842 1
7.428522 4.309757 0.046289 1
7.424986 4.271703 0.047469 1
7.417535 4.232412 0.049014 1
7.425001 4.198367 0.049098 1
7.432343 4.164310 0.049181 1
7.439561 4.130240 0.049265 1
7.439092 4.093661 0.050081 1
7.423336 4.052180 0.052362 1
7.437732 4.020627 0.051714 1
7.444432 3.986593 0.051798 1
7.454809 3.953744 0.051516 1
7.457463 3.918494 0.051967 1
7.452372 3.880923 0.053153 1
7.465693 3.850849 0.052518 1
7.472272 3.815137 0.052589 1
7.443853 3.770897 0.055978 1
7.449654 3.736935 0.056064 1
7.447677 3.700762 0.056885 1
7.449393 3.665725 0.057340 1
7.454814 3.631785 0.057426 1
7.463953 3.598902 0.057145 1
7.457159 3.563434 0.058350 1
7.446829 3.525362 0.059909 1
7.451746 3.491484 0.059997 1
7.456542 3.457603 0.060085 1
7.449646 3.420731 0.061278 1
7.454188 3.386885 0.061367 1
7.450881 3.351099 0.062193 1
7.470234 3.322745 0.060821 1
7.462814 3.286038 0.062016 1
7.467266 3.250555 0.062091 1
7.467321 3.215801 0.062550 1
7.467248 3.181074 0.063009 1
7.459282 3.144598 0.064206 1
7.478007 3.115974 0.062833 1
7.485345 3.083014 0.062554 1
7.473110 3.045788 0.064122 1
7.476308 3.012010 0.064213 1
7.456001 2.973310 0.066523 1
7.494042 2.946886 0.063285 1
7.481275 2.909902 0.064857 1
7.491799 2.877711 0.064208 1
7.497982 2.846355 0.063943 1
7.504379 2.813327 0.063664 1
7.506746 2.779536 0.063756 1
7.508993 2.745752 0.063848 1
7.495446 2.709123 0.065423 1
7.520968 2.679598 0.063291 1
7.526782 2.646490 0.063012 1
7.516778 2.610677 0.064218 1
7.514495 2.576269 0.064682 1
7.516018 2.542541 0.064775 1
7.501691 2.506300 0.066354 1
7.514771 2.474494 0.065334 1
7.531679 2.443217 0.063941 1
7.528544 2.410552 0.064420 1
7.525537 2.376267 0.064886 1
7.522407 2.342021 0.065353 1
7.452094 2.298491 0.072146 1
7.448685 2.264557 0.072615 1
7.460948 2.232746 0.071596 1
7.457092 2.200480 0.072079 1
7.441475 2.165128 0.073667 1
7.457355 2.133742 0.072275 1
7.457502 2.098749 0.072360 1
7.449419 2.064511 0.073204 1
7.453087 2.031657 0.072930 1
7.448720 1.997942 0.073402 1
7.440103 1.965500 0.074262 1
7.443425 1.932679 0.073989 1
7.446633 1.899847 0.073715 1
7.406107 1.862938 0.077552 1
7.413039 1.830592 0.076906 1
7.415890 1.797866 0.076634 1
7.398515 1.766758 0.078259 1
7.397303 1.732134 0.078349 1
7.384048 1.696629 0.079561 1
7.386433 1.664005 0.079290 1
7.388703 1.631373 0.079020 1
7.378938 1.597958 0.079873 1
7.384953 1.565597 0.079228 1
7.374953 1.532278 0.080083 1
7.368811 1.499253 0.080563 1
7.362552 1.466278 0.081043 1
7.360154 1.433541 0.081150 1
7.345636 1.401925 0.082395 1
7.343013 1.369275 0.082502 1
7.328337 1.336203 0.083736 1
7.321504 1.303507 0.084220 1
7.322516 1.271104 0.083953 1
7.311473 1.238378 0.084813 0
7.292352 1.205547 0.086426 0
7.281079 1.173010 0.087288 0
7.281636 1.140748 0.087023 0
7.294007 1.110254 0.085642 0
7.274436 1.077759 0.087259 0
7.262714 1.045450 0.088123 0
7.270791 1.013274 0.087106 0
7.270791 0.981050 0.086842 0
7.278643 0.948790 0.085824 0
7.274436 0.916570 0.085936 0
7.262152 0.884471 0.086803 0
7.273648 0.852099 0.085409 0
7.261140 0.820086 0.086277 0
7.268429 0.787722 0.085259 0
7.259722 0.757319 0.085763 0
7.234945 0.725821 0.087766 0
7.237922 0.693596 0.087126 0
7.236806 0.661488 0.086864 0
7.235579 0.629385 0.086602 0
7.218325 0.597966 0.087853 0
7.149252 0.569052 0.094020 0
7.215315 0.533894 0.087331 0
7.138090 0.505886 0.094260 0
7.128368 0.474580 0.094758 0
7.118539 0.443335 0.095257 0
7.112577 0.411899 0.095379 0
7.102533 0.380764 0.095879 0
7.112356 0.349872 0.094498 0
7.086215 0.319970 0.096516 0
7.087766 0.288086 0.095880 0
7.061422 0.258436 0.097900 0
7.062757 0.226612 0.097266 0
-12.575059 0.999873 -0.017768 1
-12.567021 1.036886 -0.016730 1
-12.566821 1.073906 -0.016427 1
-12.562529 1.109029 -0.015772 1
-12.562077 1.146033 -0.015469 1
-12.569460 1.183180 -0.015899 1
-12.588660 1.220639 -0.017427 1
-12.583837 1.257633 -0.016758 1
-12.570921 1.294367 -0.015357 1
-12.565841 1.331271 -0.014689 1
-12.572574 1.368569 -0.015118 1
-12.575196 1.405762 -0.015181 1
-12.561769 1.442299 -0.013783 1
-12.580049 1.480216 -0.015308 1
-12.566366 1.516686 -0.013911 1
-12.584379 1.554757 -0.015435 1
-12.586348 1.592060 -0.015499 1
-12.572281 1.628426 -0.014102 1
-12.558090 1.664701 -0.012706 1
-12.567744 1.700636 -0.013515 1
-12.585094 1.739055 -0.015038 1
-12.566553 1.774957 -0.013279 1
-12.563777 1.811971 -0.012979 1
-12.537048 1.847044 -0.010493 1
-12.526082 1.883283 -0.009465 1
-12.518959 1.919806 -0.008803 1
-12.563279 1.961012 -0.012872 1
-12.528129 1.994996 -0.009662 1
-12.560262 2.035393 -0.012637 1
-12.552425 2.073826 -0.011960 1
-12.556528 2.111627 -0.012388 1
-12.540543 2.220207 -0.011145 23
-12.524346 2.255706 -0.009758 30
-12.528025 2.291701 -0.010202 24
-12.527396 2.329077 -0.010268 24
-12.526636 2.366466 -0.010334 20
-12.533640 2.404921 -0.011126 27
-12.532611 2.442358 -0.011192 27
-12.515671 2.477582 -0.009808 23
-12.526213 2.516692 -0.010961 25
-12.520847 2.553560 -0.010665 21
-12.503537 2.588618 -0.009284 18
-12.513827 2.703393 -0.010932 1
-12.515670 2.741521 -0.011361 1
-12.525230 2.781014 -0.012512 1
-12.515017 2.817198 -0.011856 1
-12.508602 2.854026 -0.011562 1
-12.517741 2.893658 -0.012713 1
-12.515652 2.927531 -0.012809 1
-12.508510 2.966201 -0.012501 1
-12.501575 3.003005 -0.012207 1
-12.498423 3.040545 -0.012275 1
-12.495500 3.076249 -0.012357 1
-12.495991 3.114582 -0.012786 1
-12.484261 3.152376 -0.012118 1
-12.488375 3.191540 -0.012907 1
-12.473249 3.224780 -0.011910 1
-12.461123 3.262450 -0.011244 1
-12.453156 3.299086 -0.010953 1
-12.452835 3.337434 -0.011382 1
-12.460974 3.373910 -0.012560 1
-12.495317 3.420396 -0.016227 1
-12.486367 3.458987 -0.015921 1
-12.481153 3.498470 -0.015975 1
-12.480547 3.535214 -0.016418 1
-12.471627 3.571917 -0.016128 1
-12.458714 3.607625 -0.015479 1
-12.461126 3.647182 -0.016267 1
-12.447957 3.682826 -0.015619 1
-12.446232 3.721422 -0.016048 1
-12.437143 3.756176 -0.015774 1
-12.394072 3.824799 -0.013033 16
-12.384641 3.859379 -0.012761 15
-12.378427 3.896816 -0.012833 16
-12.326076 3.921235 -0.008607 9
-12.385760 4.016848 -0.015557 1
-12.378982 4.054341 -0.015630 1
-12.342596 4.162098 -0.014419 27
-12.324434 4.194152 -0.013434 24
-12.317017 4.231496 -0.013509 22
-12.279081 4.259201 -0.010725 9
-12.297748 4.344678 -0.014091 1
-12.301144 4.385709 -0.015237 1
-12.296818 4.424293 -0.015670 1
-12.296124 4.464157 -0.016459 1
-12.269485 4.493281 -0.014765 1
-12.264757 4.531831 -0.015199 1
-12.252359 4.567775 -0.014919 1
-12.258630 4.610281 -0.016421 1
-12.242204 4.644868 -0.015786 1
-12.225662 4.679385 -0.015151 1
-12.220239 4.717912 -0.015585 1
-12.214672 4.756446 -0.016020 1
-12.197756 4.790826 -0.015387 1
-12.159852 4.857957 -0.013767 2
-12.113511 4.878930 -0.010305 2
-12.088756 4.910029 -0.008965 2
-12.086170 4.949709 -0.009758 2
-12.079726 4.987954 -0.010196 2
-12.062037 5.021772 -0.009568 2
-12.056029 5.058223 -0.010020 2
-12.046201 5.093176 -0.010117 2
-12.031123 5.130111 -0.009833 2
-12.060064 5.185330 -0.013806 1
-12.049061 5.222096 -0.013889 2
-12.001237 5.243297 -0.010428 2
-11.986358 5.278316 -0.010159 2
-11.975014 5.314863 -0.010245 1
-11.978906 5.356003 -0.011761 2
-11.959220 5.391084 -0.011126 1
-11.959163 5.430682 -0.012288 1
-11.954536 5.470443 -0.013083 2
-11.935234 5.503655 -0.012462 2
-11.894076 5.526856 -0.009720 1
-11.859320 5.554888 -0.007673 1
-11.828904 5.582686 -0.005995 1
-11.810040 5.613689 -0.005392 1
-11.804671 5.653156 -0.006190 1
-11.777577 5.682332 -0.004869 1
-11.764755 5.718298 -0.004961 1
-11.744637 5.750746 -0.004348 1
-11.731564 5.786623 -0.004441 1
-11.725500 5.826002 -0.005241 1
-11.720131 5.863694 -0.006054 1
-11.692411 5.892351 -0.004737 1
-11.665471 5.919180 -0.003435 1
-11.662418 5.960289 -0.004588 1
-11.633548 5.990323 -0.003262 1
-11.619596 6.025896 -0.003359 1
-11.601986 6.059578 -0.003104 1
-11.577219 6.089466 -0.002146 1
-11.562901 6.124879 -0.002244 1
-11.544948 6.158363 -0.001992 1
-11.527782 6.190114 -0.001752 1
-11.495625 6.215816 -0.000093 1
-11.484327 6.252918 -0.000546 1
-11.452003 6.278370 0.001110 1
-11.448339 6.317616 -0.000060 1
-11.429712 6.350699 0.000189 1
-11.410970 6.383717 0.000437 1
-11.399020 6.420643 -0.000018 1
-11.369695 6.447556 0.001282 1
-11.354054 6.482374 0.001177 1
-11.331421 6.513103 0.001773 1
-11.318964 6.549848 0.001316 1
-11.299527 6.582477 0.001559 1
-11.286800 6.619157 0.001101 1
-11.267122 6.651674 0.001344 1
-11.262905 6.689207 0.000159 1
-11.242983 6.721640 0.000401 1
-11.232091 6.761937 -0.000397 1
-11.211915 6.794263 -0.000156 1
-11.194994 6.828647 -0.000267 1
-11.228354 6.895099 -0.005630 1
-11.201007 6.923105 -0.004690 1
-11.190306 6.961814 -0.005501 1
-11.171524 6.990778 -0.005286 1
-11.153881 7.025077 -0.005398 1
-11.135053 7.060927 -0.005499 1
-11.102824 7.087876 -0.004201 1
-11.090264 7.121007 -0.004689 1
-11.080961 7.163359 -0.005840 1
-11.059384 7.195154 -0.005605 1
-11.042069 7.227546 -0.005732 1
-10.082750 6.386238 0.218419 2
-10.034998 6.393178 0.221347 2
-9.965563 6.389281 0.226112 2
-9.914641 6.393383 0.229338 2
-9.872713 6.405344 0.231663 2
-9.828460 6.413442 0.234279 2
-9.762691 6.410383 0.238730 2
-9.702209 6.406501 0.242856 2
-9.650675 6.410511 0.246080 2
-9.608963 6.421155 0.248395 2
-9.564027 6.429255 0.251010 2
-9.522363 6.439438 0.253321 2
-9.467811 6.440024 0.256840 4
-9.416565 6.442651 0.260053 4
-9.371817 6.449718 0.262660 4
-9.317500 6.449409 0.266171 6
-9.282445 6.463114 0.267868 6
-9.205960 6.445454 0.273489 2
-9.155112 6.446609 0.276691 2
-9.104345 6.447475 0.279890 7
-9.104239 6.486970 0.278261 1
-9.081875 6.509428 0.278744 1
-8.991227 6.476574 0.285849 2
-8.944786 6.477680 0.288731 7
-8.883548 6.510108 0.291200 40
-8.798362 6.520678 0.296065 5
-8.735739 6.509244 0.300451 10
-8.694865 6.515150 0.302728 16
-8.657108 6.523378 0.304702 9
-8.616310 6.528859 0.306976 7
-8.581669 6.539247 0.308646 2
-8.508374 6.514873 0.314215 2
-8.471795 6.521061 0.316174 7
-8.412102 6.511174 0.320251 1
-8.389787 6.531055 0.320712 2
-8.382475 6.563920 0.319671 1
-8.214830 6.573349 0.329307 34
-8.195322 6.595145 0.329462 32
-8.167846 6.607759 0.330509 26
-8.156076 6.638532 0.329770 20
-8.143207 6.664438 0.329316 22
-8.132168 6.694106 0.328570 44
-8.141438 6.742786 0.325726 113
-8.103875 6.747960 0.327675 13
-8.089587 6.815435 0.325282 5
-8.086524 6.853340 0.323636 11
-8.044085 6.851481 0.326173 2
-8.023606 6.872679 0.326322 7
-8.012644 6.901113 0.325565 9
-7.959680 6.892482 0.329010 7
-7.944726 6.919000 0.328558 19
-7.926836 6.942668 0.328405 37
-7.904267 6.959592 0.328842 7
-7.951916 7.092014 0.319571 1
-7.975155 7.158582 0.314938 2
-8.017426 7.245445 0.308217 2
-7.998338 7.269423 0.308065 2
-7.965382 7.278920 0.309404 1
-7.979094 7.337468 0.305670 2
-7.973327 7.375860 0.304025 1
-8.051823 7.504608 0.293135 3
-8.003057 7.495545 0.296256 1
-8.062622 7.603491 0.287450 2
-8.093416 7.683568 0.281635 4
-8.087651 7.726655 0.279703 2
-8.033206 7.711418 0.283417 2
-7.977760 7.696945 0.287136 2
-7.968775 7.731750 0.285783 2
-7.970478 7.783599 0.282956 2
-7.988870 7.852482 0.278336 2
-8.005441 7.917514 0.274008 1
-8.015203 7.977761 0.270283 1
-10.319337 10.705029 0.004176 1
-10.324269 10.779635 -0.000088 1
-10.284914 10.802684 0.000704 1
-10.260920 10.843882 -0.000290 1
-10.229895 10.880355 -0.000679 1
-10.176690 10.883171 0.001883 1
-10.112535 10.946455 0.001672 3
-10.087051 10.982715 0.000962 4
-10.075457 11.043468 -0.001808 6
-10.044597 11.073432 -0.001926 4
-9.996956 11.085982 -0.000253 8
-9.961695 11.113970 -0.000067 11
-9.938647 11.157525 -0.001365 11
-9.917846 11.204188 -0.002961 13
-9.891934 11.244520 -0.003963 8
-9.870698 11.291122 -0.005560 6
-9.847427 11.339078 -0.007148 13
-9.770366 11.312465 -0.001927 6
-9.716949 11.312792 0.000614 4
-9.668971 11.323813 0.002273 8
-9.646561 11.365342 0.000959 14
-9.608512 11.393440 0.001143 3
-9.592815 11.444515 -0.001061 3
-9.485324 11.527102 -0.000840 14
-9.443912 11.546794 -0.000078 4
-9.407045 11.572848 0.000090 11
-9.372372 11.602044 -0.000038 9
-9.335312 11.627849 0.000129 11
-9.298163 11.653523 0.000294 13
-9.258287 11.671206 0.001041 11
-9.227334 11.701947 0.000604 11
-9.194383 11.733863 0.000175 11
-9.161297 11.765678 -0.000255 11
-9.152331 11.833961 -0.003937 22
-9.134203 11.888985 -0.006437 13
-9.120142 11.950691 -0.009528 19
-9.116588 12.029169 -0.014096 14
-9.099622 12.087626 -0.016892 11
-9.095215 12.166272 -0.021460 19
-9.062593 12.201215 -0.022190 14
-9.010707 12.205671 -0.020264 6
-8.971543 12.230209 -0.020110 6
-8.898703 12.200340 -0.015237 9
-8.851076 12.206288 -0.013619 9
-8.805799 12.224652 -0.012873 8
-8.778954 12.268957 -0.014495 13
-8.747779 12.306370 -0.015528 16
-8.755136 12.404222 -0.021876 13
-8.729481 12.451910 -0.023795 15
-8.683410 12.465139 -0.022766 24
-8.629311 12.464392 -0.020560 27
-8.575298 12.463407 -0.018356 30
-8.549101 12.510663 -0.020279 42
-8.495097 12.509300 -0.018077 47
-8.449008 12.521607 -0.017056 53
-8.424298 12.572049 -0.019277 37
-8.379995 12.587559 -0.018553 39
-8.339502 12.609893 -0.018419 34
-8.304779 12.637986 -0.018882 27
-8.256527 12.646018 -0.017573 22
-8.204528 12.646823 -0.015677 29
-8.156343 12.654453 -0.014371 26
-8.108182 12.661888 -0.013067 21
-8.058197 12.665594 -0.011471 26
-8.013765 12.679720 -0.010758 24
-7.958376 12.672386 -0.008282 29
-7.910350 12.679028 -0.006985 29
-7.866189 12.688008 -0.005988 29
-7.809279 12.676443 -0.003224 42
-7.745430 12.650330 0.000715 55
-7.688876 12.638231 0.003476 58
-7.649958 12.661739 0.003296 43
-7.602268 12.667157 0.004584 43
-7.561502 12.686777 0.004695 35
-7.513825 12.691838 0.005980 34
-7.467880 12.700319 0.006970 30
-7.420257 12.705007 0.008252 27
-7.371366 12.701316 0.010115 42
-7.320899 12.693805 0.012270 37
-7.258220 12.669775 0.015902 30
-7.190040 12.621785 0.021283 33
-7.162005 12.673671 0.018746 69
-7.122828 12.695403 0.018551 52
-7.072383 12.691416 0.020409 66
-7.039918 12.722943 0.019326 34
-6.987955 12.714935 0.021475 33
-6.940300 12.722264 0.022454 31
-6.890069 12.717507 0.024306 42
-6.845044 12.719057 0.025566 51
-6.796496 12.717593 0.027122 46
-6.753080 12.722485 0.028085 46
-6.702600 12.721476 0.029642 45
-6.655719 12.723140 0.030901 45
-6.605947 12.717202 0.032744 43
-6.562098 12.725916 0.033413 42
-6.509585 12.712152 0.035840 45
-6.460901 12.713848 0.037096 48
-6.423442 12.732433 0.036877 43
-6.381695 12.739698 0.037537 45
-6.333064 12.740867 0.038789 46
-6.285825 12.732840 0.040618 49
-6.241420 12.744863 0.040988 49
-6.194981 12.744720 0.042232 46
-6.147256 12.740637 0.043767 46
-6.100937 12.740128 0.045008 46
-6.052782 12.727423 0.047124 39
-6.011813 12.741633 0.047190 40
-5.963072 12.733046 0.049013 41
-5.924135 12.746251 0.049074 34
-5.876005 12.745558 0.050311 41
-5.829984 12.743995 0.051544 38
-5.788541 12.749173 0.052187 34
-5.746665 12.766920 0.051956 33
-5.699157 12.752795 0.054060 37
-5.656907 12.761966 0.054409 38
-5.613456 12.767174 0.055050 38
-5.567676 12.764594 0.056274 44
-5.521700 12.753580 0.058081 45
-5.474021 12.751262 0.059305 42
-5.433897 12.759020 0.059645 46
-5.385190 12.752518 0.061160 49
-5.341933 12.756730 0.061793 48
-5.298563 12.752525 0.063007 46
-5.258587 12.767944 0.062759 45
-5.212169 12.760157 0.064266 42
-5.167944 12.759887 0.065186 42
-5.123760 12.759451 0.066105 46
-5.081663 12.766562 0.066437 44
-5.040600 12.769127 0.067059 42
-4.999554 12.771548 0.067680 44
-4.953434 12.771006 0.068595 45
-4.911350 12.777509 0.068923 42
-4.871314 12.783355 0.069247 42
-4.826214 12.786188 0.069866 41
-4.778549 12.768959 0.071945 48
-4.740414 12.782120 0.071681 41
-4.697203 12.792227 0.071711 39
-4.655128 12.797816 0.072031 41
-4.613358 12.795009 0.072933 39
-4.571301 12.800300 0.073251 38
-4.515319 12.751311 0.077663 37
-4.482610 12.799169 0.074760 38
-4.440580 12.803993 0.075074 44
-4.397740 12.804763 0.075679 45
-4.356194 12.801048 0.076574 37
-4.314198 12.805425 0.076884 33
-4.270140 12.810055 0.077194 37
-4.227389 12.810206 0.077794 35
-4.183190 12.802363 0.078977 38
-4.142583 12.801821 0.079574 45
-4.098520 12.793662 0.080755 45
-4.059391 12.800685 0.080765 42
-4.015433 12.804366 0.081067 42
-3.973537 12.807532 0.081367 46
-3.931644 12.810550 0.081666 48
-3.890531 12.805208 0.082549 46
-3.849932 12.815810 0.082261 42
-3.810115 12.818068 0.082556 42
-3.766176 12.820822 0.082850 44
-3.725781 12.818851 0.083436 45
-3.682442 12.825239 0.083435 45
-3.641145 12.831176 0.083434 41
-3.598734 12.829065 0.084015 45
-3.557425 12.834709 0.084011 44
-3.518163 12.839937 0.084006 41
-3.475803 12.837386 0.084584 42
-3.435546 12.834427 0.085162 41
-3.394219 12.839501 0.085153 42
-3.350807 12.844674 0.085142 43
-3.311061 12.845254 0.085424 43
-3.266754 12.842192 0.085996 43
-3.227044 12.842489 0.086275 42
-3.185690 12.846836 0.086260 42
-3.144321 12.851039 0.086244 42
-3.102555 12.851126 0.086519 37
-3.060434 12.847094 0.087086 41
-3.016936 12.827018 0.088821 41
-2.977001 12.846530 0.087630 36
-2.936392 12.833930 0.088779 37
-2.898394 12.853007 0.087587 41
-2.855802 12.840295 0.088733 45
-2.813024 12.823451 0.090170 38
-2.769282 12.790533 0.092775 36
-2.728637 12.833225 0.089821 37
-2.685606 12.807960 0.091840 35
-2.647825 12.834193 0.090056 38
-2.605634 12.820584 0.091195 35
-2.562528 12.786905 0.093795 37
-2.523078 12.824797 0.091128 41
-2.481300 12.862646 0.088459 45
-2.441628 12.856334 0.089009 41
-2.402300 12.857862 0.088974 40
-2.361166 12.867304 0.088350 43
-2.317659 12.868690 0.088308 42
-2.278291 12.869808 0.088269 43
-2.236382 12.850902 0.089690 40
-2.192858 12.847842 0.089938 46
-2.151427 12.844591 0.090186 43
-2.110475 12.877095 0.087799 41
-2.071043 12.873536 0.088047 42
-2.029541 12.865869 0.088584 42
-1.990204 12.874009 0.087952 41
-1.948748 12.874039 0.087901 36
-1.907273 12.877913 0.087557 38
-1.865709 12.889620 0.086626 36
-1.824380 12.873259 0.087743 38
-1.780674 12.884645 0.086807 36
-1.689294 13.361738 0.051552 8
-1.580507 12.656405 0.102916 23
-1.542561 12.635145 0.104323 37
-1.501626 12.641586 0.103674 33
-1.458609 12.647796 0.103022 30
-1.419978 12.646066 0.102961 36
-1.378922 12.652075 0.102309 28
-1.338244 12.649971 0.102242 30
-1.297346 12.651710 0.101881 28
-1.254636 12.649199 0.101808 28
-1.216509 12.638830 0.102327 37
-1.177909 12.636297 0.102259 30
-1.135599 12.657369 0.100428 37
-1.098444 12.606676 0.103872 35
-1.054352 12.623322 0.102327 33
-1.013545 12.648086 0.100202 57
-0.972545 12.648682 0.099832 35
-0.931881 12.645161 0.099753 37
-0.892687 12.625607 0.100847 42
-0.849078 12.653577 0.098419 50
-0.807221 12.661534 0.097457 23
-0.787216 12.455042 0.112337 10
-0.731276 12.601624 0.101104 22
-0.710724 12.414844 0.114518 32
-0.681805 12.331352 0.120307 11
-0.557305 13.075983 0.064750 5
-0.515153 13.071009 0.064657 9
-0.419371 13.151645 0.057716 13
-0.214030 13.703938 0.015128 36
-0.308262 12.714165 0.088166 11
-0.275927 12.649101 0.092475 12
-0.236434 12.635256 0.092964 5
-0.066691 13.481100 0.029394 12
0.089770 13.605914 0.018184 7
0.126998 13.571496 0.020134 7
0.261981 13.329505 0.035560 4
0.369300 13.191916 0.043739 36
0.411850 13.183707 0.043619 16
0.468328 13.245786 0.038201 10
0.518167 13.272425 0.035429 22
0.553774 13.228528 0.037955 13
0.564618 13.067389 0.049313 6
0.619181 13.117028 0.044772 19
0.737580 13.262822 0.032153 49
0.794295 13.315618 0.027310 21
0.797516 13.130872 0.040436 31
0.799481 12.946256 0.053566 24
0.834798 12.909361 0.055498 15
1.060211 13.290079 0.023846 40
1.145128 13.087757 0.036403 27
1.191331 13.092282 0.035082 27
1.226398 13.054207 0.037005 25
1.278784 13.081540 0.033911 19
1.318853 13.062458 0.034356 22
1.272061 12.736132 0.058425 24
1.321589 12.755514 0.055920 28
1.410356 12.912885 0.042781 19
1.604617 13.434088 0.001579 48
1.675802 13.517341 -0.005961 74
1.645214 13.251982 0.013380 31
1.654947 13.128448 0.021794 48
1.711091 13.161582 0.018091 51
1.750031 13.137244 0.018820 9
0.664341 9.372705 0.308876 0
0.646338 9.219444 0.320009 0
0.673595 9.210753 0.319904 0
0.646895 9.030751 0.333106 0
0.665131 8.987029 0.335654 0
0.674276 8.916784 0.340274 0
0.678930 8.843721 0.345202 0
0.715207 8.865141 0.342730 0
0.720689 8.787379 0.347944 0
0.716398 8.691781 0.354651 0
0.738008 8.582694 0.361541 1
0.761752 8.561490 0.362314 3
0.769072 8.499454 0.366353 4
0.810373 8.454521 0.368212 17
0.839196 8.452273 0.367508 37
0.863795 8.438725 0.367692 32
0.889631 8.424598 0.367870 23
0.915692 8.418825 0.367465 25
0.968741 8.398052 0.367230 113
0.997523 8.395191 0.366520 112
1.005637 8.344646 0.369676 81
1.031497 8.338464 0.369268 75
1.062944 8.338515 0.368254 72
1.091620 8.335283 0.367541 69
1.118766 8.328262 0.367125 66
1.147733 8.329030 0.366120 60
1.178019 8.329139 0.365107 56
1.206460 8.321248 0.364682 50
1.233924 8.318018 0.363971 47
1.265564 8.317213 0.362949 43
1.292723 8.309552 0.362528 43
1.318593 8.302363 0.362112 43
1.349382 8.305986 0.360802 34
1.443854 8.306499 0.357436 3
1.462573 8.280128 0.358499 4
1.498662 8.293972 0.356290 1
1.599323 8.369630 0.347675 5
1.633769 8.375093 0.346050 6
1.658222 8.363132 0.345922 2
1.671039 8.321223 0.348166 5
1.693530 8.305572 0.348336 6
1.755319 8.301219 0.346272 14
1.793535 8.313051 0.344044 8
1.854405 8.371435 0.337939 2
1.924374 8.442966 0.330629 3
1.916371 8.361599 0.336155 7
2.082695 8.362764 0.329452 2
2.146987 8.418422 0.323321 3
2.124983 8.321135 0.330361 6
2.185855 8.309787 0.328566 7
2.215317 8.302196 0.327817 8
2.254727 8.311773 0.325569 8
2.286971 8.311555 0.324226 8
2.323286 8.318091 0.322283 9
2.358197 8.316086 0.320922 9
2.393912 8.318111 0.319267 8
2.431742 8.323399 0.317312 8
2.465539 8.321681 0.315954 8
2.501451 8.323225 0.314296 8
2.533257 8.317805 0.313236 8
2.567177 8.315647 0.311875 8
2.604075 8.320909 0.309920 8
2.641495 8.321020 0.308248 8
2.678552 8.325947 0.306290 8
2.716108 8.325711 0.304615 8
2.754601 8.329477 0.302646 8
2.795344 8.336412 0.300375 7
2.831835 8.336471 0.298704 7
2.869292 8.340539 0.296739 7
2.902787 8.332764 0.295657 7
2.941652 8.335649 0.293681 7
2.970415 8.325974 0.292915 7
3.010347 8.332703 0.290643 7
3.047164 8.331781 0.288964 7
3.088553 8.337268 0.286680 7
3.126782 8.335108 0.284988 7
3.168346 8.340202 0.282701 7
3.205420 8.338570 0.281015 7
3.238959 8.334420 0.279638 7
3.279720 8.334796 0.277638 7
3.316944 8.332653 0.275948 7
3.363573 8.343264 0.273049 7
3.402007 8.344905 0.271062 7
3.446514 8.351860 0.268461 7
3.481647 8.345766 0.267067 7
3.520468 8.341759 0.265359 7
3.566347 8.352251 0.262460 6
3.607546 8.356156 0.260163 7
3.644151 8.348391 0.258753 7
3.685492 8.351919 0.256453 7
3.727047 8.350113 0.254435 8
3.779629 8.364838 0.250911 6
3.815159 8.357311 0.249504 5
3.855649 8.355887 0.247490 5
3.891234 8.348027 0.246080 5
3.934314 8.349347 0.243760 6
3.977476 8.350455 0.241438 6
4.024461 8.358588 0.238518 7
4.067801 8.359262 0.236192 8
4.101074 8.347409 0.235078 7
4.140696 8.345687 0.233063 1
4.208511 8.372245 0.227990 0
4.223948 8.338459 0.228996 2
4.266309 8.339211 0.226672 1
4.452476 8.400272 0.213276 2
4.494003 8.395883 0.211236 5
4.545504 8.350640 0.210802 6
4.637428 8.402366 0.202978 4
4.692522 8.411959 0.199409 14
4.862990 8.391655 0.190897 2
4.920032 8.404069 0.187024 1
4.983797 8.366258 0.185334 3
5.042406 8.376706 0.181442 3
5.103926 8.389719 0.177243 2
6.979955 10.292992 -0.027500 1
7.005182 10.257558 -0.027171 1
7.026316 10.214777 -0.026246 1
7.041674 10.166266 -0.024710 1
7.056804 10.117762 -0.023173 1
7.082956 10.080574 -0.022859 1
7.100491 10.034861 -0.021629 1
7.127575 10.001954 -0.021606 1
7.154830 9.962987 -0.021308 1
7.173364 9.915579 -0.020092 1
7.187263 9.866975 -0.018555 1
7.209549 9.826685 -0.017937 1
7.233012 9.790710 -0.017609 1
7.240523 9.736581 -0.015459 1
7.259369 9.693458 -0.014534 1
7.285244 9.660106 -0.014513 1
7.306667 9.619624 -0.013895 1
7.336704 9.587222 -0.014198 1
7.372504 9.560110 -0.015115 1
7.377273 9.507610 -0.012948 1
7.347803 9.421412 -0.007109 1
7.378613 9.387238 -0.007427 1
7.403347 9.347639 -0.007131 1
7.405574 9.291093 -0.004669 1
7.433022 9.259987 -0.004958 1
7.466372 9.234041 -0.005862 1
7.486030 9.193239 -0.005244 1
7.497878 9.142936 -0.003719 1
7.509688 9.098556 -0.002470 1
7.525753 9.055115 -0.001544 1
7.562961 9.029669 -0.002775 1
7.587882 8.993814 -0.002774 1
7.618799 8.962985 -0.003390 1
7.566617 8.863441 0.004320 1
7.581682 8.820016 0.005247 1
7.616471 8.790026 0.004307 1
7.623654 8.743174 0.005867 1
7.650631 8.709670 0.005559 1
7.669916 8.672781 0.005884 1
7.684142 8.629211 0.006811 1
7.713856 8.597963 0.006193 1
7.732214 8.555091 0.006795 1
7.757221 8.522906 0.006501 1
7.780268 8.486506 0.006499 1
7.796842 8.445193 0.007117 1
7.816423 8.406267 0.007424 1
7.835852 8.367294 0.007732 1
7.842351 8.318725 0.009278 1
7.855036 8.274954 0.010206 1
7.864325 8.228817 0.011443 1
7.886287 8.192122 0.011441 1
7.908112 8.155363 0.011438 1
7.920094 8.111543 0.012366 1
7.928649 8.065406 0.013604 1
7.943505 8.023914 0.014222 1
7.961451 7.984704 0.014530 1
7.981298 7.949475 0.014542 1
8.004295 7.916467 0.014243 1
8.026303 7.877633 0.014223 1
8.006288 7.815184 0.017966 1
8.033322 7.782592 0.017340 1
8.056944 7.747665 0.017025 1
8.078301 7.708684 0.017005 1
8.083893 7.664321 0.018261 1
8.097115 7.622632 0.018879 1
8.113504 7.583115 0.019186 1
8.136429 7.547909 0.018869 1
8.145823 7.503981 0.019799 1
8.155035 7.460067 0.020730 1
8.170797 7.420443 0.021036 1
8.176283 7.374411 0.022279 1
8.201860 7.341101 0.021649 1
8.223941 7.305588 0.021331 1
8.228915 7.259549 0.022575 1
8.242817 7.221567 0.022897 1
8.261069 7.183845 0.022891 1
8.279182 7.146072 0.022884 1
8.286881 7.102119 0.023816 1
8.311559 7.068342 0.023184 1
8.298297 7.012259 0.025994 1
8.353688 6.996480 0.022543 2
8.346941 6.944480 0.024728 1
8.367636 6.908463 0.024407 1
8.353537 6.852668 0.027222 1
8.370438 6.814670 0.027215 1
8.391688 6.776765 0.026878 1
8.382897 6.726930 0.029083 1
8.385364 6.681179 0.030332 1
8.394637 6.639299 0.030954 1
8.402767 6.599234 0.031592 1
8.411716 6.557366 0.032214 1
8.420500 6.515505 0.032836 1
8.418538 6.468065 0.034402 1
8.419905 6.422556 0.035654 1
8.431699 6.382614 0.035963 1
8.443340 6.342656 0.036272 1
8.440621 6.295435 0.037841 1
8.455492 6.257296 0.037835 1
8.459529 6.213755 0.038775 1
8.456247 6.166702 0.040346 1
8.467073 6.126784 0.040656 1
8.474164 6.085104 0.041282 1
8.488270 6.046911 0.041277 1
8.490576 6.005332 0.042235 1
8.497190 5.963681 0.042862 1
8.503639 5.922046 0.043489 1
8.520765 5.885488 0.043168 1
8.501575 5.832122 0.046008 1
8.500265 5.787261 0.047269 1
8.509660 5.747416 0.047582 1
8.522540 5.709202 0.047578 1
8.520714 5.664459 0.048841 1
8.518703 5.619786 0.050104 1
8.510474 5.529068 0.052950 11
8.500581 5.481476 0.054850 8
8.516169 5.444932 0.054531 7
8.567604 5.425647 0.051055 3
8.524823 5.278922 0.057715 7
8.542659 5.245625 0.057095 10
8.550756 5.204132 0.057396 10
8.550551 5.161530 0.058348 10
8.561312 5.123356 0.058347 12
8.563787 5.084104 0.058999 10
8.582416 5.046934 0.058346 10
8.574129 5.001593 0.059937 6
8.568694 4.959602 0.061226 6
8.571938 4.916804 0.061848 6
8.619222 4.892434 0.058661 3
8.611737 4.808139 0.060907 1
8.621220 4.769870 0.060907 1
8.631215 4.729732 0.060891 1
8.629121 4.687479 0.061849 1
8.645705 4.651792 0.061211 1
8.643303 4.609594 0.062169 1
8.602957 4.554708 0.066325 1
8.634221 4.524121 0.064409 1
8.626925 4.482721 0.065705 1
8.630844 4.445119 0.066043 1
8.647203 4.407498 0.065389 1
8.643257 4.367462 0.066367 1
8.647931 4.326181 0.066674 1
8.651297 4.288617 0.067012 1
8.644229 4.243851 0.068281 1
8.663128 4.209126 0.067322 1
8.654622 4.168160 0.068624 1
8.642684 4.124305 0.070232 1
8.672671 4.092857 0.068310 1
8.664788 4.048349 0.069582 1
8.671537 4.010151 0.069585 1
8.609047 3.952573 0.075373 1
8.599575 3.912189 0.076681 1
8.625071 3.879508 0.075080 1
8.603772 3.836091 0.077353 1
8.625666 3.800421 0.076058 1
8.600673 3.754364 0.078640 1
8.625198 3.723313 0.077053 1
8.627391 3.682530 0.077367 1
8.628964 3.643616 0.077697 1
8.626070 3.605616 0.078365 1
8.623488 3.565817 0.079018 1
8.609127 3.523279 0.080639 1
8.617880 3.486368 0.080326 1
8.634271 3.451231 0.079367 1
8.638463 3.415194 0.079391 1
8.635585 3.373705 0.080031 1
8.577639 3.322057 0.085211 1
8.640230 3.297128 0.080373 1
8.648193 3.260110 0.080060 1
8.581512 3.209311 0.085909 1
8.589549 3.170657 0.085582 1
8.597072 3.133816 0.085270 1
8.604098 3.098794 0.084975 1
8.599633 3.059603 0.085635 1
8.610682 3.023481 0.085000 1
8.590267 2.981391 0.086958 1
8.620650 2.948904 0.084701 1
8.623476 2.911244 0.084714 1
8.594440 2.869843 0.087339 1
8.604839 2.833673 0.086704 1
8.603326 2.795438 0.087044 1
8.625266 2.761184 0.085434 1
8.604119 2.717867 0.087383 1
8.625808 2.683498 0.085772 1
8.627690 2.645918 0.085787 1
8.601573 2.605973 0.088095 1
8.622895 2.571450 0.086484 1
8.616491 2.532771 0.087151 1
8.621787 2.495840 0.086842 1
8.611158 2.456700 0.087835 1
8.604088 2.420030 0.088520 1
8.604795 2.384466 0.088552 1
8.605855 2.345225 0.088555 1
8.543471 2.298112 0.093777 1
8.540032 2.260480 0.094124 1
8.544378 2.223818 0.093818 1
8.528791 2.184885 0.095145 1
8.524948 2.147387 0.095493 1
8.520971 2.109931 0.095841 1
8.524792 2.073337 0.095537 1
8.512617 2.035146 0.096540 1
8.527906 2.001557 0.095269 1
8.527210 1.966401 0.095307 1
8.510839 1.926179 0.096625 1
8.509890 1.891107 0.096664 1
8.497204 1.851415 0.097655 1
8.519993 1.816472 0.095714 1
8.506752 1.780512 0.096737 1
8.505576 1.741856 0.096746 1
8.496181 1.704502 0.097428 1
8.502447 1.670080 0.096812 1
8.488706 1.634398 0.097838 1
8.479032 1.595402 0.098507 1
8.473095 1.558523 0.098862 1
8.474900 1.523921 0.098576 1
8.452868 1.484534 0.100233 1
8.446542 1.447830 0.100591 1
8.448051 1.411500 0.100291 1
8.421549 1.374132 0.102295 1
8.410850 1.337488 0.102984 1
8.404005 1.301044 0.103344 1
8.389064 1.264440 0.104364 1
8.365981 1.229562 0.106059 1
8.358759 1.193357 0.106422 1
8.343438 1.157076 0.107445 1
8.331976 1.120955 0.108139 1
8.336332 1.085063 0.107513 1
8.328604 1.049073 0.107879 1
8.332709 1.013165 0.107254 1
8.328717 0.977239 0.107289 1
8.316627 0.941379 0.107986 1
8.316385 0.907299 0.107707 1
8.315988 0.869632 0.107398 1
8.299538 0.834003 0.108428 1
8.302892 0.798115 0.107804 1
8.302176 0.764080 0.107526 1
8.301300 0.728258 0.107233 1
8.240531 0.694172 0.111910 1
8.243396 0.658435 0.111288 1
8.226217 0.623392 0.112323 1
8.200953 0.588779 0.114023 1
8.187518 0.553824 0.114729 1
8.229711 0.516367 0.110790 1
8.212047 0.481595 0.111828 1
8.186302 0.447366 0.113531 1
8.172383 0.412630 0.114240 1
8.122535 0.380150 0.117940 1
8.164193 0.343924 0.114012 1
8.126178 0.312756 0.116732 1
8.147585 0.275865 0.114450 1
8.087831 0.174246 0.117921 1
8.100785 0.137829 0.116304 1
-14.268276 1.002414 -0.029583 1
-14.264199 1.045354 -0.028911 1
-14.244024 1.088139 -0.026957 1
-14.247622 1.131057 -0.026926 1
-14.251070 1.174002 -0.026895 1
-14.274339 1.215192 -0.028481 1
-14.261547 1.257910 -0.027170 1
-14.248608 1.300541 -0.025860 1
-14.235520 1.343084 -0.024550 1
-14.246197 1.386312 -0.025159 1
-14.240782 1.429048 -0.024490 1
-14.243187 1.472064 -0.024459 1
-14.209589 1.513570 -0.021556 1
-14.247544 1.558162 -0.024399 1
-14.241532 1.600846 -0.023731 1
-14.231390 1.643283 -0.022744 1
-14.220982 1.687797 -0.021740 1
-14.218627 1.728447 -0.021410 1
-14.216002 1.771227 -0.021062 1
-14.209250 1.813731 -0.020396 1
-14.214284 1.857041 -0.020686 1
-14.219321 1.898257 -0.020992 1
-14.216104 1.941038 -0.020645 1
-14.192866 1.982197 -0.018709 1
-14.106446 2.103311 -0.011637 17
-14.094575 2.144942 -0.010659 17
-14.090498 2.187287 -0.010317 17
-14.102139 2.231240 -0.011244 15
-14.089830 2.272772 -0.010267 13
-14.089270 2.315533 -0.010243 11
-14.076673 2.356964 -0.009267 11
-14.079777 2.400167 -0.009560 11
-14.070849 2.441984 -0.008902 11
-14.062037 2.481644 -0.008262 8
-14.122557 2.575361 -0.013278 1
-14.133068 2.617794 -0.014219 1
-14.131290 2.660813 -0.014194 1
-14.140908 2.707633 -0.015100 1
-14.142759 2.751277 -0.015390 1
-14.136878 2.791662 -0.015066 1
-14.126601 2.833553 -0.014410 1
-14.108298 2.874172 -0.013122 1
-14.113490 2.918435 -0.013729 1
-14.090968 2.958287 -0.012128 1
-14.087636 3.003383 -0.012088 1
-14.076631 3.045032 -0.011434 1
-14.097281 3.089954 -0.013319 1
-14.070642 3.126722 -0.011422 1
-14.074911 3.171097 -0.012029 1
-14.066866 3.215480 -0.011675 1
-14.046899 3.257627 -0.010377 1
-14.055007 3.300684 -0.011316 1
-14.054724 3.344408 -0.011609 1
-14.042965 3.383722 -0.010975 1
-14.038049 3.428776 -0.010937 1
-14.057264 3.474425 -0.012817 1
-14.044643 3.515815 -0.012168 1
-14.024079 3.555490 -0.010891 1
-14.010728 3.598840 -0.010226 1
-13.998142 3.637925 -0.009596 1
-14.004889 3.681304 -0.010533 1
-13.963993 3.806635 -0.008579 15
-13.930841 3.842968 -0.006368 12
-13.882079 3.875350 -0.002908 4
-13.962301 3.983592 -0.010384 1
-13.947941 4.024485 -0.009741 1
-13.918526 4.059260 -0.007864 1
-13.923203 4.104998 -0.008785 1
-13.923852 4.149788 -0.009393 1
-13.893517 4.186366 -0.007503 1
-13.882316 4.227997 -0.007175 1
-13.870969 4.269588 -0.006848 1
-13.867737 4.311206 -0.007161 1
-13.859350 4.355907 -0.007130 1
-13.844316 4.394245 -0.006508 1
-13.840049 4.437926 -0.006806 1
-13.812665 4.474869 -0.005235 1
-13.804278 4.517354 -0.005222 1
-13.814830 4.565580 -0.006766 1
-13.802304 4.606934 -0.006442 1
-13.862022 4.670630 -0.012031 1
-13.856742 4.714530 -0.012328 1
-13.858903 4.760849 -0.013247 1
-13.822912 4.795047 -0.011058 4
-13.760276 4.820421 -0.006695 1
-13.751325 4.860770 -0.006701 1
-13.718846 4.895615 -0.004827 1
-13.717198 4.938391 -0.005455 1
-13.698901 4.980167 -0.004809 1
-13.684930 5.021114 -0.004490 1
-13.690359 5.066514 -0.005738 1
-13.718192 5.119922 -0.008846 1
-13.699248 5.161649 -0.008202 4
-13.638875 5.188453 -0.004150 1
-13.650414 5.238724 -0.006002 1
-13.661743 5.289127 -0.007853 1
-13.665386 5.336884 -0.009084 1
-13.639731 5.371469 -0.007855 1
-13.635582 5.416448 -0.008468 1
-13.634984 5.462878 -0.009389 1
-13.634992 5.507320 -0.010327 1
-13.603530 5.544264 -0.008760 1
-13.587590 5.584874 -0.008447 1
-13.567804 5.623950 -0.007825 1
-13.540490 5.659960 -0.006586 1
-13.520453 5.698845 -0.005966 1
-13.504802 5.737150 -0.005671 1
-13.483671 5.777896 -0.005037 1
-13.466917 5.818087 -0.004728 1
-13.436180 5.849993 -0.003202 1
-13.440320 5.901428 -0.004728 1
-13.412150 5.936723 -0.003496 1
-13.383875 5.971880 -0.002266 1
-13.370969 6.011337 -0.002284 1
-13.338820 6.044656 -0.000748 1
-13.325663 6.083988 -0.000767 1
-13.312368 6.123288 -0.000786 1
-13.289879 6.163199 -0.000160 1
-13.263628 6.201346 0.000771 1
-13.183926 6.212165 0.006296 1
-13.162046 6.249611 0.006902 1
-13.132833 6.283554 0.008121 1
-13.121512 6.325957 0.007804 1
-13.096598 6.359471 0.008699 1
-13.070642 6.394818 0.009608 1
-13.066057 6.440591 0.008676 1
-13.064861 6.488168 0.007438 1
-13.035890 6.519614 0.008637 1
-13.012986 6.556443 0.009236 1
-12.979293 6.587760 0.010754 1
-12.977462 6.635279 0.009514 1
-12.156981 6.259871 0.078988 1
-11.961133 6.247411 0.093293 3
-11.889890 6.254264 0.098144 3
-11.832790 6.268205 0.101769 2
-11.754650 6.270455 0.107225 3
-11.705570 6.285763 0.110220 3
-11.698473 6.323795 0.109547 2
-11.693786 6.365464 0.108581 1
-11.716803 6.422686 0.105173 2
-11.700329 6.460358 0.105136 1
-12.699150 7.068228 0.015981 1
-12.694148 7.117429 0.014751 1
-12.666882 7.149009 0.015627 1
-12.655696 7.192342 0.014993 1
-12.631652 7.225759 0.015563 1
-12.602975 7.258919 0.016451 1
-12.579956 7.297879 0.016742 1
-12.568167 7.341053 0.016106 1
-12.533413 7.367950 0.017586 1
-12.531561 7.417246 0.016035 1
-12.487560 7.443438 0.018149 1
-12.462734 7.476212 0.018713 1
-10.862291 6.293562 0.290007 3
-10.806101 6.301997 0.293077 3
-10.749961 6.310103 0.296144 3
-10.677760 6.305968 0.300486 3
-10.614961 6.309192 0.304064 3
-10.572605 6.324654 0.306092 3
-10.523476 6.335658 0.308634 6
-10.455034 6.332148 0.312707 3
-10.395894 6.336124 0.316015 5
-10.343558 6.344049 0.318807 6
-10.277843 6.343034 0.322625 3
-10.215588 6.343797 0.326182 3
-10.163453 6.350742 0.328966 3
-10.111370 6.357389 0.331747 3
-10.059341 6.363738 0.334526 4
-10.004049 6.367570 0.337559 5
-9.945518 6.368852 0.340847 6
-9.900289 6.378758 0.343105 3
-9.848497 6.383907 0.345874 5
-9.806628 6.395555 0.347872 5
-9.745099 6.393320 0.351406 5
-9.693495 6.397583 0.354168 5
-9.646163 6.402511 0.356662 4
-9.607707 6.415446 0.358396 4
-9.559511 6.421216 0.360895 4
-9.511368 6.426715 0.363393 5
-9.453586 6.424914 0.366656 2
-9.408801 6.432196 0.368893 3
-9.370486 6.443964 0.370617 2
-9.316147 6.443644 0.373618 2
-9.274694 6.452565 0.375593 2
-9.207748 6.442067 0.379611 3
-9.156875 6.443222 0.382349 2
-9.099733 6.439244 0.385595 3
-9.072145 6.455590 0.386532 5
-9.094077 6.512144 0.383395 1
-9.027553 6.500193 0.387402 1
-8.939222 6.470588 0.393190 2
-8.863358 6.489325 0.396599 12
-8.822341 6.495898 0.398556 6
-8.806202 6.522325 0.398474 6
-8.699526 6.514305 0.404417 25
-8.661747 6.522546 0.406112 18
-8.562744 6.516783 0.411525 2
-8.534271 6.532075 0.412453 7
-8.472299 6.518817 0.416175 5
-8.428703 6.520760 0.418370 2
-8.397274 6.532884 0.419547 2
-8.392982 6.568394 0.418438 1
-8.258956 6.527702 0.426869 14
-8.236614 6.547007 0.427279 28
-8.211235 6.563566 0.427942 35
-8.179876 6.574682 0.429111 33
-8.154438 6.591002 0.429772 32
-8.135845 6.611510 0.429918 35
-8.113258 6.630333 0.430324 35
-8.081815 6.640944 0.431488 34
-8.056220 6.656839 0.432146 56
-8.036418 6.678082 0.432296 57
-8.013637 6.696517 0.432698 65
-8.005277 6.728603 0.431835 49
-7.990996 6.755185 0.431477 40
-7.970851 6.776198 0.431625 21
-7.959231 6.805478 0.431014 20
-7.941768 6.829169 0.430908 19
-7.929104 6.853525 0.430534 15
-7.921777 6.889400 0.429424 14
-7.909647 6.918625 0.428812 13
-7.901244 6.949627 0.427940 11
-7.880420 6.970327 0.428085 9
-7.877366 7.007002 0.426708 7
-7.872022 7.045785 0.425345 6
-7.863695 7.081744 0.424235 5
-7.861157 7.117511 0.422851 4
-7.867340 7.166920 0.420473 3
-7.856755 7.199079 0.419608 5
-7.818754 7.245915 0.419388 40
-7.825702 7.299505 0.416766 28
-7.825322 7.343405 0.414894 42
-7.838194 7.402092 0.411763 50
-7.839979 7.449137 0.409640 45
-7.833476 7.487389 0.408272 39
-7.841252 7.539500 0.405639 37
-7.858224 7.604681 0.402009 38
-7.868036 7.660061 0.399127 31
-7.881646 7.722607 0.395750 21
-7.879134 7.767287 0.393881 5
-11.734026 12.339948 0.018107 5
-11.722915 12.407367 0.015577 5
-11.660366 12.418718 0.017826 9
-11.617869 12.449451 0.018305 7
-11.562466 12.464720 0.020037 9
-11.519284 12.490355 0.020752 13
-11.456241 12.495937 0.023232 13
-11.403396 12.513572 0.024708 18
-11.335425 12.512397 0.027684 16
-11.269588 12.509265 0.030648 16
-11.202356 12.512162 0.033380 18
-11.129776 12.503753 0.036850 20
-11.079187 12.518437 0.038303 22
-11.011795 12.515658 0.041268 24
-10.946987 12.515697 0.043979 22
-10.884734 12.518581 0.046438 22
-10.825003 12.524337 0.048645 22
-10.767762 12.532990 0.050599 26
-10.698516 12.525474 0.053801 28
-10.638251 12.520967 0.056481 30
-10.576469 12.522402 0.058928 28
-10.514784 12.523546 0.061374 28
-10.457930 12.530829 0.063317 26
-10.396417 12.531411 0.065758 33
-10.337348 12.534936 0.067947 31
-10.271358 12.528470 0.070883 29
-10.212481 12.531428 0.073068 28
-10.155996 12.537371 0.075001 28
-10.094971 12.536532 0.077430 8
-10.018037 12.512508 0.081604 5
-9.957305 12.511045 0.084029 5
-9.894416 12.506012 0.086701 5
-9.842928 12.517157 0.088125 5
-9.780249 12.511566 0.090793 5
-9.717705 12.505679 0.093458 5
-9.657516 12.502815 0.095873 5
-9.603865 12.504991 0.097778 5
-9.546079 12.504928 0.099939 5
-9.493807 12.601136 0.097037 50
-9.442450 12.610576 0.098447 38
-9.393269 12.623162 0.099607 31
-9.346229 12.638919 0.100515 28
-9.290665 12.640973 0.102418 26
-9.237291 12.646168 0.104069 26
-9.181868 12.647738 0.105968 31
-9.122341 12.642262 0.108361 35
-9.069131 12.642088 0.110248 33
-9.009833 12.636090 0.112638 33
-8.958886 12.643512 0.114032 28
-8.910017 12.654148 0.115175 28
-8.846938 12.640529 0.118056 29
-8.804234 12.661050 0.118451 29
-8.751433 12.664160 0.120086 24
-8.692707 12.656671 0.122464 29
-8.642051 12.662773 0.123848 29
-8.589526 12.660563 0.125719 27
-8.535055 12.659283 0.127595 29
-8.480673 12.657763 0.129469 32
-8.432189 12.666482 0.130598 29
-8.374106 12.657513 0.132965 37
-8.331454 12.676321 0.133346 34
-8.277356 12.673903 0.135213 30
