# .PCD v.7 - Point Cloud Data file format
VERSION .7
FIELDS x y z intensity
SIZE 4 4 4 1
TYPE F F F U
COUNT 1 1 1 1
WIDTH 1478
HEIGHT 1
VIEWPOINT 0 0 0 1 0 0 0
POINTS 1478
DATA ascii
64.235634 35.034874 1.591056 58
81.902435 41.579617 1.732031 50
90.496857 44.550320 1.798419 63
90.485275 44.151188 1.794112 63
13.177990 7.182236 1.087364 1
13.109478 7.031753 1.085516 16
13.127806 6.975008 1.085005 14
13.197009 6.941311 1.084946 4
99.008186 36.640045 1.751447 63
35.192680 9.483666 1.205795 79
49.899666 7.631137 1.254999 21
191.021683 23.037518 2.034026 37
191.192917 22.374342 2.028935 68
161.808441 16.204359 1.840672 100
161.932281 15.639041 1.836302 101
162.147369 15.109898 1.832675 128
43.437897 4.258245 1.195888 16
43.399750 3.937353 1.192954 25
43.409767 3.779006 1.191643 25
43.434746 3.629474 1.190479 25
43.468086 3.464389 1.189223 25
45.442036 3.240129 1.196363 13
51.484375 2.415423 1.217135 24
51.357071 2.225807 1.214968 24
51.341072 2.039302 1.213341 24
51.288273 1.861634 1.211623 23
51.178886 1.683597 1.209645 23
51.284985 1.499105 1.208606 23
51.286446 1.313250 1.207080 23
51.359257 1.127577 1.205886 24
4.697030 -0.207996 0.981352 0
4.747481 -0.265479 0.981168 1
4.672335 -0.275390 0.980760 2
4.726121 -0.334092 0.980585 0
4.717538 -0.356632 0.980387 1
4.732628 -0.382786 0.980270 0
-78.573875 1.172778 1.500405 60
-78.168694 1.451129 1.499845 59
-78.374718 1.705785 1.503395 60
-91.982063 2.163229 1.602887 53
-92.781265 2.490732 1.611223 52
-77.162987 2.495245 1.501416 58
-77.469475 2.751890 1.505709 59
-77.226944 3.009121 1.506151 58
-90.740372 3.697291 1.606933 54
-90.950760 3.999110 1.610945 54
-91.178940 4.334238 1.615368 54
-91.574348 4.662347 1.620914 54
-91.744781 4.983305 1.624824 53
-91.675095 5.278339 1.626834 53
-96.322144 5.814141 1.664038 49
-37.350906 3.053319 1.226217 24
-38.034142 3.219527 1.232437 17
-37.447784 3.301441 1.229021 8
-37.966240 3.461455 1.234036 8
-37.622265 3.562944 1.232496 8
-134.172516 11.016032 1.974442 63
-135.308960 11.570481 1.987214 63
-134.934280 11.984597 1.988177 63
-132.252945 12.220941 1.971426 63
-132.031693 12.636526 1.973496 63
-134.477234 13.345247 1.996828 63
-130.356445 13.413269 1.968545 63
-130.407776 13.870948 1.972920 63
-129.445282 14.201571 1.969086 63
-133.498764 15.085891 2.005262 63
-129.799133 15.140964 1.979851 63
-132.152130 16.322186 2.006783 63
-132.097778 16.776535 2.010444 63
-26.060112 3.998894 1.155292 3
-25.924061 4.147709 1.155672 21
-80.792763 11.938107 1.608723 63
-79.512566 12.022570 1.600552 62
-79.542839 12.317134 1.603424 62
-79.581924 12.599707 1.606255 62
-80.094437 12.955346 1.613053 62
-80.224236 13.240976 1.616554 62
-77.611649 13.116251 1.597228 60
-78.772743 13.577531 1.609521 61
-82.659828 14.489463 1.644906 62
-79.223099 14.205852 1.618411 62
-82.311401 15.008511 1.647251 62
-77.601822 14.445473 1.609352 60
-76.813675 14.601987 1.605325 59
-76.449539 14.791107 1.604549 59
-77.316666 15.224013 1.614576 60
-77.089760 15.452939 1.615131 60
-76.842545 15.676605 1.615501 59
-71.501961 14.868800 1.570987 54
-71.441322 15.109067 1.572814 54
-77.836128 16.698334 1.631932 61
-79.906082 17.410816 1.652929 63
-79.765137 17.650774 1.654214 63
-79.750435 17.946047 1.656897 63
-79.698563 18.219208 1.659121 63
-79.621475 18.472506 1.660988 63
-79.750221 18.772722 1.664724 63
-79.131271 18.929110 1.661950 62
-78.865738 19.150572 1.662233 62
-82.282478 20.238834 1.696119 61
-82.230797 20.537827 1.698625 61
-82.169403 20.804859 1.700764 61
-82.262672 21.125574 1.704485 61
-82.106918 21.399029 1.706050 61
-82.159096 21.710680 1.709414 61
-82.117210 21.998608 1.711911 60
-82.093620 22.291632 1.714588 60
-82.103630 22.579090 1.717446 60
-82.043434 23.163670 1.722726 9
-82.025146 23.761591 1.728446 50
-82.010086 24.362579 1.734241 129
-81.970184 24.654337 1.736841 130
-81.948730 24.936731 1.739480 131
-81.944611 25.255283 1.742600 146
-105.925362 34.102520 1.992846 63
-101.689156 33.888203 1.962106 63
-36.814030 12.880032 1.314169 9
-81.770638 29.482229 1.783804 150
-81.738396 29.785084 1.786667 128
-81.737503 30.115694 1.790029 150
-81.726768 30.411917 1.792981 131
-81.714951 30.708387 1.795933 146
-81.708031 31.023249 1.799112 132
-81.679634 31.346645 1.802242 241
-81.664368 31.643856 1.805196 240
-81.640930 31.970562 1.808405 159
-81.601036 32.259468 1.811122 106
-81.204231 33.081539 1.817008 58
-80.653076 33.162502 1.814209 58
-79.601234 33.049244 1.806090 59
-81.817558 35.591286 1.847273 56
-81.727676 36.215797 1.853263 10
-71.632637 32.927608 1.752603 60
-71.567909 33.192444 1.754998 60
-75.836777 35.480919 1.807094 62
-75.504860 35.623466 1.806463 62
-72.659561 34.585587 1.776943 61
-71.670410 34.429302 1.768873 61
-71.487106 34.625443 1.769793 60
-71.383636 34.874947 1.771807 60
-72.513649 35.731972 1.788308 62
-72.574615 36.068787 1.792331 62
-73.016708 36.598186 1.800887 63
-50.087528 35.185806 1.986723 29
-49.977600 35.360577 1.988162 58
-49.847576 35.520958 1.989179 29
-49.875568 35.796028 1.993612 29
-49.721481 35.939453 1.994135 29
-46.846668 34.077026 1.935531 27
-49.704254 36.441319 2.001537 29
-51.267986 37.870155 2.039709 32
-49.921825 37.111946 2.014009 30
-50.751301 38.004295 2.036313 32
-50.787018 38.300655 2.041209 32
-52.095322 39.578335 2.074430 35
-48.034611 36.709690 1.988101 28
-47.871792 36.840763 1.988419 28
-47.922386 37.139263 1.993537 29
-47.629745 37.167862 1.990946 28
-47.027966 36.947922 1.981328 28
-46.620350 37.135872 1.980044 28
-46.410305 37.210506 1.979049 28
-46.175220 37.289436 1.977873 28
-43.986206 35.738617 1.931324 26
-43.188499 35.322071 1.916688 25
-40.623024 33.414963 1.860749 46
-40.524860 33.562626 1.862073 46
-40.368256 33.660767 1.862035 23
-40.165512 33.707310 1.860726 22
-40.144943 33.921440 1.863901 23
-40.002560 34.030926 1.864206 23
-40.049530 34.305702 1.869032 23
-39.770920 34.295704 1.866095 46
-39.495842 34.286827 1.863218 45
-39.337608 34.380344 1.863140 45
-39.220806 34.510612 1.864066 45
-39.133186 34.667324 1.865710 45
-38.956291 34.742966 1.865183 45
-38.632069 34.682499 1.861031 44
-38.508343 34.804867 1.861791 44
-38.331661 34.854115 1.860861 44
-37.965160 34.760109 1.855778 43
-37.951710 34.984447 1.859278 44
-36.546150 33.886089 1.827875 20
-36.459972 34.034279 1.829451 40
-36.266674 34.079540 1.828329 40
-36.185364 34.232529 1.830043 40
-36.160587 34.441284 1.833216 40
-36.043594 34.560459 1.834050 40
-35.977291 34.729923 1.836198 40
-36.640274 35.628506 1.857231 21
-36.426491 35.644073 1.855468 42
-34.211582 33.644314 1.801666 18
-36.046459 35.743938 1.853541 21
-35.627792 35.799950 1.850555 41
-33.636292 33.958992 1.801495 35
-36.726238 37.428802 1.887797 23
-33.424568 34.199650 1.803537 17
-38.300312 39.886177 1.943267 25
-36.616566 38.344574 1.902067 23
-33.299011 35.245350 1.819878 37
-33.236328 35.405323 1.821998 18
-34.241333 36.761295 1.853907 20
-33.948101 36.686119 1.849998 20
-33.618629 36.818657 1.849286 40
-31.660170 34.839649 1.798296 17
-31.555622 34.946999 1.799188 34
-31.193495 34.768860 1.792954 33
-31.059748 34.852501 1.793197 33
-30.972500 34.990376 1.794780 16
-30.659719 34.862595 1.789858 32
-30.515541 34.931965 1.789785 32
-30.440454 35.083614 1.791729 49
-30.441256 35.327499 1.795919 16
-29.772949 35.002277 1.784565 31
-29.501143 34.898750 1.780450 31
-29.331474 34.943420 1.779771 30
-29.087814 34.882641 1.776646 30
-29.006645 35.024094 1.778406 30
-28.729115 34.917358 1.774211 30
-28.627768 35.032631 1.775359 30
-28.307425 34.866650 1.769788 29
-28.502964 35.352627 1.779880 30
-28.489918 35.584705 1.783817 15
-28.909224 36.386688 1.801293 16
-28.698668 36.365688 1.799187 16
-28.674683 36.838688 1.807275 33
-28.516066 36.886711 1.806823 16
-28.703060 37.404678 1.817447 17
-29.756495 39.398323 1.861073 39
-28.343540 37.715210 1.820021 17
-28.051310 37.835197 1.819810 34
-27.871920 37.854069 1.818721 34
-27.669834 37.839340 1.816864 33
-27.493216 37.859814 1.815838 33
-27.085693 37.543339 1.807016 32
-26.960180 37.634125 1.807654 32
-27.190870 38.251011 1.820447 17
-26.382477 37.329784 1.797746 31
-26.084583 37.158630 1.792393 30
-25.982449 37.279305 1.793770 30
-26.984293 39.080975 1.833708 17
-33.035019 49.000191 2.057698 28
-32.205845 48.078705 2.034877 27
-32.086407 48.254818 2.037153 27
-24.601551 37.037262 1.779015 14
-24.390951 36.980316 1.776428 14
-24.340891 37.180847 1.779688 28
-23.944153 37.100510 1.775331 27
-22.751196 35.424538 1.736237 23
-23.656380 37.208870 1.775216 27
-23.584967 37.377209 1.777767 14
-23.407022 37.366348 1.776297 27
-22.187551 35.573391 1.734907 34
-22.050655 35.602230 1.734464 11
-21.907745 35.634026 1.734038 22
-21.899733 35.901394 1.738875 23
-22.939386 38.006191 1.784699 28
-22.892340 38.225616 1.788398 14
-22.596052 38.015636 1.782495 14
-21.118464 35.921612 1.733849 11
-20.969273 35.952950 1.733412 22
-21.467121 37.184151 1.759487 12
-21.983332 38.423084 1.785834 28
-21.852526 38.492752 1.786245 28
-21.814558 38.738937 1.790547 28
-21.786968 39.024235 1.795647 29
-19.349537 34.634514 1.698219 31
-19.222855 34.677216 1.698182 10
-22.697075 41.789738 1.852926 17
-22.588701 41.929733 1.854827 17
-26.032379 49.181995 2.011984 25
-19.661728 36.739845 1.739387 22
-19.573816 36.876812 1.741381 22
-19.150999 36.326714 1.728436 22
-19.018845 36.368496 1.728384 33
-18.974550 36.593815 1.732320 22
-18.972818 36.895798 1.737962 22
-18.820166 36.897049 1.737041 33
-18.676147 36.915798 1.736506 11
-20.355963 40.871281 1.821018 15
-23.680006 48.955311 1.993095 24
-19.798122 40.751583 1.815397 15
-20.222807 42.081738 1.842985 16
-23.037876 48.865356 1.987567 24
-19.904261 42.117126 1.841769 16
-22.622206 48.824104 1.984346 24
-22.256510 48.893543 1.983538 48
-22.101526 48.993603 1.984542 48
-22.325098 50.005371 2.004989 25
-22.172514 50.072807 2.005402 25
-21.498558 49.884418 1.998051 24
-21.438070 50.231239 2.004315 24
-16.053514 36.985779 1.722607 10
-18.232702 42.961067 1.848326 17
-18.180414 43.285549 1.854230 17
-15.620409 36.985573 1.720260 10
-15.432030 36.847237 1.716613 10
-19.806316 48.998257 1.971997 23
-17.367870 42.885860 1.842275 16
-16.559752 41.120403 1.804268 14
-16.284147 40.794827 1.796604 13
-14.938196 37.453671 1.725641 10
-16.260817 41.618153 1.812270 14
-16.179365 41.841564 1.816145 15
-16.775894 44.038857 1.861348 17
-16.629379 44.101673 1.861824 17
-15.639811 41.658459 1.809932 14
-15.700897 42.316948 1.822906 15
-15.524074 42.265881 1.821060 15
-15.329246 42.157028 1.818020 15
-15.349136 42.688530 1.828365 15
-15.157525 42.590160 1.825554 15
-16.802662 48.348797 1.944513 22
-14.806273 42.511612 1.822385 15
-14.655395 42.537079 1.822177 15
-14.277425 42.304440 1.815942 29
-14.135375 42.354858 1.816275 14
-15.913467 49.014103 1.953308 22
-15.678477 48.828018 1.948654 22
-15.352733 48.953445 1.949657 22
-10.990290 34.201405 1.644220 27
-10.830785 34.070492 1.640996 18
-10.696841 34.031662 1.639675 18
-10.576391 34.042610 1.639385 27
-10.462939 34.080235 1.639648 27
-10.373873 34.214390 1.641897 27
-10.274292 34.309525 1.643348 27
-10.246857 34.674770 1.650362 18
-10.131794 34.739902 1.651174 18
-10.330214 36.094765 1.678410 29
-9.890872 34.748028 1.650388 18
-9.768465 34.756027 1.650071 27
-9.977113 36.218098 1.679456 19
-9.867187 36.304409 1.680728 29
-9.738690 36.308361 1.680324 29
-9.638199 36.440834 1.682545 19
-9.507727 36.436131 1.681975 19
-9.337237 36.239140 1.677496 19
-9.182716 36.111908 1.674448 19
-9.036868 35.990631 1.671552 19
-8.831478 35.627983 1.663716 28
-8.669229 35.439789 1.659459 18
-8.543664 35.402927 1.658305 28
-8.438848 35.540821 1.660659 28
-8.326145 35.606495 1.661572 28
-8.202418 35.612762 1.661286 28
-8.091038 35.652966 1.661712 28
-7.996618 35.827839 1.664848 19
-7.864923 35.789558 1.663674 28
-7.719957 35.631420 1.660104 28
-7.521088 35.210194 1.651191 18
-7.377107 35.075363 1.648093 27
-7.277723 35.220524 1.650652 18
-7.186394 35.424713 1.654404 27
-7.042695 35.284512 1.651216 18
-7.050031 36.180725 1.668914 9
-6.691962 35.399254 1.652474 18
-6.608654 35.644653 1.657086 28
-6.501107 35.763775 1.659142 28
-6.383712 35.811153 1.659760 28
-6.259670 35.806541 1.659338 18
-6.145240 35.880901 1.660506 18
-6.034043 35.986664 1.662309 28
-5.920198 36.019855 1.662675 9
-7.297990 49.652378 1.935724 21
-7.119997 49.675598 1.935744 21
-6.827714 48.499802 1.911772 20
-5.921233 41.030544 1.761801 11
-5.789399 41.127735 1.763416 11
-5.652910 41.180687 1.764149 11
-5.391419 41.348351 1.766881 23
-5.822637 48.379410 1.907088 19
-5.657794 48.400581 1.907153 19
-4.469503 34.681973 1.632838 8
-5.166097 48.388275 1.905893 39
-5.102479 49.987602 1.937468 21
-4.768277 50.148098 1.940006 43
-4.596429 50.153614 1.939795 43
-4.089659 50.370319 1.943189 22
-2.335607 11.285113 1.164866 12
-2.297998 11.290419 1.164910 27
-2.259888 11.279597 1.164635 20
-2.224785 11.312565 1.165235 16
-2.720700 41.366863 1.762373 11
-2.714938 50.178501 1.937235 21
-2.429945 40.627396 1.747290 11
-2.314477 43.368164 1.801530 14
-2.018351 43.205647 1.797926 27
-1.856204 50.208199 1.936708 21
-1.692883 50.223587 1.936821 21
-1.177650 50.194111 1.935671 21
-1.007041 50.131107 1.934247 21
-0.836955 50.063515 1.932740 21
-0.670070 49.891392 1.929168 21
-0.886252 36.934914 1.672273 9
-0.666979 36.067299 1.654877 9
-0.545496 36.038601 1.654213 18
-0.423504 36.165565 1.656643 19
-0.170248 36.305763 1.659253 19
-0.038963 36.447060 1.661974 9
0.108420 34.796173 1.629160 26
0.221523 34.712921 1.627454 17
0.332165 34.601364 1.625193 17
0.643418 37.297691 1.678503 9
0.765657 37.228565 1.677088 9
1.021468 38.861431 1.709355 10
1.152941 38.923084 1.710539 21
1.280236 38.852222 1.709103 10
1.413461 38.852634 1.709084 21
1.136577 33.199219 1.597201 16
1.374528 33.304119 1.599261 25
1.485070 33.324699 1.599668 25
1.584729 33.140930 1.596036 25
1.687907 33.048893 1.594223 24
1.793281 33.028679 1.593836 33
1.919484 33.134495 1.595947 25
2.040061 33.188229 1.597032 25
2.156499 33.205811 1.597406 25
2.263322 33.191986 1.597162 16
2.588738 34.758461 1.628195 18
2.710846 34.729679 1.627670 27
4.986487 49.909786 1.928135 22
3.197226 34.763977 1.628568 18
3.431328 33.977959 1.613219 26
3.516354 33.813950 1.610047 26
3.638975 33.841946 1.610685 26
3.759543 33.890182 1.611725 26
3.937252 34.224419 1.618441 26
4.067490 34.282337 1.619688 26
4.212002 34.414474 1.622412 27
4.332352 34.412384 1.622480 27
4.464067 34.468769 1.623713 18
4.580432 34.474762 1.623946 9
5.900614 40.500023 1.743565 11
5.724317 38.887482 1.711739 10
8.133882 49.893734 1.930259 22
6.071766 39.228218 1.718813 10
6.195201 39.185734 1.718128 10
6.360640 39.272831 1.720037 11
8.874475 50.013596 1.933503 22
9.031748 49.953991 1.932543 22
9.201190 49.948471 1.932663 22
9.549453 49.859577 1.931415 22
10.009339 51.028751 1.954926 23
10.176172 50.992676 1.954473 23
10.431197 51.239086 1.959675 24
8.591986 42.530788 1.786924 14
8.818474 42.840260 1.793330 15
8.999895 42.937813 1.795538 15
8.766194 41.465088 1.766467 13
8.907432 41.427406 1.765985 13
9.054845 41.412380 1.765961 13
9.243817 41.547161 1.768931 13
9.057519 40.337063 1.745076 12
8.340237 36.857441 1.676151 20
8.349789 36.400909 1.667319 20
8.555147 36.211124 1.664067 30
8.696563 36.235458 1.664839 20
8.882767 36.404549 1.668514 30
9.021730 36.416149 1.669044 30
9.133365 36.339447 1.667813 10
14.384377 52.442570 1.990702 25
14.221161 51.319157 1.968647 24
8.904091 34.380684 1.629487 9
22.463945 73.509720 2.416048 57
15.378622 51.883862 1.982343 25
22.821165 72.906418 2.405354 57
15.321611 50.579536 1.957138 24
15.480007 50.477425 1.955594 24
11.161942 37.411354 1.693499 10
18.816862 58.033134 2.109424 31
13.133512 41.983826 1.786481 15
10.808975 34.937489 1.645185 19
11.623165 36.741810 1.681995 21
11.732128 36.653114 1.680622 10
11.147894 34.760914 1.642810 29
17.566105 50.780666 1.967314 25
12.078379 36.440861 1.677620 10
12.274769 36.198612 1.673623 21
11.942498 35.034267 1.650461 20
12.075147 35.036049 1.650919 20
11.892641 34.263203 1.635675 9
12.247419 34.782406 1.646672 20
12.456231 34.619915 1.644292 20
12.689956 34.854561 1.649517 30
12.932946 35.089092 1.654776 20
19.428408 49.498787 1.949075 24
19.659424 49.562679 1.951086 50
19.884592 49.610958 1.952791 25
20.105404 49.647327 1.954263 25
20.370010 49.777294 1.957660 25
14.589787 36.817444 1.693193 11
14.731661 36.795712 1.693307 22
14.861669 36.748089 1.692898 33
14.929805 36.569931 1.689816 22
13.474842 33.214054 1.621504 28
13.629012 33.246407 1.622698 28
13.722247 33.152256 1.621300 28
13.869417 33.182625 1.622440 29
13.978430 33.106483 1.621449 29
14.124232 33.132141 1.622506 19
14.304830 33.211475 1.624706 29
14.390000 33.101051 1.622998 19
14.487388 33.015327 1.621803 29
14.702103 33.156590 1.625307 19
14.821652 33.125980 1.625236 29
14.887141 32.965191 1.622533 29
15.006175 32.920319 1.622206 29
15.100544 32.829182 1.620924 19
15.206047 32.772434 1.620329 19
15.282253 32.635559 1.618135 29
15.402255 32.592712 1.617870 19
15.529921 32.563404 1.617893 29
15.661492 32.540573 1.618057 19
16.007637 32.924236 1.626649 20
16.250904 33.080784 1.630616 20
16.265114 32.833332 1.626147 20
16.544064 33.060509 1.631582 20
16.582441 32.895035 1.628734 30
16.776115 32.957977 1.630783 30
16.903879 32.919933 1.630687 20
21.410666 40.234859 1.785211 17
21.469318 40.022743 1.781629 17
20.675909 38.404324 1.748414 15
21.000031 38.642647 1.754304 16
28.159050 49.997169 1.994976 28
28.409985 50.020943 1.996634 28
22.674395 40.452686 1.795279 18
28.864460 49.987156 1.998270 28
28.934681 49.720516 1.993808 28
28.926071 49.351528 1.987113 28
29.099049 49.250153 1.986163 56
29.356564 49.279026 1.987995 28
29.658413 49.373646 1.991243 28
29.928312 49.416641 1.993408 28
30.040115 49.237316 1.990775 57
32.780136 51.794270 2.050918 32
24.697512 39.125294 1.782011 18
24.694689 38.559902 1.771975 36
24.990803 38.697651 1.776049 18
25.762590 39.492649 1.794387 19
33.047146 49.253632 2.007352 29
27.370947 41.132381 1.832323 22
27.501429 41.016876 1.831029 22
27.486370 40.719753 1.825723 22
34.255737 49.146648 2.012355 61
34.505745 49.128338 2.013483 61
34.780331 49.140663 2.015297 62
35.026196 49.113602 2.016265 94
35.291904 49.110714 2.017779 63
35.553127 49.100246 2.019144 95
35.739651 49.010197 2.018689 32
35.993889 48.988113 2.019827 32
36.233482 48.946072 2.020540 32
36.303078 48.690800 2.016545 32
36.300980 48.348518 2.010620 31
36.307056 48.019245 2.004978 31
36.263138 47.631737 1.998034 30
36.280628 47.322220 1.992820 30
36.419140 47.160782 1.990907 30
30.421177 39.669651 1.825072 23
30.623045 39.635891 1.825759 23
26.667721 34.705055 1.716568 16
32.560814 41.358913 1.867421 25
30.903347 39.150158 1.819243 23
32.346581 40.545906 1.852213 24
32.992245 41.007278 1.864196 25
38.721058 47.239414 2.006854 32
33.528042 41.052708 1.868431 25
33.667690 40.928593 1.867242 25
39.053539 46.644291 1.998958 32
35.094967 41.963657 1.894059 26
39.600376 46.624294 2.002223 33
39.867569 46.596855 2.003535 33
40.887726 47.059322 2.018096 35
36.183990 41.744419 1.897635 27
41.431515 46.691105 2.015622 35
35.043118 39.691212 1.855690 25
35.435986 39.829758 1.860677 25
34.869781 38.975407 1.842626 24
35.018936 38.863792 1.841808 24
43.338982 47.078411 2.035141 37
35.814320 39.141876 1.851918 25
32.160511 35.211781 1.761698 20
44.974819 47.736614 2.057401 40
45.277069 47.710316 2.059098 41
45.605385 47.707699 2.061376 41
45.925671 47.694981 2.063442 41
32.609016 34.471996 1.752753 20
34.432167 35.992432 1.790565 23
32.561413 33.961906 1.744110 20
34.783047 35.839367 1.790604 23
32.898518 33.821575 1.744270 20
34.750759 35.337090 1.782239 22
34.823570 35.165188 1.779995 22
34.272449 34.418247 1.763924 21
34.338799 34.245647 1.761635 21
34.605560 34.256008 1.763769 22
34.291367 33.751110 1.753352 21
34.698391 33.656895 1.754876 21
34.797241 33.515491 1.753362 21
34.949627 33.421314 1.753009 21
35.159065 33.376427 1.753875 21
35.277954 33.251904 1.752801 21
35.632915 33.330395 1.756737 22
35.797291 33.243145 1.756612 44
36.114021 33.284492 1.759684 22
36.630333 33.491486 1.766898 23
43.250458 38.811512 1.901310 29
53.273342 46.869522 2.104876 49
43.609093 38.573872 1.900366 29
44.247498 38.830158 1.909326 29
37.847198 33.357349 1.774229 23
54.608833 46.659191 2.111996 51
44.429081 38.174141 1.900556 29
44.511677 37.974636 1.898120 29
44.825481 37.971626 1.900552 29
47.462379 39.762482 1.949041 34
44.770275 37.387691 1.891126 29
47.231377 39.056919 1.936365 33
47.865086 39.269981 1.944695 34
47.391251 38.619087 1.930948 33
58.611553 46.492542 2.141315 56
51.090427 40.582417 1.990683 40
50.634190 39.942593 1.977284 39
47.950344 37.685768 1.921305 33
48.113770 37.550728 1.920602 33
48.415874 37.488987 1.922148 33
51.776955 39.638870 1.982057 40
62.847061 47.275436 2.187732 63
63.236656 47.210865 2.189986 63
63.716423 47.190220 2.193654 63
64.165894 47.162193 2.196972 63
64.271210 46.926888 2.194355 63
64.266472 46.582031 2.189203 63
64.452972 46.352543 2.187372 63
55.033653 39.627720 2.009000 45
54.952461 39.297825 2.003459 44
55.704514 39.497669 2.012748 45
55.838604 39.296162 2.010931 45
54.772385 38.305153 1.987387 43
55.093418 38.245846 1.989256 43
55.263176 38.058243 1.987975 43
55.587379 37.983719 1.989669 44
69.156540 46.356461 2.227386 59
69.549911 46.274460 2.229585 59
58.325695 38.872417 2.026070 48
57.931541 38.333759 2.014915 47
58.197605 38.208656 2.015426 48
59.687195 38.833321 2.037310 50
59.897507 38.665768 2.036750 50
60.525017 38.749569 2.043422 51
76.257416 47.884666 2.310920 53
68.380478 42.829006 2.170154 62
63.772743 39.793770 2.086717 57
63.669682 39.424637 2.080601 57
63.197952 38.828342 2.068044 55
66.133385 40.215790 2.113511 61
66.290894 40.005657 2.111967 61
81.823387 48.478230 2.368454 49
81.981705 48.181580 2.365734 49
82.005043 47.828930 2.361043 49
67.172066 39.238728 2.109163 61
67.487518 39.097240 2.110038 62
68.596779 39.386078 2.123998 63
68.614258 39.076885 2.119903 63
68.432953 38.662357 2.112580 63
66.907120 37.537102 2.083374 60
72.024910 39.922684 2.162349 60
72.260239 39.420135 2.157659 60
64.188950 34.948658 2.023459 54
72.177460 38.723286 2.147481 60
74.276260 39.457039 2.176593 58
76.811226 40.048595 2.207825 56
79.700233 41.126587 2.248854 53
75.327393 38.642918 2.175383 58
75.145035 38.221615 2.168098 58
75.076134 37.857296 2.162633 58
90.190605 44.695969 2.393374 63
78.274521 38.701801 2.203511 55
90.689339 44.142799 2.390742 63
81.807892 39.650871 2.248935 52
81.993286 39.381535 2.247151 52
95.223427 45.042553 2.444923 63
95.103004 44.580177 2.437785 63
93.957336 43.663960 2.415138 63
94.124054 43.336967 2.412485 63
95.554260 43.561420 2.428877 63
93.595093 42.309597 2.394272 63
95.058685 42.541103 2.411100 63
102.799332 45.424156 2.521359 63
85.548714 37.747341 2.259670 50
94.713074 41.200352 2.390745 63
97.756012 42.058334 2.430620 63
13.099239 7.011578 1.179822 10
13.120173 6.958977 1.179365 8
13.182921 6.919710 1.179479 6
90.440865 36.449139 2.290261 46
89.060997 35.555584 2.265897 48
89.181129 35.237667 2.263142 48
88.970245 34.796677 2.255685 48
101.068367 37.260876 2.403330 63
99.434158 36.288254 2.375648 63
99.431992 35.891163 2.370857 63
100.854294 35.959801 2.385608 63
115.711746 40.555485 2.586157 63
116.164604 39.814842 2.581810 63
35.057251 9.962241 1.431822 13
34.630810 9.717019 1.424837 51
34.587082 9.571874 1.422815 31
35.180439 9.438068 1.427372 19
49.883339 7.580523 1.559153 24
203.535278 26.384785 3.327876 15
204.000000 25.712639 3.326218 2
191.008255 22.787748 3.163918 113
191.202225 22.092970 3.159332 102
161.718918 16.044020 2.797140 3
161.941833 15.487764 2.794307 14
162.043304 14.919980 2.790131 86
162.282333 14.363025 2.787505 111
162.340027 13.790589 2.782879 16
190.716705 -2.120407 2.942531 103
4.911419 -0.009304 1.024246 0
4.678573 -0.284101 1.020134 0
4.638532 -0.301508 1.019621 1
4.696517 -0.338206 1.019994 0
4.707151 -0.386365 1.019819 8
4.740296 -0.640154 1.018721 0
-78.189232 1.248042 1.942752 57
-78.363724 1.528670 1.947316 57
-78.085388 1.792452 1.945927 57
-78.082283 2.044883 1.947994 57
-91.934853 2.550992 2.130421 54
-92.289040 2.856783 2.137553 54
-92.321922 3.173039 2.140653 54
-77.176804 3.069879 1.945004 55
-92.716179 3.816638 2.151211 54
-92.385948 4.122336 2.149590 54
-91.631035 4.409607 2.142363 54
-91.326790 4.710446 2.141060 55
-91.153404 5.015154 2.141485 55
-91.666107 5.352109 2.151022 54
-93.427734 5.757860 2.177224 53
-37.303116 3.079803 1.432526 28
-37.998154 3.247162 1.442944 19
-37.351494 3.330711 1.435388 9
-37.825882 3.487857 1.442892 9
-37.561634 3.594359 1.440462 9
-37.628086 3.724423 1.442495 9
-135.202103 11.649296 2.766466 63
-133.175140 11.948225 2.743205 63
-132.159225 13.214651 2.741875 63
-129.828552 13.468777 2.714383 63
-129.935394 13.930327 2.720070 63
-133.473465 15.680887 2.781873 63
-133.262405 16.121542 2.783367 63
-130.130676 16.214159 2.744212 63
-130.743668 16.743042 2.757123 63
-25.896814 4.002834 1.294846 4
-25.883108 4.170922 1.296301 19
-79.281471 11.820870 2.052331 60
-79.393608 12.112310 2.056628 60
-78.467896 12.224771 2.045942 59
-79.869751 12.722496 2.068735 61
-127.611580 20.383223 2.752843 63
-77.814453 12.955140 2.044896 58
-127.523949 21.245678 2.760369 63
-127.495842 21.691006 2.764500 6
-77.653984 14.001873 2.053426 58
-80.099304 14.717273 2.091758 62
-76.795128 14.406259 2.046660 56
-76.590439 14.638615 2.046453 56
-76.884377 14.962829 2.053523 57
-77.632751 15.375909 2.067279 58
-77.350372 15.595084 2.065985 58
-76.557281 15.711794 2.057172 57
-71.426010 14.938624 1.984211 48
-75.859673 16.097445 2.052405 55
-75.818207 16.357750 2.054630 56
-79.665192 17.441391 2.114645 62
-81.318878 18.066660 2.142144 62
-78.941841 17.836536 2.109739 61
-82.156898 19.436949 2.167401 153
-82.161461 19.718248 2.170506 158
-82.134483 20.007315 2.173310 247
-82.106468 20.296423 2.176113 153
-82.112366 20.594118 2.179447 158
-82.109406 20.890162 2.182663 158
-82.093719 21.183493 2.185702 153
-82.065033 21.459013 2.188393 164
-82.047264 21.752554 2.191431 169
-82.043892 22.050289 2.194708 202
-82.004639 22.338978 2.197447 147
-82.002953 22.638090 2.200783 202
-82.000153 22.937452 2.204121 202
-81.961555 23.227417 2.206918 158
-81.983498 23.534735 2.210676 164
-81.981346 23.820822 2.213905 158
-81.958763 24.116667 2.217003 158
-81.950439 24.417128 2.220342 158
-81.937164 24.716675 2.223622 136
-81.915108 25.014114 2.226780 153
-81.918732 25.319836 2.230363 147
-82.138748 26.615265 2.248197 60
-82.071609 26.902367 2.250749 60
-82.125084 27.229124 2.255265 59
-82.048157 27.513819 2.257692 59
-81.861122 27.746231 2.258160 59
-81.936722 28.097958 2.263279 59
-81.857704 28.366905 2.265529 59
-81.732323 29.558935 2.278367 158
-81.713531 29.882452 2.282069 136
-81.698532 30.192297 2.285663 158
-81.689850 30.505167 2.289383 147
-81.661217 30.811323 2.292791 153
-81.665092 31.130373 2.296764 158
-81.637817 31.438389 2.300235 202
-81.594437 31.740820 2.303455 226
-81.603783 32.048317 2.307385 164
-81.561829 32.352520 2.310668 41
-81.625427 33.345394 2.323873 58
-81.721191 33.692844 2.329401 58
-81.674652 34.015575 2.332923 58
-81.725761 34.691128 2.342113 12
-81.797066 36.693073 2.368680 57
-71.553139 32.990704 2.199367 57
-71.459114 33.241848 2.201545 57
-102.020546 47.849426 2.753080 63
-72.685844 34.413200 2.231372 60
-100.156616 47.815205 2.730732 63
-72.344910 34.840096 2.233014 60
-74.583130 36.229195 2.277644 63
-74.553040 36.528202 2.281271 63
-68.845184 34.023834 2.181251 54
-95.792320 47.740875 2.678736 63
-75.705589 38.038670 2.314907 61
-75.671486 38.328194 2.318405 61
-69.838707 35.671906 2.214936 57
-69.603432 35.850002 2.214620 57
-68.942917 35.820919 2.206589 56
-69.128105 36.200684 2.213889 56
-69.082542 36.476051 2.217116 56
-68.958237 36.710133 2.218885 56
-68.791603 36.936508 2.220073 56
-68.630531 37.150501 2.221166 56
-69.864815 38.111908 2.248535 59
-65.429222 35.960964 2.168148 51
-65.150276 36.109810 2.167026 50
-62.896500 35.150154 2.128041 46
-62.786339 35.354004 2.129626 46
-60.473091 34.317116 2.088910 42
-59.551720 34.059128 2.074865 40
-59.131310 34.083641 2.070455 40
-58.991234 34.268890 2.071477 40
-58.416203 34.198074 2.064000 39
-58.340153 34.405499 2.066075 39
-58.186371 34.593449 2.067009 39
-59.017666 35.361156 2.087222 41
-58.463146 35.296505 2.080100 40
-59.238796 36.014217 2.098996 42
-58.693970 35.953754 2.092060 41
-58.581741 36.157909 2.093737 41
-58.478951 36.368073 2.095615 41
-56.870113 35.628395 2.067139 38
-56.866970 35.894951 2.070952 38
-56.633636 36.015202 2.070117 38
-56.648777 36.294769 2.074337 38
-59.156887 38.197414 2.129564 43
-55.059631 35.796494 2.049636 36
-55.208096 36.160172 2.056572 36
-55.114456 36.352062 2.058358 36
-53.074478 35.265865 2.020180 32
-54.051399 36.185192 2.044328 35
-53.881474 36.321739 2.044496 34
-52.583500 35.697659 2.021213 32
-51.395836 35.137691 2.000081 30
-50.931625 35.070175 1.994070 29
-50.664974 35.137589 1.992202 29
-57.620369 36.603382 2.473723 63
-57.858658 37.031494 2.485066 63
-57.678814 37.191536 2.485042 63
-58.411911 37.948746 2.510091 63
-54.704155 35.784950 2.412972 63
-57.632908 37.996609 2.498641 63
-57.509998 38.195171 2.500259 63
-54.071602 36.156414 2.409662 63
-53.961281 36.333527 2.411119 63
-53.857349 36.528385 2.413010 63
-53.732944 36.709324 2.414342 63
-53.634178 36.908089 2.416410 63
-53.387249 37.003372 2.414307 63
-52.659950 36.758499 2.398565 63
-52.446743 36.872707 2.397356 63
-49.733021 35.195614 2.324713 58
-49.421814 35.476582 2.325101 58
-49.278114 35.612530 2.325413 58
-46.881104 34.100040 2.260720 47
-49.244167 36.109997 2.334129 59
-50.129864 37.029453 2.364745 63
-49.604538 36.896530 2.354286 62
-48.427784 36.264717 2.324627 57
-48.237625 36.375694 2.323839 57
-49.422283 37.531605 2.363462 63
-49.155430 37.576096 2.360289 62
-48.853954 37.618366 2.356568 61
-48.571888 37.647598 2.352902 60
-48.358826 37.756104 2.351787 60
-44.217007 34.714970 2.232141 41
-43.977360 35.006638 2.234171 41
-43.904819 35.191006 2.236642 41
-44.406315 35.847321 2.256670 44
-43.113380 35.026798 2.221831 38
-42.819401 35.254738 2.221946 38
-40.905811 33.870613 2.167134 29
-39.964886 33.544918 2.147116 25
-39.823734 33.653873 2.147210 25
-39.853306 34.131985 2.157032 26
-39.629536 34.180767 2.154785 26
-42.642124 37.088230 2.255340 42
-40.178085 35.141041 2.181623 30
-58.401894 51.763195 2.770845 63
-44.256744 39.306694 2.322355 52
-39.859882 35.553108 2.185313 30
-41.661755 37.463806 2.248915 40
-41.441200 37.772797 2.252018 40
-41.420433 38.011623 2.256535 41
-37.629486 34.914474 2.141256 25
-37.874931 35.375488 2.153995 25
-37.213268 34.990555 2.137043 24
-40.038219 37.959663 2.236339 37
-39.942451 38.138123 2.238663 37
-36.291088 34.802269 2.120549 24
-37.444801 36.183437 2.164565 25
-37.088749 36.307915 2.162289 25
-35.751266 35.201279 2.121418 24
-35.544807 35.230526 2.119241 24
-35.983082 35.920464 2.139399 24
-35.869812 36.035969 2.140278 24
-35.686874 36.079033 2.138732 24
-36.413765 37.099289 2.169631 25
-36.441502 37.381889 2.175893 26
-36.838600 38.046379 2.195024 29
-38.145901 39.977188 2.252671 37
-35.192905 37.059864 2.152737 24
-34.633678 36.953587 2.143223 24
-34.570473 37.124081 2.146011 24
-34.321350 37.100708 2.142303 24
-33.132832 36.279415 2.109610 23
-31.241535 34.608551 2.049891 22
-31.105669 34.689388 2.049899 22
-31.004154 34.797989 2.050945 44
-30.923006 34.930618 2.052772 22
-30.956041 35.222675 2.059466 22
-30.721338 35.174831 2.055506 22
-29.937361 34.730263 2.036171 21
-29.893936 34.906197 2.039446 21
-29.719658 34.935398 2.037937 21
-29.717842 35.163837 2.042880 21
-29.582336 35.252895 2.043166 21
-29.554998 35.464615 2.047452 21
-29.618572 35.792393 2.055385 22
-28.900005 35.366108 2.037397 21
-28.966444 35.699791 2.045521 21
-28.380293 35.440086 2.032831 21
-28.465755 35.802532 2.041842 21
-28.341637 35.891655 2.042352 21
-28.243622 36.015514 2.043947 21
-28.512957 36.632957 2.060790 22
-28.533392 36.921547 2.067441 22
-28.901676 37.673393 2.088439 22
-28.507942 37.416424 2.078171 22
-28.743336 37.996643 2.093830 22
-28.592970 38.060684 2.093543 22
-28.451769 38.137150 2.093649 22
-28.148630 37.984615 2.086791 22
-28.225845 38.355869 2.096005 22
-28.197891 38.580486 2.100745 22
-27.704403 38.149216 2.085504 22
-27.721783 38.453026 2.092556 22
-27.509676 38.423824 2.089544 22
-26.580420 37.334194 2.054617 21
-25.944660 36.947250 2.038868 21
-25.898438 37.150791 2.042994 21
-25.736910 37.180660 2.041925 21
-26.892410 39.229687 2.101125 22
-25.137962 36.797852 2.026743 20
-25.030090 36.905460 2.028053 20
-24.909052 37.257648 2.034843 21
-24.773783 37.323990 2.034943 21
-30.709545 47.152378 2.323250 42
-30.600752 47.337498 2.326380 42
-30.300514 47.193619 2.319947 41
-29.474211 46.217651 2.288870 36
-24.338348 38.066261 2.047551 21
-23.789179 37.719299 2.033911 20
-23.605974 37.702271 2.031662 20
-23.604858 37.995060 2.038461 21
-23.393810 38.228447 2.041793 21
-23.266214 38.292377 2.042022 21
-22.975622 38.098820 2.034634 20
-22.513588 37.881344 2.025025 20
-22.354357 37.882809 2.023516 20
-22.167088 37.862633 2.021237 20
-22.098160 38.027805 2.024462 20
-21.871181 37.932407 2.020051 20
-22.140730 38.731701 2.041458 21
-23.756531 42.098049 2.136182 23
-27.137383 49.265560 2.337337 42
-23.504900 43.377514 2.164172 24
-23.392767 43.523884 2.166632 24
-26.025860 49.146111 2.324318 40
-19.698568 37.450920 1.988664 19
-21.100513 41.041042 2.086917 22
-21.246662 41.693310 2.103825 22
-23.676147 48.945099 2.298994 35
-23.467667 48.929405 2.296865 35
-23.274427 48.923737 2.295117 35
-23.074705 48.924664 2.293484 34
-22.672855 48.916744 2.289996 34
-22.480225 48.929939 2.288752 33
-19.640856 42.698441 2.114646 22
-22.143431 49.068348 2.289406 33
-22.346903 50.032063 2.314455 37
-22.163382 50.073349 2.314011 37
-21.611105 50.189396 2.312543 36
-18.559013 42.972965 2.112854 22
-18.313118 43.210876 2.116809 22
-18.179924 43.305046 2.118117 22
-19.983236 48.984722 2.270792 30
-17.473072 42.742653 2.099096 22
-17.331345 42.807812 2.099667 22
-17.213949 42.940136 2.102075 22
-17.070885 43.025867 2.103162 22
-16.482410 41.813667 2.069112 21
-18.839937 48.970688 2.262229 28
-18.605310 48.836708 2.257283 28
-16.636738 43.657509 2.115702 22
-15.898740 41.953243 2.068497 21
-15.818563 42.212524 2.074366 21
-15.648078 42.180962 2.072432 21
-17.141413 48.297417 2.234036 25
-14.933718 41.908382 2.060946 21
-16.795179 48.352650 2.233159 25
-16.692371 48.606609 2.238816 25
-16.596151 48.887196 2.245189 26
-16.437208 48.935471 2.245391 26
-16.051264 48.862762 2.241182 25
-15.938710 49.099815 2.246410 26
-15.470687 48.730682 2.234362 25
-15.405018 49.139584 2.244199 25
-15.154544 49.515526 2.252143 53
-10.751566 33.797241 1.832850 12
-14.591722 49.479134 2.248015 52
-14.420876 49.482029 2.247132 51
-14.239719 49.478718 2.246046 51
-14.052210 49.484608 2.245167 51
-13.877936 49.470081 2.243857 51
-13.693549 49.449207 2.242344 50
-10.992247 38.899971 1.962408 18
-10.863489 38.946846 1.962914 18
-11.554985 42.513748 2.056408 20
-12.803226 48.635548 2.217198 24
-12.649445 48.768627 2.219778 24
-9.810677 36.664291 1.899969 15
-9.394403 35.903419 1.878698 29
-9.249178 35.848244 1.876602 28
-9.132262 35.896980 1.877278 29
-9.015886 35.949242 1.878053 29
-8.829265 35.648106 1.869560 28
-8.742558 35.815918 1.873414 28
-8.617097 35.852329 1.873769 28
-8.488903 35.807404 1.872057 28
-8.388590 35.911453 1.874254 14
-8.269045 35.982006 1.875524 14
-10.303744 48.210613 2.194741 24
-8.017145 36.724262 1.893313 30
-7.887115 36.713631 1.892509 15
-8.751235 42.779739 2.050278 20
-7.355516 35.681286 1.864122 13
-7.206106 35.554558 1.860317 27
-7.016898 35.069435 1.847240 26
-6.882203 35.020466 1.845487 39
-6.777328 35.136429 1.848056 26
-6.650457 35.097584 1.846605 26
-6.583026 35.453785 1.855448 13
-6.481833 35.616421 1.859242 27
-6.411814 36.032642 1.869622 14
-6.286502 36.024162 1.868980 28
-6.178449 36.158161 1.872041 14
-6.054838 36.112381 1.870468 14
-7.303063 49.778034 2.223620 25
-7.010780 48.566799 2.191755 24
-6.836338 48.584999 2.191691 24
-5.915494 40.973511 1.994298 19
-5.794106 41.178146 1.999179 19
-5.672156 41.314083 2.002310 19
-5.402637 41.398186 2.003717 19
-5.824572 48.405018 2.184232 24
-5.649179 48.398937 2.183619 24
-5.483343 48.407543 2.183417 24
-5.326336 48.422958 2.183421 24
-5.160984 48.438416 2.183416 24
-5.112869 50.152710 2.227229 25
-4.760928 50.174023 2.226974 25
-4.598212 50.191029 2.227055 25
-2.407821 11.332890 1.226136 1
-2.298158 11.297050 1.225009 30
-2.261187 11.326200 1.225692 24
-2.692712 40.258213 1.968715 18
-2.587630 42.371597 2.022784 20
-2.427420 41.026077 1.988024 19
-2.285481 40.763565 1.981090 18
-2.157454 41.564156 2.001463 19
-2.015831 41.588593 2.001909 19
-1.870883 43.104042 2.040623 20
-1.520658 50.219845 2.222833 50
-1.166914 50.303413 2.224622 25
-0.995535 50.260368 2.223361 25
-0.835786 50.097000 2.219033 25
-0.660447 49.916676 2.214268 24
-0.877531 37.005913 1.883201 14
-0.667723 36.038685 1.858255 27
-0.544237 36.061932 1.858783 13
-0.410585 36.312450 1.865143 28
-0.284626 36.362747 1.866379 14
-0.162563 36.328735 1.865462 14
-0.043850 36.350533 1.865985 14
0.142762 37.549603 1.896676 15
0.287027 37.709286 1.900742 15
0.431973 37.860420 1.904597 15
0.678208 37.867683 1.904775 31
0.819976 37.945496 1.906776 32
0.962164 38.102997 1.910826 16
2.235387 50.006756 2.215867 25
1.283368 36.004662 1.857198 28
1.401001 35.945366 1.855730 13
1.572555 35.160728 1.835750 26
1.650646 34.818810 1.827055 25
1.642072 33.657341 1.797362 11
1.756552 33.648548 1.797220 23
1.860197 33.596333 1.795967 11
1.943231 33.280411 1.787968 11
2.050307 33.267292 1.787730 11
2.364710 34.831749 1.827964 38
2.343801 33.757885 1.800541 11
2.628167 35.002842 1.832606 13
2.767161 34.277168 1.814266 24
2.866607 34.186131 1.812072 24
2.984831 34.184902 1.812196 24
3.110340 34.230694 1.813536 24
3.284644 34.547703 1.821857 25
3.404296 34.544991 1.821968 38
3.516848 34.534916 1.821887 38
3.658278 34.661533 1.825336 25
3.711056 34.226833 1.814376 24
3.917936 34.763317 1.828367 13
4.059384 34.234627 1.815201 25
4.179032 34.200550 1.814566 37
4.321602 34.320385 1.817888 25
4.467535 34.483948 1.822332 25
4.602847 34.555500 1.824430 25
5.849928 40.170448 1.969356 19
6.058254 40.495647 1.978052 19
8.339383 50.019966 2.224296 26
6.230705 39.316082 1.948618 18
6.271033 38.857441 1.937127 17
8.869600 49.987537 2.224778 26
6.619397 39.173603 1.945997 18
9.219823 49.986771 2.225670 26
10.011483 51.033733 2.254235 31
8.206791 42.246346 2.027837 20
8.409956 42.447243 2.033495 20
8.561519 42.437931 2.033722 21
8.929578 43.268364 2.055722 21
8.436749 40.218910 1.977624 19
8.570531 40.170799 1.976856 19
8.970101 41.098320 2.001430 20
8.129348 37.510063 1.908725 16
11.681550 49.737385 2.226970 28
8.274100 36.601021 1.886500 16
8.395012 36.553570 1.885754 16
8.695592 37.115532 1.900887 16
8.828520 37.101112 1.901025 16
8.949896 37.047928 1.900161 33
8.994891 36.745819 1.892811 16
9.244055 37.108387 1.902811 16
9.407227 37.187328 1.905423 16
9.652349 37.084259 1.903860 16
8.921981 34.433224 1.835044 14
9.800059 35.865250 1.874272 15
9.902763 35.788216 1.872816 15
10.597712 37.409958 1.915988 17
10.901958 37.443615 1.918196 17
11.025479 37.408302 1.917895 35
10.192398 34.699409 1.847264 14
10.457891 34.696308 1.848450 29
10.596425 34.708973 1.849432 29
10.758877 34.801891 1.852509 15
10.947894 34.944183 1.856936 30
11.027641 34.798141 1.853756 30
11.142702 34.745148 1.853041 30
11.305732 34.814617 1.855576 30
11.392810 34.690041 1.852981 30
11.499983 34.617241 1.851764 30
11.626297 34.592300 1.851824 30
11.796555 34.341385 1.846626 29
11.972879 34.437130 1.849918 30
12.120580 34.462013 1.851338 30
12.285820 34.526760 1.853832 30
12.472604 34.655754 1.858013 31
12.590053 34.605179 1.857454 31
12.853037 34.887630 1.865803 15
13.333385 35.331345 1.879328 16
13.466305 35.306934 1.879524 16
20.152063 49.724209 2.267056 39
20.388672 49.792164 2.270117 39
14.684257 37.019455 1.928107 18
14.832709 36.667885 1.920573 18
15.018929 36.739090 1.923443 18
15.121859 36.650139 1.921960 18
15.362843 36.831524 1.927830 18
14.159917 33.756706 1.846621 30
14.242218 33.635769 1.844272 15
14.651059 34.182636 1.859987 16
14.463634 33.215607 1.835738 15
14.574036 32.907146 1.829163 29
14.696478 32.870506 1.829132 44
14.833748 32.848164 1.829549 29
15.076267 33.036514 1.835685 30
15.142799 32.905834 1.833065 15
15.189322 32.712784 1.828842 29
15.385371 32.546741 1.826332 29
15.590423 32.657391 1.830410 30
15.693074 32.581978 1.829387 15
16.027021 32.917347 1.839689 15
16.114681 32.812645 1.837885 31
16.257874 32.818481 1.839084 31
16.385319 32.796001 1.839512 15
26.199160 49.399765 2.300430 48
27.061462 50.090179 2.323051 52
27.293724 50.110493 2.325308 52
27.541193 50.134945 2.327789 53
21.529816 39.797733 2.041597 22
28.232491 50.094032 2.332264 54
28.445730 50.075237 2.333524 55
28.911243 50.058102 2.336864 55
28.956032 49.750793 2.330170 55
28.945227 49.359531 2.321109 53
29.150715 49.308525 2.321626 54
29.432659 49.392982 2.325884 54
29.671160 49.371323 2.327370 55
29.948021 49.443180 2.331321 56
24.263414 38.767834 2.040699 23
31.813551 49.283882 2.343722 59
24.703909 38.835571 2.046093 23
24.940361 38.903496 2.049712 23
32.592854 49.330479 2.351669 61
26.343298 40.008404 2.087011 24
27.359383 41.113701 2.120877 25
27.513634 41.045250 2.120755 25
26.845694 39.838390 2.087795 24
27.526760 40.468094 2.108046 25
27.640713 40.347733 2.106430 25
27.601233 39.996765 2.098294 24
27.628050 39.750309 2.093098 24
27.731508 39.605587 2.090877 24
35.415119 49.249001 2.375827 63
35.617817 49.162395 2.375846 63
27.924337 39.025295 2.079947 24
36.055019 49.027470 2.377067 63
36.299770 48.991432 2.378637 63
36.346966 48.707916 2.372902 63
36.329792 48.346912 2.364866 63
36.340866 48.023827 2.357943 63
36.281151 47.633709 2.348882 63
30.590143 40.410751 2.136086 29
36.470406 47.202663 2.341415 63
36.741924 47.200069 2.344064 63
30.618071 39.627155 2.119431 27
30.570066 39.311607 2.112154 26
30.472393 38.927307 2.102907 25
30.728687 38.944546 2.105877 26
31.050875 39.062550 2.111687 27
33.118572 41.148937 2.177449 38
31.982841 39.576015 2.132214 30
33.734909 41.283241 2.186663 40
32.154263 39.242626 2.126896 30
33.906868 40.926300 2.180872 39
34.047668 40.788654 2.179432 39
40.098133 47.151192 2.377470 63
36.200977 42.581264 2.239955 50
35.877548 41.655136 2.217046 46
35.964611 41.464458 2.213979 46
34.900875 40.054977 2.173069 39
41.435982 46.660393 2.381444 63
34.932232 39.545338 2.162776 38
35.074944 39.424973 2.161824 38
35.266262 39.367977 2.162728 38
34.849548 38.674248 2.143794 35
43.360111 47.064171 2.410818 63
35.885708 39.197685 2.166020 40
43.909489 46.976017 2.415079 63
45.016659 47.774654 2.443804 63
45.678871 47.776226 2.451246 63
45.985081 47.749268 2.454141 63
46.308910 47.737431 2.457558 63
34.732094 36.278130 2.093354 29
32.454723 33.857414 2.018335 24
35.000824 36.043148 2.091657 29
35.050205 35.845383 2.088229 28
35.262218 35.800667 2.089767 29
34.589428 34.933056 2.064553 25
35.612991 35.652267 2.090844 29
36.022583 35.797672 2.098518 31
36.058231 35.574814 2.094482 30
36.217243 35.488777 2.094629 31
34.643665 33.823895 2.043031 25
34.746136 33.685291 2.041490 25
34.796272 33.272560 2.033924 24
36.045235 34.146893 2.066029 27
35.190521 33.173512 2.036679 25
35.078320 32.850658 2.029001 24
34.970970 32.545822 2.021745 24
35.972836 32.935066 2.041446 25
36.086624 32.793266 2.040074 25
36.099602 32.590294 2.036299 25
37.120522 33.219601 2.060948 28
43.755150 38.423805 2.242697 60
54.288319 46.705494 2.531635 63
44.391953 38.407707 2.250235 61
44.369411 38.123142 2.244507 61
111.215874 91.021423 4.084886 63
47.373196 39.968128 2.317057 63
47.741829 39.978348 2.321857 63
47.082577 39.185406 2.298565 63
47.177673 38.984638 2.295964 63
47.465191 38.945717 2.298854 63
48.115788 39.168186 2.311264 63
51.118431 40.860046 2.381093 63
47.618618 37.974602 2.282602 63
47.747452 37.801323 2.281023 63
47.875629 37.614166 2.279192 63
47.951508 37.402287 2.276244 63
51.647346 39.826797 2.368690 63
51.811844 39.660461 2.367753 63
62.942936 47.305500 2.652552 63
63.358795 47.258984 2.657108 63
63.776859 47.228500 2.662002 63
64.203506 47.184208 2.666772 63
64.311798 46.916542 2.663327 63
64.303711 46.569359 2.656929 63
54.382332 39.455914 2.397631 63
55.075668 39.652584 2.410335 63
54.954872 39.266983 2.401804 63
54.812096 38.883820 2.393041 63
57.031120 40.067978 2.443746 63
56.408634 39.377724 2.423136 63
56.291145 39.009823 2.415026 63
68.211685 46.441704 2.706607 63
56.618988 38.628792 2.412687 63
69.252274 46.413120 2.720111 63
58.337059 39.155331 2.445136 63
58.493511 38.944721 2.443566 63
57.658581 38.145454 2.418272 63
59.240326 38.835255 2.451808 63
58.881248 38.320240 2.437969 63
60.261459 38.868763 2.466334 63
76.225334 47.842148 2.839970 63
76.550011 47.665012 2.841402 63
63.863941 39.812668 2.532088 63
63.743122 39.156326 2.519242 63
63.564133 38.747063 2.509820 63
81.361122 48.615593 2.924233 63
81.860878 48.513828 2.929490 63
82.012367 48.213127 2.926559 63
82.051010 47.849609 2.921016 63
67.019806 39.150421 2.564896 63
67.068489 38.863251 2.560805 63
67.091415 38.562824 2.556149 63
68.223061 38.231369 2.566707 63
68.451767 38.038315 2.566799 63
64.285881 34.979988 2.457651 63
93.773842 49.268608 3.110736 63
74.418068 39.173653 2.670539 63
79.840965 41.173370 2.780638 63
79.711113 40.756298 2.772139 63
80.407738 40.740406 2.781978 63
90.339516 44.347713 2.983041 63
90.334450 43.952713 2.976805 63
78.975365 37.996918 2.718219 63
82.750572 39.366142 2.794720 63
94.008720 43.641357 3.025891 63
94.654755 43.545364 3.033948 63
94.638428 41.124458 2.997214 63
13.102845 7.009151 1.274131 6
13.143410 6.961258 1.274037 6
13.218309 6.868677 1.273815 2
88.989738 35.850937 2.835124 63
89.884964 35.826862 2.848284 63
100.170891 37.320576 3.025502 63
100.316010 36.970509 3.022803 63
100.780983 36.731560 3.026557 63
101.098045 36.439075 3.027331 63
35.092468 9.818411 1.652042 11
161.915741 15.448684 3.750037 2
162.090378 14.916028 3.747688 2
81.394066 7.187437 2.368001 138
81.452171 6.884441 2.366073 133
147.542725 10.532633 3.470571 2
147.798752 10.024228 3.469997 81
112.696884 6.722481 2.870825 27
112.968880 6.313886 2.871539 131
113.290497 5.925704 2.873267 131
5.019014 0.071547 1.066808 0
4.980913 0.028457 1.065943 0
4.887224 -0.032970 1.064087 0
4.781697 -0.112429 1.061959 0
4.710738 -0.195475 1.060387 0
4.690610 -0.217058 1.059955 0
-78.794601 0.991638 2.395117 63
-94.379257 1.314572 2.688864 63
-78.316727 1.524701 2.390598 63
-77.870461 1.786572 2.384452 63
-78.411026 2.059146 2.396842 63
-77.363129 2.307761 2.379381 63
-76.990173 2.563243 2.374598 63
-76.400467 2.810857 2.365716 63
-96.722504 3.622402 2.752197 63
-92.539970 3.806849 2.675716 63
-95.954300 4.257906 2.743417 63
-95.314842 4.561977 2.734169 63
-76.578011 4.092898 2.380290 63
-95.092506 5.188503 2.735616 63
-95.209053 5.519971 2.740782 63
-38.024208 2.874491 1.649924 15
-37.323830 3.079354 1.638741 28
-37.347847 3.210957 1.640408 28
-37.375774 3.336849 1.642103 28
-37.395275 3.462406 1.643646 14
-37.498543 3.588063 1.646758 14
-142.054413 12.732387 3.681591 63
-137.135971 12.795445 3.590649 63
-128.739655 13.825788 3.444611 63
-133.335709 14.754573 3.539316 63
-147.487793 16.725382 3.822073 63
-135.120163 15.882082 3.583837 63
-142.313828 17.182846 3.730633 63
-25.973978 4.011414 1.436627 5
-25.924522 4.175298 1.437423 17
-79.953690 11.925234 2.519803 63
-79.816040 12.183186 2.520005 63
-78.365944 12.233445 2.493723 63
-77.268356 12.327199 2.474442 63
-77.281586 12.611677 2.477769 63
-77.947617 12.986155 2.494151 63
-82.370514 13.972242 2.586601 63
-82.721573 14.303869 2.596732 63
-78.281342 13.845695 2.509778 63
-78.038895 14.078123 2.507898 63
-82.354538 15.124140 2.599103 63
-79.124107 14.834054 2.536368 63
-78.873161 15.052459 2.534223 63
-82.495529 16.005466 2.611671 63
-77.467224 15.327227 2.511512 63
-77.186401 15.559771 2.509027 63
-77.138969 15.823043 2.511199 63
-71.436798 14.950128 2.396472 63
-71.417511 15.186049 2.398873 63
-80.580330 17.344900 2.592045 63
-160.306122 34.506847 4.253842 63
-80.253029 17.847908 2.592001 63
-80.310860 18.146759 2.596618 63
-82.204094 19.444014 2.646782 138
-82.196938 19.722738 2.650038 138
-82.166031 20.011005 2.652993 255
-82.157425 20.304905 2.656440 140
-82.158928 20.586878 2.659942 140
