# .PCD v.7 - Point Cloud Data file format
VERSION .7
FIELDS x y z intensity
SIZE 4 4 4 1
TYPE F F F U
COUNT 1 1 1 1
WIDTH 1464
HEIGHT 1
VIEWPOINT 0 0 0 1 0 0 0
POINTS 1464
DATA ascii
17.995804 -2.142103 0.225634 2
18.362860 -2.234020 0.212090 2
18.198908 -2.295020 0.217515 2
18.046183 -2.422437 0.222109 2
17.965408 -2.486838 0.224545 2
18.106075 -2.638375 0.218559 2
17.980791 -2.698510 0.222571 2
17.950478 -2.903044 0.222184 2
18.075062 -2.985528 0.217181 2
18.080000 -3.056802 0.216474 2
18.080708 -3.127717 0.215910 2
18.053349 -3.195644 0.216349 2
17.759954 -3.436409 0.224750 1
17.656202 -3.493393 0.227926 1
17.651402 -3.562504 0.227511 1
17.654285 -3.632666 0.226809 1
17.617311 -3.697473 0.227546 1
17.592001 -3.763717 0.227851 1
17.566467 -3.829817 0.228158 1
17.580257 -3.901592 0.227025 1
17.510778 -3.960986 0.228917 1
17.539890 -4.035171 0.227208 1
17.521877 -4.098706 0.227241 1
17.463646 -4.159194 0.228704 1
17.492001 -4.233619 0.226995 1
17.453062 -4.296991 0.227738 1
17.429676 -4.362843 0.227905 1
17.382444 -4.424422 0.228938 1
17.350760 -4.488533 0.229396 1
17.405373 -4.568282 0.226674 1
17.424927 -4.638470 0.225265 1
17.356544 -4.699192 0.227011 1
17.320028 -4.762177 0.227615 1
17.318604 -4.831915 0.226917 1
17.254898 -4.885729 0.228549 1
17.245193 -4.953719 0.228142 1
17.243074 -5.023317 0.227445 1
17.252438 -5.095431 0.226313 1
17.187284 -5.151671 0.227936 1
17.172735 -5.218623 0.227675 1
17.158697 -5.282179 0.227427 1
17.155390 -5.351676 0.226731 1
17.136246 -5.417619 0.226616 1
17.109091 -5.481665 0.226792 1
17.085611 -5.546496 0.226823 1
17.058027 -5.610283 0.227000 1
17.018579 -5.671083 0.227615 1
17.021618 -5.742259 0.226629 1
16.977875 -5.801792 0.227390 1
16.957184 -5.867018 0.227279 1
16.909185 -5.925132 0.228188 1
16.888941 -5.986795 0.228090 1
16.879204 -6.054760 0.227543 1
16.865362 -6.121675 0.227142 1
16.905254 -6.203351 0.224700 1
16.803219 -6.242481 0.227667 1
16.849350 -6.329789 0.224919 1
16.846066 -6.399943 0.224081 1
16.858833 -6.471290 0.222671 1
16.827209 -6.537004 0.222843 1
16.807827 -6.602690 0.222589 1
16.815010 -6.676364 0.221312 1
16.811438 -6.743381 0.220487 1
16.772234 -6.803126 0.220966 1
16.747086 -6.870701 0.220847 1
16.745598 -6.942126 0.219863 1
16.728609 -7.008743 0.219465 1
16.731457 -7.078197 0.218347 1
16.749247 -7.152708 0.216643 1
16.703865 -7.213847 0.217259 1
16.704863 -7.286718 0.216128 1
16.690435 -7.354539 0.215584 1
16.687105 -7.426224 0.214600 1
16.707296 -7.502555 0.212748 1
16.659279 -7.555307 0.213538 1
16.665331 -7.634335 0.212101 1
16.627068 -7.694056 0.212440 1
16.629955 -7.768567 0.211162 1
16.673838 -7.858299 0.208266 1
16.649845 -7.923441 0.208017 1
16.648087 -7.996905 0.206885 1
16.647272 -8.067185 0.205766 1
16.641222 -8.139364 0.204781 1
16.634892 -8.211588 0.203797 2
16.650631 -8.292567 0.201928 2
16.699503 -8.386930 0.198732 2
16.681091 -8.455115 0.198188 2
16.671160 -8.522986 0.197363 2
16.652252 -8.591123 0.196820 2
16.651590 -8.666800 0.195539 2
16.665400 -8.748682 0.193668 2
16.641985 -8.815332 0.193273 2
16.614651 -8.880358 0.193026 2
16.601797 -8.951559 0.192189 2
16.520288 -9.070078 0.192733 6
16.462784 -9.121827 0.193672 4
16.438034 -9.187845 0.193280 2
16.515223 -9.299478 0.188743 2
16.526276 -9.382147 0.186870 2
16.512985 -9.450164 0.186046 2
16.534285 -9.538105 0.183727 2
16.544315 -9.621251 0.181852 2
16.553991 -9.704572 0.179977 2
16.556082 -9.784650 0.178398 2
16.548557 -9.856451 0.177276 2
16.550013 -9.936730 0.175697 2
16.553158 -10.022110 0.173957 2
16.525202 -10.088576 0.173565 2
16.522095 -10.167347 0.172133 2
16.522242 -10.247989 0.170553 2
16.541534 -10.334481 0.168242 4
16.615866 -10.453352 0.163538 6
17.054041 -10.843182 0.141920 13
16.844013 -10.814142 0.149127 65
16.685787 -10.814908 0.154092 27
16.672676 -10.891284 0.152955 24
16.549911 -10.909392 0.156437 38
16.439602 -10.937555 0.159313 34
16.355669 -10.975183 0.161160 40
16.283964 -11.014908 0.162574 51
16.184191 -11.038836 0.165182 36
16.072224 -11.059546 0.168229 51
15.984746 -11.093269 0.170234 36
15.858968 -11.104885 0.173882 51
15.691645 -11.092014 0.179326 36
15.507297 -11.068151 0.185521 64
15.420208 -11.099174 0.187536 30
15.253701 -11.083394 0.192992 48
15.215013 -11.141535 0.192918 46
15.213954 -11.221945 0.191200 22
15.137049 -11.257372 0.192773 38
14.902587 -11.197540 0.201233 22
14.810637 -11.218290 0.203571 30
14.778337 -11.278995 0.203205 35
14.602893 -11.251521 0.209130 30
14.531508 -11.283331 0.210576 35
14.475241 -11.328254 0.211262 37
14.371525 -11.343061 0.214049 37
14.286582 -11.365149 0.216099 11
14.193130 -11.385303 0.218440 13
14.064596 -11.378294 0.222444 15
13.828779 -11.308579 0.231084 35
13.812821 -11.376911 0.229981 22
13.809924 -11.454063 0.228276 12
13.734957 -11.487586 0.229717 10
13.588743 -11.469006 0.234475 14
13.497680 -11.482621 0.236841 21
13.470969 -11.543400 0.236192 24
13.434132 -11.597341 0.235995 17
13.392383 -11.643923 0.236109 15
13.340205 -11.691138 0.236505 36
13.419306 -11.822222 0.231051 24
13.420684 -11.903639 0.229049 12
14.359882 -12.652281 0.183672 18
14.075453 -12.534745 0.194763 13
12.920114 -11.786191 0.246394 38
13.990216 -12.639202 0.194667 15
13.985029 -12.720920 0.192806 39
12.608971 -11.792182 0.255188 3
12.588631 -11.859960 0.254089 17
12.611496 -11.956326 0.251038 15
11.807634 -11.502062 0.285251 4
11.758251 -11.540485 0.285681 11
11.704277 -11.571421 0.286423 9
11.642085 -11.599598 0.287459 8
11.614513 -11.654535 0.286834 6
11.616268 -11.736502 0.284689 6
11.588166 -11.791416 0.284065 9
11.530495 -11.818964 0.284961 13
11.461555 -11.841085 0.286305 14
11.373984 -11.847768 0.288557 17
11.277240 -11.846393 0.291266 22
11.196114 -11.857159 0.293220 22
11.107726 -11.857560 0.295637 22
11.028698 -11.865168 0.297603 19
10.960122 -11.884901 0.298955 19
10.879351 -11.893975 0.300916 21
10.798675 -11.902617 0.302878 19
10.718095 -11.910830 0.304841 19
10.643669 -11.923833 0.306503 19
10.563272 -11.931208 0.308470 19
10.470944 -11.927629 0.311046 19
10.404697 -11.942510 0.312416 19
10.330598 -11.953921 0.314085 19
10.250608 -11.959624 0.316058 19
10.173701 -11.967575 0.317881 21
10.096889 -11.975123 0.319706 21
10.026080 -11.987656 0.321228 22
9.949443 -11.994420 0.323056 22
9.875840 -12.003497 0.324733 19
9.802320 -12.012196 0.326412 21
9.723053 -12.015045 0.328396 22
9.655535 -12.028455 0.329774 22
9.582273 -12.036017 0.331457 24
9.511025 -12.041194 0.333149 22
9.443702 -12.053565 0.334531 26
9.367828 -12.057248 0.336370 26
9.297786 -12.066125 0.337907 24
9.222123 -12.069038 0.339750 27
9.160770 -12.085630 0.340832 30
9.093782 -12.096281 0.342220 27
9.015581 -12.095263 0.344220 24
8.939456 -12.091925 0.346227 27
8.883937 -12.112926 0.347010 26
8.817246 -12.122222 0.348403 27
8.753405 -12.134061 0.349645 30
8.681304 -12.136943 0.351347 24
8.603796 -12.133674 0.353355 27
8.542936 -12.147408 0.354448 27
8.479372 -12.157943 0.355696 27
8.415862 -12.168170 0.356944 27
8.344254 -12.169299 0.358653 26
8.277419 -12.171210 0.360216 26
8.218783 -12.181645 0.361321 27
8.158979 -12.198319 0.362263 26
8.093111 -12.204040 0.363670 28
8.019323 -12.200506 0.365538 31
7.963582 -12.212772 0.366495 27
7.897971 -12.217536 0.367906 26
7.838402 -12.232708 0.368854 27
7.772937 -12.236847 0.370267 27
7.710179 -12.243688 0.371529 30
7.644888 -12.247195 0.372945 30
7.584247 -12.251753 0.374215 28
7.524303 -12.260744 0.375327 27
7.464414 -12.269454 0.376440 26
7.402018 -12.274816 0.377708 30
7.339700 -12.279879 0.378977 30
7.269838 -12.275388 0.380706 28
7.217271 -12.287504 0.381523 30
7.158267 -12.299491 0.382483 30
7.096254 -12.303385 0.383756 27
7.034325 -12.306984 0.385030 27
6.979942 -12.319676 0.385846 28
6.910727 -12.313299 0.387583 28
6.855962 -12.320765 0.388559 30
6.799273 -12.329526 0.389530 27
6.740186 -12.334867 0.390657 27
6.681170 -12.339934 0.391784 27
6.624647 -12.347908 0.392759 28
6.563354 -12.349247 0.394042 28
6.502157 -12.350297 0.395326 28
6.450608 -12.363880 0.395996 28
6.391939 -12.367600 0.397129 35
6.342426 -12.379259 0.397806 40
6.286233 -12.385703 0.398787 32
6.225411 -12.385417 0.400076 32
6.169356 -12.391336 0.401059 36
6.108719 -12.390496 0.402351 37
6.057102 -12.397752 0.403186 33
6.003539 -12.406188 0.404018 32
5.947728 -12.411111 0.405004 35
5.889705 -12.412497 0.406146 33
5.836297 -12.420205 0.406981 30
5.776174 -12.417774 0.408278 28
5.722888 -12.424992 0.409115 27
5.667416 -12.428658 0.410106 27
5.616448 -12.438728 0.410791 27
5.565292 -12.443928 0.411634 25
5.516581 -12.456905 0.412166 30
5.456954 -12.452944 0.413469 27
5.403786 -12.454124 0.414470 30
5.346535 -12.452998 0.415621 30
5.295830 -12.461722 0.416311 27
5.243154 -12.471497 0.416997 28
5.196755 -12.486555 0.417380 27
5.137662 -12.481071 0.418689 27
5.089200 -12.492316 0.419228 28
5.034392 -12.488505 0.420388 42
4.985999 -12.499333 0.420929 46
4.929351 -12.496277 0.422087 43
4.878972 -12.503251 0.422784 46
4.824544 -12.503141 0.423790 47
4.776292 -12.513123 0.424333 47
4.726036 -12.519456 0.425032 45
4.677823 -12.529036 0.425577 43
4.625653 -12.526871 0.426591 40
4.575528 -12.532576 0.427292 42
4.521463 -12.535731 0.428145 40
4.469526 -12.532903 0.429161 39
4.419627 -12.533348 0.430023 37
4.369643 -12.542808 0.430570 41
4.319768 -12.547448 0.431275 42
4.269938 -12.551882 0.431981 42
4.222168 -12.555021 0.432692 42
4.170547 -12.555525 0.433554 42
4.122745 -12.562870 0.434108 40
4.073105 -12.566485 0.434818 42
4.023515 -12.569895 0.435528 40
3.973976 -12.573099 0.436239 39
3.924487 -12.576098 0.436951 40
3.875051 -12.578893 0.437664 36
3.816674 -12.563637 0.439151 13
3.788840 -12.608901 0.438007 30
3.743025 -12.618292 0.438412 27
3.697478 -12.622923 0.438976 30
3.649938 -12.628365 0.439537 34
3.600693 -12.630016 0.440254 39
3.556678 -12.642284 0.440507 41
3.510934 -12.650775 0.440916 43
3.462131 -12.647281 0.441793 45
3.411383 -12.644535 0.442668 45
3.360721 -12.641578 0.443544 37
3.316792 -12.652949 0.443801 42
3.276147 -12.671438 0.443748 39
3.230529 -12.678844 0.444161 34
3.182088 -12.674213 0.445043 36
3.136535 -12.681258 0.445457 27
-0.331929 -4.918970 0.775360 0
-0.355789 -4.898720 0.776431 0
-0.356964 -4.933920 0.775174 0
-0.373707 -4.932250 0.775469 0
-0.411717 -4.878765 0.777937 0
-0.399555 -4.947210 0.775282 0
-0.459636 -4.837866 0.780080 0
-0.502625 -4.768983 0.783171 2
-0.541948 -4.745846 0.784541 214
-0.560739 -4.736005 0.785149 221
-0.581659 -4.718366 0.786068 227
-0.596770 -4.715576 0.786367 225
-0.614542 -4.709468 0.786819 227
-0.628823 -4.710536 0.786962 227
-0.643830 -4.707560 0.787261 227
-0.659446 -4.704760 0.787560 229
-0.675025 -4.701895 0.787859 229
-0.689870 -4.702961 0.788002 231
-0.706716 -4.696200 0.788456 216
-0.717601 -4.704244 0.788290 229
-0.735675 -4.693581 0.788901 216
-0.749154 -4.693970 0.789046 218
-0.765179 -4.690953 0.789346 218
-0.776741 -4.699034 0.789180 218
-0.791447 -4.695477 0.789481 218
-0.807992 -4.688269 0.789937 218
-0.823250 -4.684796 0.790238 218
-0.836051 -4.688882 0.790229 218
-0.848226 -4.692722 0.790220 218
-0.863964 -4.685068 0.790677 220
-0.878576 -4.685385 0.790823 218
-0.893175 -4.685645 0.790970 218
-0.907121 -4.685656 0.791116 218
-0.919925 -4.689449 0.791108 218
-0.934333 -4.685334 0.791411 218
-0.949805 -4.677323 0.791870 218
-0.962580 -4.680967 0.791862 218
-0.974291 -4.688416 0.791699 218
-0.989230 -4.684268 0.792003 218
-1.000980 -4.691630 0.791840 218
-1.016912 -4.683515 0.792299 206
-1.028045 -4.690619 0.792137 204
-1.043894 -4.682387 0.792597 204
-1.056686 -4.685702 0.792591 204
-1.068507 -4.692847 0.792428 206
-1.084242 -4.684443 0.792889 204
-1.097997 -4.683737 0.793039 206
-1.108909 -4.694632 0.792722 204
-1.121743 -4.697721 0.792716 206
-1.136418 -4.692982 0.793022 206
-1.150147 -4.692080 0.793172 206
-1.162085 -4.698922 0.793011 206
-1.174934 -4.701825 0.793007 206
-1.187150 -4.704541 0.793002 206
-1.201713 -4.699544 0.793309 206
-1.215206 -4.702446 0.793304 206
-1.229706 -4.697339 0.793612 206
-1.240132 -4.711750 0.793140 206
-1.254609 -4.706544 0.793448 208
-1.266061 -4.712917 0.793289 208
-1.281254 -4.703687 0.793753 206
-1.292616 -4.714025 0.793438 208
-1.304779 -4.720400 0.793279 208
-1.318426 -4.718874 0.793432 208
-1.330633 -4.725164 0.793274 208
-1.344966 -4.719607 0.793583 206
-1.357886 -4.721871 0.793580 206
-1.370144 -4.728031 0.793422 206
-1.383094 -4.730207 0.793420 206
-1.396050 -4.732338 0.793419 208
-1.408995 -4.730373 0.793573 208
-1.421952 -4.732414 0.793571 208
-1.434315 -4.738361 0.793414 208
-1.446713 -4.744267 0.793258 208
-1.459718 -4.746176 0.793257 208
-1.473850 -4.740124 0.793568 208
-1.484111 -4.761736 0.792788 206
-1.498655 -4.747581 0.793411 208
-1.511540 -4.745260 0.793567 208
-1.524694 -4.750991 0.793411 208
-1.538374 -4.752708 0.793411 208
-1.551408 -4.754297 0.793412 208
-1.563796 -4.755764 0.793412 210
-1.576841 -4.757264 0.793413 210
-1.589891 -4.758719 0.793414 208
-1.603368 -4.756153 0.793571 210
-1.616414 -4.757515 0.793573 210
-1.628676 -4.766787 0.793263 210
-1.642139 -4.764081 0.793420 211
-1.654192 -4.769228 0.793266 210
-1.668643 -4.762507 0.793580 211
-1.681372 -4.767624 0.793426 211
-1.694133 -4.772698 0.793273 211
-1.706581 -4.773692 0.793276 210
-1.720640 -4.770756 0.793434 211
-1.734019 -4.767722 0.793593 210
-1.746835 -4.772615 0.793441 211
-1.759283 -4.773435 0.793444 211
-1.771733 -4.774213 0.793447 210
-1.784612 -4.778977 0.793295 210
-1.798821 -4.771759 0.793611 210
-1.811720 -4.776431 0.793459 210
-1.824836 -4.777065 0.793464 210
-1.837953 -4.777654 0.793468 208
-1.851073 -4.778197 0.793473 208
-1.864194 -4.778695 0.793478 210
-1.877317 -4.779146 0.793483 208
-1.890442 -4.779552 0.793488 208
-1.903465 -4.783907 0.793338 208
-1.915949 -4.784206 0.793343 208
-1.928434 -4.784465 0.793349 208
-1.941577 -4.784692 0.793355 208
-1.954720 -4.784873 0.793361 208
-1.968488 -4.789011 0.793212 208
-1.981647 -4.789098 0.793218 208
-1.994805 -4.789140 0.793225 208
-2.007306 -4.789136 0.793231 208
-2.020465 -4.789088 0.793239 208
-2.033623 -4.788994 0.793246 208
-2.046880 -4.796847 0.792942 206
-2.059344 -4.792675 0.793105 208
-2.073173 -4.792432 0.793113 206
-2.086526 -4.800146 0.792810 206
-2.099617 -4.795825 0.792974 208
-2.113037 -4.803446 0.792671 206
-2.125978 -4.795039 0.792991 206
-2.138644 -4.798595 0.792843 206
-2.152156 -4.806076 0.792541 206
-2.165373 -4.805521 0.792551 206
-2.178588 -4.804922 0.792560 208
-2.191598 -4.800283 0.792725 208
-2.205227 -4.807574 0.792423 208
-2.218679 -4.810825 0.792278 206
-2.231913 -4.810039 0.792288 206
-2.245401 -4.813196 0.792143 220
-2.258370 -4.808329 0.792309 206
-2.271503 -4.815424 0.792008 220
-2.285051 -4.818440 0.791863 220
-2.298311 -4.817422 0.791874 220
-2.311893 -4.820342 0.791730 222
-2.324818 -4.815248 0.791897 220
-2.338775 -4.822053 0.791598 220
-2.352416 -4.824828 0.791454 220
-2.366079 -4.827553 0.791311 220
-2.378973 -4.822275 0.791478 220
-2.392656 -4.824905 0.791335 220
-2.406361 -4.827486 0.791192 220
-2.419213 -4.822072 0.791361 220
-2.434292 -4.836471 0.790752 220
-2.447613 -4.834932 0.790765 220
-2.460929 -4.833347 0.790779 220
-2.474560 -4.839731 0.790481 220
-2.487892 -4.838051 0.790495 220
-2.502259 -4.844251 0.790198 220
-2.516676 -4.850397 0.789902 218
-2.529498 -4.844611 0.790071 220
-2.542285 -4.838782 0.790241 220
-2.557916 -4.852688 0.789635 220
-2.571803 -4.858724 0.789339 220
-2.585804 -4.860656 0.789199 220
-2.598592 -4.854639 0.789369 220
-2.611936 -4.856580 0.789229 220
-2.627284 -4.862201 0.788935 220
-2.641352 -4.863931 0.788796 220
-2.654768 -4.865724 0.788656 233
-2.667506 -4.859477 0.788828 220
-2.682302 -4.864995 0.788534 233
-2.696434 -4.866523 0.788396 233
-2.711256 -4.867876 0.788258 233
-2.725426 -4.869298 0.788121 233
-2.738860 -4.866742 0.788138 233
-2.753148 -4.872117 0.787845 233
-2.766592 -4.869464 0.787862 233
-2.780820 -4.870683 0.787725 233
-2.795875 -4.875763 0.787433 233
-2.808510 -4.869050 0.787607 233
-2.823613 -4.874022 0.787315 233
-2.837063 -4.871124 0.787334 233
-2.851555 -4.876133 0.787042 233
-2.865888 -4.877037 0.786907 233
-2.880237 -4.877888 0.786771 233
-2.894603 -4.878686 0.786636 233
-2.909902 -4.883321 0.786346 233
-2.923384 -4.880122 0.786366 233
-2.937798 -4.880760 0.786231 233
-2.952228 -4.881344 0.786097 233
-2.966673 -4.881874 0.785963 231
-2.981443 -4.886396 0.785673 233
-2.995257 -4.886991 0.785538 233
-3.010771 -4.891229 0.785250 231
-3.024956 -4.887498 0.785273 231
-3.038451 -4.883897 0.785294 231
-3.054036 -4.887962 0.785007 231
-3.068598 -4.888112 0.784874 233
-3.083174 -4.888207 0.784742 233
-3.097088 -4.888440 0.784609 233
-3.109483 -4.880746 0.784786 233
-3.125864 -4.884328 0.784501 233
-3.142066 -4.892076 0.784059 231
-3.157866 -4.895725 0.783774 233
-3.172065 -4.891456 0.783798 231
-3.184899 -4.887548 0.783821 233
-3.199578 -4.887206 0.783690 233
-3.216665 -4.894436 0.783251 231
-3.233816 -4.901593 0.782813 233
-3.246136 -4.893458 0.782991 233
-3.260213 -4.893106 0.782861 231
-3.278154 -4.899850 0.782424 233
-3.291691 -4.895365 0.782449 233
-3.309643 -4.906212 0.781857 233
-3.322590 -4.897603 0.782038 233
-3.337423 -4.896741 0.781909 233
-3.353583 -4.899597 0.781627 233
-3.368449 -4.898619 0.781499 233
-3.383990 -4.901589 0.781216 231
-3.397533 -4.896735 0.781243 231
-3.413119 -4.899591 0.780960 231
-3.430094 -4.901887 0.780681 231
-3.440849 -4.889380 0.781016 231
-3.459980 -4.899291 0.780428 233
-3.473515 -4.894171 0.780455 231
-3.489899 -4.896467 0.780175 231
-3.507765 -4.902421 0.779742 231
-3.522092 -4.901121 0.779615 233
-3.531216 -4.884636 0.780105 195
-3.543213 -4.875557 0.780287 225
-3.570827 -4.903224 0.778934 231
-3.588909 -4.908817 0.778502 218
-3.604847 -4.910918 0.778223 218
-3.618421 -4.905292 0.778253 218
-3.635075 -4.906988 0.777976 218
-3.654886 -4.915973 0.777391 218
-3.670948 -4.917812 0.777113 216
-3.689991 -4.922665 0.776685 216
-3.706808 -4.924067 0.776409 216
-3.720427 -4.918086 0.776440 216
-3.737279 -4.919359 0.776165 214
-3.752521 -4.916917 0.776043 204
-3.772042 -4.925644 0.775460 210
-3.793988 -4.937606 0.774725 214
-3.807654 -4.931320 0.774758 214
-3.826367 -4.935854 0.774330 214
-3.841729 -4.933072 0.774210 214
-3.860523 -4.937451 0.773783 214
-3.879371 -4.941747 0.773357 212
-3.894791 -4.938762 0.773238 210
-3.915471 -4.946494 0.772659 210
-3.934462 -4.950542 0.772234 210
-3.956372 -4.962008 0.771501 191
-3.978380 -4.973372 0.770769 191
-3.998265 -4.976799 0.770347 189
-4.017509 -4.980484 0.769924 180
-4.043417 -4.998661 0.768887 148
-4.060972 -4.998603 0.768617 26
-8.594726 -13.642697 0.395390 31
-8.659250 -13.658501 0.393825 30
-8.722089 -13.670477 0.392414 27
-8.777541 -13.668076 0.391615 27
-8.838759 -13.675990 0.390359 27
-8.900114 -13.683631 0.389104 30
-8.959682 -13.687495 0.388003 31
-9.021297 -13.694593 0.386750 32
-9.084995 -13.704905 0.385346 28
-9.141006 -13.700994 0.384554 28
-9.204968 -13.710752 0.383152 26
-9.262899 -13.714545 0.382050 26
-9.325149 -13.720279 0.380803 28
-9.391543 -13.732643 0.379253 28
-9.452051 -13.734353 0.378161 28
-9.510627 -13.732354 0.377222 27
-9.573370 -13.736969 0.375980 30
-9.642407 -13.751581 0.374283 28
-9.703363 -13.752187 0.373195 28
-9.768578 -13.759348 0.371805 30
-9.827658 -13.755991 0.370872 27
-9.893123 -13.762571 0.369484 30
-9.960846 -13.772240 0.367945 24
-10.028732 -13.781590 0.366407 26
-10.096781 -13.790623 0.364871 24
-10.156382 -13.785861 0.363944 23
-10.224703 -13.794282 0.362411 23
-10.293181 -13.802381 0.360878 23
-10.364004 -13.813502 0.359196 22
-10.426210 -13.810933 0.358122 22
-10.492921 -13.814746 0.356745 22
-10.559761 -13.818249 0.355370 22
-10.631195 -13.828070 0.353693 23
-10.707294 -13.844161 0.351714 23
-10.770086 -13.844913 0.350487 23
-10.837485 -13.847137 0.349118 23
-10.907287 -13.852332 0.347598 23
-10.974940 -13.853919 0.346231 20
-11.047318 -13.861725 0.344562 22
-11.117545 -13.865922 0.343047 20
-11.187912 -13.869785 0.341532 17
-11.265425 -13.883043 0.339565 20
-11.340795 -13.892681 0.337751 20
-11.411627 -13.895494 0.336242 22
-11.420970 -13.814284 0.338666 11
-11.365568 -13.646486 0.345174 15
-11.402416 -13.604113 0.345782 17
-11.451100 -13.577603 0.345635 13
-11.731533 -13.856696 0.330981 12
-11.863622 -13.937016 0.325702 19
-11.938083 -13.945432 0.323892 19
-12.012327 -13.943679 0.322403 19
-12.086895 -13.946467 0.320755 19
-12.169013 -13.958320 0.318657 18
-12.246596 -13.968410 0.316703 18
-12.321636 -13.970076 0.315060 18
-12.401817 -13.977608 0.313117 19
-12.482177 -13.984737 0.311176 18
-12.562712 -13.991463 0.309237 18
-12.643421 -13.997785 0.307300 18
-12.726849 -14.006782 0.305213 18
-12.807912 -14.012280 0.303279 18
-12.889144 -14.017372 0.301347 18
-12.978276 -14.031219 0.298965 21
-13.062460 -14.038509 0.296886 21
-13.146829 -14.045370 0.294808 21
-13.228769 -14.048773 0.292883 21
-13.316110 -14.057798 0.290659 19
-13.403649 -14.066373 0.288437 19
-13.491386 -14.074494 0.286217 21
-13.584622 -14.088143 0.283698 21
-13.667444 -14.089373 0.281782 19
-13.758433 -14.099101 0.279417 19
-13.850029 -14.113383 0.276895 21
-13.931080 -14.115383 0.274975 19
-14.022667 -14.123728 0.272617 19
-14.122172 -14.135349 0.269970 21
-14.214186 -14.142697 0.267615 21
-14.306397 -14.149562 0.265263 21
-14.407036 -14.164662 0.262463 24
-14.496914 -14.167631 0.260264 24
-14.584200 -14.167244 0.258218 21
-14.688279 -14.183675 0.255275 21
-14.781489 -14.188066 0.252933 22
-14.883266 -14.200541 0.250144 22
-14.985286 -14.212466 0.247357 21
-15.070662 -14.206806 0.245470 22
-15.181569 -14.226171 0.242240 22
-15.278603 -14.230825 0.239759 21
-15.381516 -14.240582 0.236982 19
-15.490364 -14.255379 0.233908 21
-15.582300 -14.252840 0.231733 21
-15.685874 -14.260937 0.228963 20
-15.795434 -14.274011 0.225897 20
-15.902359 -14.283721 0.222982 20
-16.013004 -14.300790 0.219761 18
-16.114594 -14.303846 0.217149 22
-16.230974 -14.320002 0.213795 22
-16.330061 -14.319191 0.211337 20
-16.449890 -14.336813 0.207839 20
-16.558844 -14.348204 0.204779 20
-16.663813 -14.345833 0.202192 18
-16.792704 -14.364290 0.198416 16
-16.899397 -14.371182 0.195512 18
-17.023563 -14.388181 0.191880 16
-17.139040 -14.396534 0.188696 18
-17.257763 -14.406879 0.185366 18
-17.370714 -14.411306 0.182336 16
-17.502020 -14.430799 0.178418 17
-17.612423 -14.431304 0.175542 19
-17.741961 -14.452107 0.171618 19
-17.864304 -14.456324 0.168314 19
-17.990660 -14.467758 0.164705 19
-18.111151 -14.473350 0.161395 17
-18.241833 -14.491303 0.157483 20
-18.374432 -14.500281 0.153747 18
-18.499510 -14.511698 0.150137 18
-18.634150 -14.529992 0.146086 18
-18.762119 -14.537087 0.142495 16
-18.902821 -14.553446 0.138315 19
-19.036818 -14.558551 0.134595 21
-19.180492 -14.570281 0.130436 19
-19.309525 -14.574304 0.126857 21
-19.455359 -14.595358 0.122382 20
-19.598358 -14.613149 0.118058 17
-19.740072 -14.619083 0.114060 17
-19.882872 -14.629702 0.109904 20
-20.035528 -14.646717 0.105309 18
-20.182125 -14.658035 0.101013 18
-20.335430 -14.673269 0.096425 18
-20.489063 -14.687598 0.091841 18
-20.636572 -14.696290 0.087556 19
-20.788439 -14.712105 0.082965 19
-20.946245 -14.726099 0.078245 19
-21.110870 -14.743821 0.073235 20
-21.275850 -14.760559 0.068228 17
-21.415073 -14.757841 0.064403 14
-21.600306 -14.786482 0.058522 17
-21.771984 -14.799116 0.053396 18
-21.928459 -14.805059 0.048848 15
-22.111578 -14.828177 0.043127 15
-22.279474 -14.844720 0.037983 15
-22.460049 -14.863451 0.032419 15
-22.634361 -14.876632 0.027152 15
-22.818993 -14.895414 0.021450 15
-22.997337 -14.908665 0.016046 13
-23.182711 -14.925225 0.010353 9
-23.366022 -14.944389 0.004648 9
-23.562197 -14.965241 -0.001475 10
-23.748682 -14.978415 -0.007154 10
-23.945637 -14.996897 -0.013267 13
-24.128529 -14.999634 -0.018627 10
-24.343161 -15.026341 -0.025462 14
-24.541277 -15.041163 -0.031560 10
-24.744118 -15.062941 -0.037963 18
-24.953215 -15.081609 -0.044489 10
-25.159300 -15.096911 -0.050864 11
-25.382885 -15.121266 -0.057965 11
-25.593201 -15.136022 -0.064475 11
-25.821089 -15.159681 -0.071710 11
-26.045982 -15.179893 -0.078793 11
-26.274757 -15.200721 -0.086016 12
-26.494574 -15.220389 -0.092960 12
-26.733610 -15.238097 -0.100444 12
-26.974091 -15.260580 -0.108086 12
-27.215029 -15.281555 -0.115722 12
-27.470358 -15.308845 -0.123934 12
-27.722691 -15.332581 -0.131994 12
-27.975496 -15.354727 -0.140047 13
-28.239288 -15.381040 -0.148531 13
-28.493038 -15.399963 -0.156570 13
-28.758802 -15.429538 -0.165205 13
-29.038149 -15.458439 -0.174249 13
-29.300360 -15.476211 -0.182559 9
-29.294043 -15.351096 -0.179826 4
-22.461843 -11.672807 0.102324 2
-22.401297 -11.546419 0.106708 2
-22.420134 -11.466041 0.107739 2
-22.777342 -11.557425 0.094995 2
-22.685440 -11.420196 0.100524 2
-22.619661 -11.301600 0.104874 2
-22.608850 -11.206536 0.107065 2
-22.626345 -11.125744 0.108096 2
-22.639933 -11.043208 0.109272 2
-22.555943 -10.913892 0.114354 2
-22.557894 -10.826591 0.115962 2
-22.577557 -10.747939 0.116846 2
-22.600538 -10.670965 0.117586 2
-22.673996 -10.617514 0.116304 2
-22.732803 -10.556986 0.115600 2
-22.687946 -10.453355 0.118924 2
-22.822762 -10.427166 0.115191 2
-23.258492 -10.530350 0.099649 2
-23.463337 -10.532211 0.093188 2
-23.368313 -10.400994 0.098551 2
-23.650215 -10.434749 0.089070 2
-23.866526 -10.438185 0.082190 2
-24.083122 -10.440225 0.075315 2
-24.484112 -10.518647 0.061250 3
-24.515497 -10.444037 0.061566 3
-24.943399 -10.529154 0.046511 3
-25.739979 -10.757499 0.017254 3
-25.873837 -10.715183 0.013725 3
-41.695190 -11.895740 -0.520186 8
-32.993065 -9.048029 -0.194048 5
-32.784771 -8.765145 -0.183529 10
-32.660313 -8.620131 -0.177568 10
-32.860107 -8.561121 -0.183508 5
-33.006741 -8.482353 -0.187443 5
-33.005386 -8.367624 -0.186006 5
-33.023075 -8.257537 -0.185275 5
-33.040375 -8.147415 -0.184545 5
-33.049480 -8.035500 -0.183532 5
-32.995750 -7.909729 -0.180264 5
-32.933266 -7.556679 -0.174133 5
-33.065502 -7.471424 -0.177630 5
-33.056515 -7.356555 -0.176057 5
-33.913334 -7.415420 -0.205579 5
-34.880756 -7.489989 -0.239015 5
-36.312229 -7.647337 -0.289014 6
-43.075142 -4.001776 -0.488613 8
-42.487106 -3.817055 -0.467239 8
-42.296730 -3.669668 -0.459767 8
-42.305752 -3.528994 -0.459198 8
-41.915211 -3.364845 -0.444784 8
-41.531422 -3.065480 -0.429823 7
-41.345402 -2.773656 -0.421769 7
-41.151592 -2.628105 -0.414306 7
-41.156986 -2.491434 -0.413755 7
-40.762371 -2.341128 -0.399398 7
-40.370979 -2.200414 -0.385218 7
-40.770317 -2.084026 -0.398362 7
-40.178497 -1.927763 -0.377244 7
-39.986012 -1.531898 -0.368776 7
-39.587910 -1.388751 -0.354450 7
-39.589603 -1.126338 -0.353395 7
14.980980 0.542372 0.441092 1
14.434258 0.321563 0.456899 1
14.383028 0.259828 0.458307 1
14.829968 0.235653 0.445060 1
15.292667 0.154902 0.431228 1
15.356506 0.098388 0.429222 1
14.490287 -0.015216 0.454587 1
14.668718 -0.124016 0.449053 16
14.663752 -0.182608 0.449053 9
14.674417 -0.237497 0.448595 8
14.681161 -0.298444 0.448230 6
14.713748 -0.413904 0.446935 4
14.715563 -0.466415 0.446723 8
14.705568 -0.530954 0.446818 4
14.731148 -0.588652 0.445875 4
14.736542 -0.646969 0.445522 4
14.656492 -0.936619 0.446845 1
14.840585 -0.988605 0.441187 1
14.752624 -1.047247 0.443558 1
14.736427 -1.105643 0.443797 1
14.811957 -1.167652 0.441298 1
15.067237 -1.226498 0.433481 1
22.582111 -1.407537 0.210056 3
22.848515 -1.494164 0.201773 3
22.431833 -1.827586 0.212522 3
22.585890 -2.258247 0.205709 3
22.568642 -2.429400 0.205263 3
22.563562 -2.515153 0.204922 3
22.571068 -2.765428 0.203215 3
22.572790 -2.851782 0.202635 3
22.227419 -2.911100 0.212468 3
22.252539 -2.998259 0.211174 3
22.213606 -3.080193 0.211797 3
22.202274 -3.164349 0.211581 3
22.198612 -3.249185 0.211126 3
22.142653 -3.414123 0.211657 3
22.293230 -3.514720 0.206520 3
22.082043 -3.573764 0.212328 3
22.275665 -3.680021 0.205865 3
22.262249 -3.764294 0.205650 3
22.246449 -3.934087 0.204861 3
22.065498 -3.997595 0.209704 3
22.078745 -4.084610 0.208650 3
22.055998 -4.167087 0.208680 3
22.053345 -4.247906 0.208124 3
21.792391 -4.297476 0.215392 3
21.887094 -4.399781 0.211790 3
21.716871 -4.460185 0.216292 3
21.736961 -4.543511 0.215016 3
21.665216 -4.617335 0.216502 3
21.711763 -4.709140 0.214364 3
21.678989 -4.788746 0.214643 3
21.630163 -4.865599 0.215408 3
21.608698 -4.946749 0.215326 3
21.615246 -5.028362 0.214413 3
21.581404 -5.107357 0.214695 3
21.503990 -5.178502 0.216312 3
21.501123 -5.262652 0.215627 3
21.411453 -5.330905 0.217611 3
21.647739 -5.459817 0.209522 3
21.459305 -5.509272 0.214542 3
21.596527 -5.620975 0.209484 3
21.446980 -5.676834 0.213294 3
21.763670 -5.826018 0.202639 3
21.746738 -5.908940 0.202315 3
21.455597 -5.934410 0.210510 3
21.428301 -6.005578 0.210588 3
21.441120 -6.098186 0.209279 3
21.325628 -6.158477 0.212006 3
21.382582 -6.252388 0.209389 3
21.270597 -6.312697 0.211998 3
21.235451 -6.394349 0.212154 3
21.236954 -6.475941 0.211244 3
21.248871 -6.564441 0.209951 3
21.278894 -6.661858 0.208032 3
21.260048 -6.739023 0.207732 3
21.254436 -6.828113 0.206912 3
21.228313 -6.899179 0.206873 3
21.221046 -6.992310 0.206037 3
21.269682 -7.091499 0.203519 3
21.236742 -7.169621 0.203572 3
21.261461 -7.263132 0.201787 3
21.218575 -7.329889 0.202240 3
21.196398 -7.410899 0.201926 3
21.183228 -7.503150 0.201214 3
21.162737 -7.575951 0.200932 3
21.200029 -7.678451 0.198640 3
21.199669 -7.766092 0.197590 3
21.224379 -7.852484 0.195834 3
21.177387 -7.926661 0.196259 3
21.270557 -8.047395 0.192118 3
21.192348 -8.112213 0.193528 3
21.138136 -8.179628 0.194216 3
21.180401 -8.285912 0.191673 3
21.208239 -8.383711 0.189637 3
21.084703 -8.428866 0.192546 6
20.975035 -8.482231 0.194949 6
20.929846 -8.556143 0.195258 3
20.971678 -8.658846 0.192729 3
21.016863 -8.763207 0.190076 3
21.019962 -8.853809 0.188779 3
21.046778 -8.948312 0.186757 3
21.071817 -9.047105 0.184718 3
21.032331 -9.123612 0.184781 3
21.086763 -9.233443 0.181751 3
21.148233 -9.346459 0.178473 3
21.261797 -9.479134 0.173459 3
21.404734 -9.623737 0.167451 3
21.490728 -9.748552 0.163297 3
21.546190 -9.862827 0.160133 3
21.616093 -9.983271 0.156471 3
21.864620 -10.173032 0.146852 3
21.810146 -10.247611 0.147280 11
21.625145 -10.270901 0.152054 33
21.378683 -10.263929 0.158960 21
21.295908 -10.320652 0.160405 18
21.235699 -10.395502 0.160950 25
21.139879 -10.450901 0.162756 21
21.021774 -10.496614 0.165311 36
20.911016 -10.544689 0.167620 21
20.759304 -10.565590 0.171455 21
20.582596 -10.593611 0.175857 31
20.545355 -10.670808 0.175683 28
20.500509 -10.744690 0.175759 14
20.012032 -10.624903 0.190925 13
19.961754 -10.689790 0.191272 27
19.756145 -10.690071 0.196848 32
19.696714 -10.754499 0.197435 19
19.609669 -10.801665 0.199037 9
19.180950 -10.701304 0.212231 21
19.150423 -10.767799 0.211980 28
19.056545 -10.818267 0.213689 28
18.984118 -10.869353 0.214801 18
18.823303 -10.891625 0.218753 12
18.633623 -10.890068 0.223862 15
18.503544 -10.911533 0.226985 18
18.316031 -10.904260 0.232116 11
18.155781 -10.913459 0.236236 17
18.103199 -10.974885 0.236599 8
17.624819 -10.823452 0.251886 44
17.520781 -10.852507 0.254151 22
17.363424 -10.862394 0.258150 15
17.232883 -10.880677 0.261287 23
17.269361 -10.984482 0.258524 23
17.181280 -11.023952 0.260157 15
17.063063 -11.042851 0.262936 26
16.969679 -11.082678 0.264687 55
16.895651 -11.128090 0.265823 31
16.745890 -11.128077 0.269742 25
16.706970 -11.191542 0.269624 20
16.418932 -11.118393 0.278446 15
16.367838 -11.169749 0.278849 25
16.498236 -11.322031 0.272700 25
16.397600 -11.354517 0.274717 7
16.324949 -11.393804 0.275877 12
15.823329 -11.192157 0.292542 16
15.675121 -11.185430 0.296487 6
15.649898 -11.253082 0.295879 15
15.519077 -11.263219 0.299049 20
15.274881 -11.197465 0.306539 18
15.135999 -11.204486 0.309958 25
15.148351 -11.293004 0.307967 13
17.271959 -12.656801 0.227955 5
14.872817 -11.369587 0.313506 14
14.462660 -11.189322 0.327360 6
15.234830 -11.749610 0.297012 6
14.551991 -11.408885 0.320847 23
14.566579 -11.490738 0.318881 6
14.561798 -11.572871 0.317391 4
14.553621 -11.645011 0.316174 31
14.071486 -11.418925 0.332694 12
13.993362 -11.443785 0.334148 28
13.920112 -11.475408 0.335339 26
13.876842 -11.526504 0.335390 6
13.783515 -11.544156 0.337346 4
13.661873 -11.546183 0.340311 6
13.567279 -11.557721 0.342408 6
13.487454 -11.582713 0.343863 6
13.384581 -11.591428 0.346209 4
13.267244 -11.585510 0.349203 3
13.177790 -11.602154 0.351045 5
13.072048 -11.606812 0.353525 5
12.963196 -11.608554 0.356135 5
12.855923 -11.614578 0.358611 5
12.739518 -11.605481 0.361617 5
12.627970 -11.602969 0.364362 5
12.523082 -11.604517 0.366854 5
12.421585 -11.607828 0.369221 8
12.339529 -11.624824 0.370825 15
12.302416 -11.674814 0.370644 21
12.265667 -11.717296 0.370609 10
12.272895 -11.800763 0.368641 7
11.748882 -11.786935 0.381306 21
11.664123 -11.797723 0.383052 19
11.575076 -11.800709 0.385065 21
11.484279 -11.805576 0.387071 17
11.390501 -11.807434 0.389207 19
11.312397 -11.821364 0.390705 17
11.221977 -11.824761 0.392717 17
11.128609 -11.825119 0.394859 16
11.044635 -11.832611 0.396618 17
10.969975 -11.847335 0.397995 17
10.894205 -11.856847 0.399509 16
10.811676 -11.867866 0.401137 16
10.731135 -11.876204 0.402775 17
10.650693 -11.884113 0.404414 17
10.569225 -11.886785 0.406191 16
10.495027 -11.899091 0.407577 16
10.414884 -11.905740 0.409222 16
10.340841 -11.917255 0.410610 16
10.251932 -11.915103 0.412644 16
10.181058 -11.928467 0.413907 19
10.107272 -11.938790 0.415301 18
10.033564 -11.948733 0.416696 18
9.955940 -11.950811 0.418357 19
9.885352 -11.962692 0.419627 22
9.814827 -11.974214 0.420897 19
9.732677 -11.974463 0.422685 22
9.659409 -11.982490 0.424087 22
9.586227 -11.990137 0.425491 20
9.518922 -12.002926 0.426639 20
9.448786 -12.012610 0.427916 24
9.372973 -12.016381 0.429454 24
9.294411 -12.016968 0.431122 23
9.233111 -12.033935 0.432017 23
9.164298 -12.035476 0.433443 24
9.088903 -12.037748 0.434986 23
9.020184 -12.050035 0.436136 23
8.953449 -12.060056 0.437294 24
8.891516 -12.070692 0.438331 24
8.819311 -12.074358 0.439751 24
8.750001 -12.080522 0.441042 26
8.684401 -12.093955 0.442070 23
8.615249 -12.099429 0.443364 24
8.556394 -12.111403 0.444278 26
8.479971 -12.112242 0.445827 24
8.412229 -12.110136 0.447268 26
8.345035 -12.123709 0.448296 26
8.299230 -12.144420 0.448702 26
8.223212 -12.143827 0.450257 26
8.157364 -12.149916 0.451430 26
8.088172 -12.147995 0.452871 27
8.027862 -12.159371 0.453788 26
7.968312 -12.175184 0.454570 25
7.905425 -12.183000 0.455619 22
7.839268 -12.182796 0.456934 23
7.774588 -12.191705 0.457980 23
7.706684 -12.192559 0.459292 25
7.658468 -12.207868 0.459837 23
7.596580 -12.218907 0.460756 25
7.528924 -12.218845 0.462072 23
7.468503 -12.222902 0.463135 23
7.399108 -12.223841 0.464447 25
7.334348 -12.225864 0.465636 26
7.284388 -12.241356 0.466182 25
7.222893 -12.250593 0.467108 25
7.160324 -12.250136 0.468307 27
7.095900 -12.250977 0.469501 27
7.036592 -12.257735 0.470435 26
6.979312 -12.262650 0.471377 26
6.920654 -12.273555 0.472178 27
6.863496 -12.277946 0.473121 25
6.806904 -12.286769 0.473930 25
6.745456 -12.289018 0.475000 25
6.686540 -12.294142 0.475942 25
6.620408 -12.289466 0.477275 25
6.571340 -12.306753 0.477697 23
6.512630 -12.311067 0.478641 25
6.458785 -12.321509 0.479325 26
6.397819 -12.322086 0.480402 25
6.341697 -12.328811 0.481219 25
6.287219 -12.329164 0.482177 26
6.229248 -12.336829 0.482991 26
6.177626 -12.344609 0.483685 24
6.124065 -12.353591 0.484376 22
6.063248 -12.347899 0.485594 22
6.008156 -12.362448 0.486146 23
5.952448 -12.367415 0.486970 23
5.892237 -12.365568 0.488056 23
5.836679 -12.370020 0.488882 23
5.778926 -12.370924 0.489839 23
5.736474 -12.385392 0.490153 24
5.683572 -12.397107 0.490715 23
5.625998 -12.397292 0.491675 22
5.572946 -12.403872 0.492375 22
5.515535 -12.403546 0.493337 22
5.462601 -12.409648 0.494039 22
5.409717 -12.415519 0.494741 21
5.358872 -12.419875 0.495448 23
5.308246 -12.428661 0.496021 22
5.255504 -12.433860 0.496726 22
5.200821 -12.440086 0.497428 23
5.152173 -12.442322 0.498143 24
5.099593 -12.446844 0.498850 34
5.047171 -12.455771 0.499424 34
4.990520 -12.453015 0.500395 33
4.942192 -12.459046 0.500978 38
4.891903 -12.466085 0.501558 36
4.841650 -12.472913 0.502139 38
4.789395 -12.476089 0.502852 42
4.733149 -12.472150 0.503828 39
4.687084 -12.485223 0.504149 41
4.637005 -12.486576 0.504868 45
4.580997 -12.486553 0.505711 39
4.531036 -12.492085 0.506297 37
4.477185 -12.490445 0.507147 42
4.433194 -12.506009 0.507340 39
4.383412 -12.506313 0.508063 43
4.333623 -12.511020 0.508652 40
4.283880 -12.515519 0.509242 38
4.234183 -12.519812 0.509832 36
4.180746 -12.516855 0.510687 38
4.135056 -12.523178 0.511151 15
4.087523 -12.525791 0.511747 38
4.037879 -12.533865 0.512206 33
3.992112 -12.544230 0.512537 32
3.946528 -12.549826 0.513004 31
3.895126 -12.553745 0.513597 18
3.855033 -12.569665 0.513671 9
3.805700 -12.572173 0.514268 19
3.758204 -12.578055 0.514735 24
3.708718 -12.584743 0.515199 19
3.657767 -12.583055 0.515931 22
3.606897 -12.581152 0.516664 29
3.563611 -12.584299 0.517139 29
3.512283 -12.591141 0.517604 32
3.467359 -12.590328 0.518212 38
3.419825 -12.599427 0.518550 26
3.378025 -12.610085 0.518762 24
3.332165 -12.622454 0.518969 20
3.282053 -12.614606 0.519841 30
3.241543 -12.632974 0.519789 25
3.189150 -12.630208 0.520525 29
3.143730 -12.637285 0.520870 29
3.107203 -12.653388 0.520824 8
-0.330664 -4.897639 0.800681 0
-0.360789 -4.862704 0.802117 0
-0.388216 -4.835258 0.803288 0
-0.390074 -4.866397 0.802350 0
-0.407244 -4.864886 0.802598 0
-0.443154 -4.853687 0.803360 0
-0.503304 -4.778769 0.806368 21
-0.560742 -4.711165 0.809113 20
-0.577312 -4.704730 0.809497 56
-0.597319 -4.691001 0.810144 106
-0.614385 -4.684657 0.810528 107
-0.629989 -4.681983 0.810779 107
-0.648333 -4.671746 0.811296 107
-0.662565 -4.668467 0.811549 107
-0.675311 -4.673114 0.811537 107
-0.694743 -4.663119 0.812053 107
-0.710140 -4.660117 0.812305 107
-0.726822 -4.653279 0.812691 107
-0.738205 -4.661479 0.812547 107
-0.749653 -4.665425 0.812538 109
-0.768806 -4.650837 0.813188 107
-0.781489 -4.655113 0.813177 108
-0.792930 -4.663139 0.813035 109
-0.809388 -4.655932 0.813421 108
-0.819627 -4.667674 0.813147 109
-0.832950 -4.667760 0.813270 108
-0.849306 -4.660377 0.813657 108
-0.862022 -4.664371 0.813648 108
-0.874752 -4.668322 0.813639 108
-0.888661 -4.668403 0.813762 108
-0.901404 -4.672260 0.813753 109
-0.917576 -4.664576 0.814142 108
-0.929181 -4.672169 0.814001 109
-0.944161 -4.668204 0.814257 108
-0.955806 -4.675712 0.814117 108
-0.970743 -4.671638 0.814374 108
-0.987783 -4.659803 0.814896 107
-0.998801 -4.666995 0.814756 108
-1.012584 -4.666609 0.814881 108
-1.024290 -4.673896 0.814742 108
-1.037690 -4.677448 0.814735 109
-1.052472 -4.673045 0.814993 109
-1.065231 -4.676331 0.814986 108
-1.076385 -4.683287 0.814848 108
-1.089180 -4.686489 0.814842 109
-1.104836 -4.677997 0.815233 108
-1.119485 -4.673326 0.815492 108
-1.132245 -4.676378 0.815487 108
-1.144105 -4.683278 0.815349 109
-1.156004 -4.690139 0.815211 109
-1.169704 -4.689164 0.815339 108
-1.183616 -4.684093 0.815599 109
-1.197053 -4.687061 0.815594 109
-1.209860 -4.689842 0.815590 109
-1.220379 -4.700264 0.815320 109
-1.234046 -4.699049 0.815449 109
-1.247696 -4.697784 0.815578 109
-1.260540 -4.700387 0.815574 109
-1.274941 -4.695102 0.815835 109
-1.286255 -4.705461 0.815567 109
-1.300619 -4.700075 0.815829 109
-1.314203 -4.698564 0.815958 109
-1.325044 -4.704633 0.815823 109
-1.337912 -4.706966 0.815821 109
-1.352075 -4.709482 0.815818 109
-1.364282 -4.715661 0.815683 109
-1.377207 -4.713807 0.815814 109
-1.388809 -4.719797 0.815679 109
-1.402375 -4.722012 0.815678 109
-1.416550 -4.716178 0.815941 109
-1.428848 -4.722143 0.815807 109
-1.441129 -4.724017 0.815806 109
-1.454710 -4.726041 0.815805 109
-1.466436 -4.731786 0.815672 109
-1.475512 -4.761340 0.814743 110
-1.492473 -4.739470 0.815538 109
-1.505988 -4.737257 0.815671 110
-1.518832 -4.734910 0.815803 109
-1.531305 -4.740534 0.815671 110
-1.544461 -4.746195 0.815539 110
-1.557001 -4.751733 0.815407 110
-1.570946 -4.745313 0.815672 110
-1.582653 -4.746643 0.815673 110
-1.595666 -4.748077 0.815674 110
-1.608683 -4.749466 0.815675 110
-1.622759 -4.746898 0.815809 110
-1.635384 -4.752172 0.815679 110
-1.648790 -4.749442 0.815813 110
-1.661812 -4.750645 0.815815 110
-1.673492 -4.759711 0.815552 110
-1.687535 -4.756899 0.815687 110
-1.701222 -4.749997 0.815954 109
-1.714245 -4.751018 0.815957 110
-1.726689 -4.759967 0.815695 110
-1.738442 -4.760808 0.815698 110
-1.751238 -4.765687 0.815569 110
-1.764567 -4.762543 0.815705 110
-1.777397 -4.767333 0.815576 110
-1.791579 -4.760140 0.815845 110
-1.804429 -4.764838 0.815716 110
-1.816850 -4.765466 0.815720 110
-1.830109 -4.762089 0.815857 110
-1.843174 -4.762660 0.815862 109
-1.855934 -4.771174 0.815601 110
-1.868515 -4.767636 0.815738 110
-1.881473 -4.772068 0.815611 109
-1.895228 -4.772478 0.815617 110
-1.908231 -4.776817 0.815490 110
-1.921347 -4.777115 0.815495 109
-1.934464 -4.777367 0.815501 110
-1.946982 -4.773566 0.815639 109
-1.960087 -4.773729 0.815646 110
-1.973163 -4.777843 0.815520 110
-1.986297 -4.773916 0.815659 110
-1.999401 -4.777939 0.815533 110
-2.012547 -4.785914 0.815275 109
-2.025667 -4.781850 0.815415 110
-2.038800 -4.781738 0.815422 109
-2.051987 -4.785577 0.815297 109
-2.065133 -4.785373 0.815305 109
-2.077703 -4.789134 0.815180 110
-2.090861 -4.788839 0.815188 110
-2.104128 -4.792496 0.815064 110
-2.117297 -4.792109 0.815072 109
-2.130604 -4.795673 0.814949 110
-2.143784 -4.795194 0.814957 109
-2.156304 -4.794697 0.814966 110
-2.170140 -4.794099 0.814976 109
-2.183508 -4.797475 0.814853 110
-2.196903 -4.800804 0.814730 109
-2.210322 -4.804086 0.814608 109
-2.222636 -4.799377 0.814749 109
-2.236738 -4.802526 0.814628 109
-2.250469 -4.809655 0.814373 110
-2.264253 -4.816734 0.814120 110
-2.276262 -4.807863 0.814394 109
-2.289484 -4.806875 0.814405 109
-2.302042 -4.805895 0.814416 109
-2.316250 -4.808746 0.814295 109
-2.330514 -4.819568 0.813910 110
-2.343416 -4.814410 0.814054 109
-2.356661 -4.813189 0.814066 109
-2.369239 -4.811985 0.814077 109
-2.383278 -4.818628 0.813825 110
-2.396952 -4.821244 0.813706 109
-2.409985 -4.823882 0.813585 109
-2.423262 -4.822428 0.813598 110
-2.437654 -4.824822 0.813480 110
-2.450741 -4.827321 0.813360 110
-2.463546 -4.821756 0.813506 109
-2.477811 -4.828048 0.813255 109
-2.490438 -4.826443 0.813268 110
-2.505052 -4.824532 0.813283 110
-2.518871 -4.826707 0.813166 110
-2.532711 -4.828833 0.813048 109
-2.546474 -4.834960 0.812798 110
-2.557466 -4.817208 0.813340 105
-2.573097 -4.831053 0.812827 110
-2.586398 -4.829029 0.812842 109
-2.600314 -4.830909 0.812726 109
-2.614251 -4.832737 0.812609 109
-2.627558 -4.830570 0.812625 109
-2.641518 -4.836353 0.812376 109
-2.655513 -4.838031 0.812261 109
-2.670219 -4.843596 0.812013 109
-2.684267 -4.845168 0.811898 109
-2.696899 -4.838824 0.812047 109
-2.710958 -4.840299 0.811932 109
-2.725036 -4.841722 0.811817 109
-2.740651 -4.850943 0.811439 109
-2.754020 -4.848335 0.811456 109
-2.768167 -4.849599 0.811342 109
-2.780994 -4.851085 0.811227 109
-2.795989 -4.856164 0.810982 109
-2.811028 -4.861186 0.810737 109
-2.825103 -4.858188 0.810756 109
-2.837828 -4.855431 0.810774 108
-2.853617 -4.860139 0.810530 108
-2.868780 -4.864936 0.810286 109
-2.882421 -4.865931 0.810173 109
-2.898565 -4.874507 0.809798 109
-2.911095 -4.867457 0.809949 109
-2.926128 -4.867980 0.809839 109
-2.942004 -4.880587 0.809331 110
-2.956823 -4.876942 0.809353 109
-2.972234 -4.881332 0.809111 109
-2.983373 -4.874385 0.809261 109
-2.999171 -4.874451 0.809153 109
-3.012292 -4.875160 0.809040 109
-3.029505 -4.883013 0.808669 110
-3.043354 -4.883438 0.808558 110
-3.055779 -4.875916 0.808711 110
-3.072047 -4.879725 0.808472 110
-3.087007 -4.883846 0.808230 110
-3.101586 -4.883873 0.808121 109
-3.117962 -4.887491 0.807883 110
-3.129660 -4.879926 0.808035 110
-3.143801 -4.875760 0.808060 109
-3.158882 -4.879604 0.807819 110
-3.174675 -4.883185 0.807580 110
-3.186306 -4.875448 0.807734 109
-3.200948 -4.875101 0.807627 110
-3.217477 -4.878299 0.807390 110
-3.232156 -4.877834 0.807283 110
-3.246846 -4.877314 0.807176 110
-3.261547 -4.876738 0.807070 110
-3.275004 -4.872311 0.807095 110
-3.289042 -4.871853 0.806988 109
-3.303763 -4.871117 0.806882 109
-3.319791 -4.874108 0.806646 110
-3.334546 -4.873255 0.806540 109
-3.348662 -4.868338 0.806567 109
-3.362752 -4.867613 0.806461 108
-3.380220 -4.874125 0.806095 109
-3.395715 -4.877046 0.805859 109
-3.413967 -4.883167 0.805495 109
-3.428158 -4.882207 0.805390 110
-3.443033 -4.880943 0.805286 109
-3.461416 -4.886848 0.804923 108
-3.478510 -4.893186 0.804558 109
-3.492698 -4.887741 0.804587 109
-3.507644 -4.886232 0.804484 109
-3.523388 -4.888651 0.804250 109
-3.539840 -4.890740 0.804018 108
-3.556325 -4.892760 0.803786 109
-3.577354 -4.905826 0.803162 109
-3.587877 -4.892899 0.803452 108
-3.609036 -4.905801 0.802830 109
-3.624134 -4.903850 0.802729 109
-3.642349 -4.909206 0.802368 109
-3.657485 -4.907127 0.802268 109
-3.669464 -4.897646 0.802429 103
-3.687773 -4.902795 0.802069 109
-3.703175 -4.904796 0.801836 108
-3.718345 -4.902483 0.801737 108
-3.741402 -4.914105 0.801120 108
-3.751985 -4.904971 0.801279 108
-3.768850 -4.906109 0.801050 108
-3.785744 -4.907177 0.800822 105
-3.807711 -4.919056 0.800204 107
-3.826395 -4.923586 0.799847 107
-3.841719 -4.920802 0.799750 107
-3.860484 -4.925178 0.799393 107
-3.882767 -4.936676 0.798777 106
-3.903408 -4.944468 0.798291 107
-3.924126 -4.952165 0.797805 105
-3.943151 -4.956180 0.797450 105
-3.962227 -4.960109 0.797095 104
-3.981355 -4.963953 0.796740 102
-4.007070 -4.982327 0.795866 79
-4.029986 -4.993097 0.795253 52
-8.552855 -13.627239 0.479268 22
-8.615390 -13.639698 0.478087 21
-8.674355 -13.644806 0.477166 18
-8.733436 -13.649654 0.476247 22
-8.788846 -13.647202 0.475588 20
-8.846226 -13.648031 0.474800 22
-8.905612 -13.652121 0.473883 23
-8.965110 -13.655950 0.472968 22
-9.036371 -13.680484 0.471278 21
-9.090300 -13.673285 0.470753 22
-9.150163 -13.676305 0.469842 22
-9.210133 -13.679062 0.468931 22
-9.268000 -13.682823 0.468015 18
-9.334397 -13.690701 0.466855 18
-9.396722 -13.696100 0.465819 16
-9.467281 -13.715002 0.464267 17
-9.527867 -13.716372 0.463362 16
-9.586503 -13.714041 0.462588 16
-9.649341 -13.718304 0.461556 16
-9.712299 -13.722282 0.460526 16
-9.779420 -13.737564 0.459104 18
-9.840556 -13.737557 0.458205 22
-9.901787 -13.737279 0.457307 20
-9.969477 -13.746892 0.456024 15
-10.035195 -13.752808 0.454871 15
-10.109634 -13.771912 0.453204 15
-10.175675 -13.777187 0.452054 13
-10.233176 -13.768723 0.451420 13
-10.297260 -13.770065 0.450401 12
-10.365837 -13.777802 0.449125 12
-10.441181 -13.795221 0.447466 12
-10.512318 -13.805614 0.446065 12
-10.574719 -13.802383 0.445180 12
-10.646158 -13.812123 0.443782 12
-10.713268 -13.814911 0.442642 12
-10.782764 -13.820682 0.441375 12
-10.847899 -13.824378 0.440231 13
-10.919958 -13.832789 0.438839 12
-10.992126 -13.836012 0.437583 12
-11.064506 -13.843722 0.436194 12
-11.137127 -13.855936 0.434670 12
-11.207512 -13.859702 0.433412 12
-11.285058 -13.872855 0.431771 12
-11.355750 -13.875926 0.430515 13
-11.372211 -13.804499 0.432207 8
-11.312287 -13.630200 0.437995 12
-11.361028 -13.604034 0.437893 17
-11.407301 -13.574482 0.437920 12
-11.581135 -13.713884 0.431168 8
-11.804447 -13.915875 0.421863 13
-11.883440 -13.926012 0.420234 13
-11.969948 -13.945251 0.418224 15
-12.039540 -13.941942 0.417110 12
-12.106767 -13.935157 0.416126 13
-12.183968 -13.940619 0.414631 13
-12.271273 -13.958223 0.412628 9
-12.346340 -13.959763 0.411265 10
-12.419036 -13.957822 0.410031 10
-12.509473 -13.977265 0.407906 13
-12.590055 -13.983850 0.406292 14
-12.666282 -13.993752 0.404663 13
-12.744658 -13.996474 0.403181 13
-12.833425 -14.011088 0.401190 14
-12.926963 -14.021427 0.399220 13
-12.996161 -14.020614 0.397979 14
-13.092690 -14.033063 0.395885 14
-13.172571 -14.043668 0.394139 16
-13.262065 -14.051029 0.392294 14
-13.354736 -14.065922 0.390189 14
-13.429560 -14.064281 0.388838 15
-13.519632 -14.070261 0.386999 12
-13.612935 -14.083756 0.384900 12
-13.711805 -14.102717 0.382548 10
-13.787250 -14.099447 0.381204 14
-13.883490 -14.109440 0.379120 12
-13.969581 -14.112141 0.377409 12
-14.053549 -14.116503 0.375690 10
-14.163996 -14.139668 0.372978 8
-14.256108 -14.146809 0.371020 10
-14.342941 -14.147638 0.369316 11
