# .PCD v.7 - Point Cloud Data file format
VERSION .7
FIELDS x y z intensity
SIZE 4 4 4 1
TYPE F F F U
COUNT 1 1 1 1
WIDTH 1483
HEIGHT 1
VIEWPOINT 0 0 0 1 0 0 0
POINTS 1483
DATA ascii
-10.114234 -7.709094 0.978515 8
-10.114706 -7.664411 0.978532 7
-10.144057 -7.641092 0.978688 3
-10.154669 -7.602574 0.978755 1
-10.186959 -7.581573 0.978926 0
-10.239126 -7.573934 0.979193 0
-10.982694 -8.116907 0.982750 0
-11.014939 -8.088873 0.982926 0
-11.104603 -8.110552 0.983374 0
-11.205243 -8.137448 0.983876 0
-11.328391 -8.180778 0.984488 0
-11.436046 -8.211210 0.985026 0
-11.544025 -8.240978 0.985568 0
-11.693904 -8.301309 0.986311 0
-11.837906 -8.355897 0.987027 0
-12.040274 -8.452406 0.988024 0
-12.220871 -8.531010 0.988919 0
-12.451940 -8.641977 0.990059 0
-28.792234 -20.422218 1.068402 7
-29.486633 -20.779190 1.071820 7
-28.775784 -19.706732 1.068778 6
-29.530838 -19.667542 1.072818 7
-29.698668 -19.640509 1.073735 7
-29.250925 -19.194853 1.071686 6
-29.484468 -19.219221 1.072920 6
-30.112755 -19.494417 1.076073 7
-30.904110 -19.870327 1.080023 7
-31.013386 -19.797571 1.080675 7
-12.863337 -6.728501 0.994097 0
-12.918669 -6.709029 0.994437 0
-12.920691 -6.661702 0.994511 0
-13.004399 -6.656370 0.994995 0
-12.874213 -6.541860 0.994410 0
-13.461494 -6.789842 0.997419 0
-12.622594 -6.321136 0.993281 0
-12.641033 -6.284024 0.993440 0
-12.659342 -6.246848 0.993599 0
-13.111096 -6.229834 0.996228 0
-12.783857 -5.984859 0.994716 0
-12.982206 -6.032108 0.995792 0
-12.817400 -5.911341 0.995028 0
-12.834407 -5.873551 0.995189 0
-12.852122 -5.833809 0.995358 0
-14.753818 -6.626827 1.005143 0
-12.518702 -5.598297 0.993804 0
-12.810105 -5.680316 0.995371 0
-12.550406 -5.524752 0.994116 0
-12.750272 -5.565789 0.995218 0
-13.751180 -5.940744 1.000444 0
-13.542059 -5.808253 0.999448 0
-13.503201 -5.745137 0.999333 0
-13.601140 -5.738107 0.999924 0
-13.561880 -5.675173 0.999807 0
-12.842354 -5.341549 0.996166 0
-12.857372 -5.303676 0.996326 0
-13.144251 -5.371967 0.997899 0
-13.349653 -5.406583 0.999054 0
-13.308855 -5.345504 0.998929 0
-13.559565 -5.395206 1.000325 0
-28.134996 -10.807735 1.076594 4
-28.607840 -10.879051 1.079275 4
-28.796068 -10.842557 1.080473 4
-30.255367 -11.265749 1.088350 5
-27.561260 -10.188003 1.074411 4
-27.856989 -10.192331 1.076175 4
-27.828457 -10.080832 1.076236 4
-53.013172 -18.716097 1.209496 44
-53.070843 -18.536623 1.210224 44
-62.654938 -21.587492 1.261440 63
-100.716354 -34.109997 1.463974 63
-100.648994 -33.704826 1.464449 63
-103.096497 -34.124565 1.478320 63
-113.924355 -37.238117 1.536933 63
-113.314774 -36.612099 1.534640 63
-116.119675 -37.070362 1.550613 63
-116.042442 -36.608639 1.551194 63
-59.085758 -17.099766 1.250037 61
-58.347633 -16.679768 1.246548 58
-58.234035 -16.247171 1.246923 100
-58.274002 -16.036837 1.247695 100
-58.364758 -15.850491 1.248723 100
-58.447151 -15.661686 1.249710 100
-58.540539 -15.475459 1.250763 58
-59.323730 -15.462708 1.255618 60
-106.215401 -26.890530 1.514804 63
-106.526535 -26.580753 1.517536 63
-106.389061 -26.180569 1.517745 63
-106.546295 -25.832657 1.519643 63
-90.997604 -21.814499 1.434314 63
-108.997124 -25.214014 1.536475 63
-30.619986 -7.386577 1.099835 5
-13.401672 -3.516676 1.003785 0
-12.883245 -3.282008 1.001224 0
-12.840126 -3.233601 1.001094 0
-12.659538 -3.157992 1.000187 0
-12.592369 -3.106085 0.999918 0
-12.473914 -3.044803 0.999358 0
-12.523797 -3.018268 0.999746 0
-12.349821 -2.947828 0.998869 0
-12.234507 -2.889408 0.998322 0
-12.299706 -2.866044 0.998799 0
-12.215475 -2.814166 0.998428 0
-12.242000 -2.778313 0.998702 0
-12.054493 -2.711817 0.997732 0
-11.973221 -2.664152 0.997369 0
-11.702475 -2.584750 0.995919 0
-11.874095 -2.575318 0.997023 0
-11.816209 -2.531104 0.996798 0
-11.619695 -2.466496 0.995769 0
-11.553204 -2.424119 0.995486 0
-11.499130 -2.378930 0.995290 0
-11.436468 -2.336369 0.995033 0
-11.349845 -2.291030 0.994635 0
-11.211472 -2.239486 0.993933 0
-11.155958 -2.201256 0.993708 0
-11.183637 -2.173880 0.993972 0
-11.100451 -2.129562 0.993595 0
-11.036554 -2.091372 0.993320 0
-10.988580 -2.053880 0.993143 0
-10.924726 -2.013407 0.992877 0
-10.844625 -1.973246 0.992508 0
-10.716453 -1.930202 0.991846 0
-10.675951 -1.893840 0.991715 0
-10.655061 -1.861228 0.991696 0
-10.677856 -1.832877 0.991938 0
-10.541074 -1.791501 0.991219 0
-10.519804 -1.759607 0.991196 0
-10.506389 -1.728535 0.991221 0
-10.401036 -1.691715 0.990686 0
-10.375523 -1.658790 0.990642 0
-10.317861 -1.625197 0.990398 0
-10.287998 -1.593948 0.990321 0
-10.166220 -1.556879 0.989686 0
-10.168043 -1.528371 0.989801 0
-10.121768 -1.498459 0.989618 0
-10.063480 -1.466787 0.989366 0
-10.081041 -1.438056 0.989583 0
-10.014463 -1.407969 0.989274 0
-10.027756 -1.380529 0.989461 0
-9.973014 -1.350188 0.989229 0
-9.998153 -1.321868 0.989495 0
-9.979121 -1.294656 0.989478 0
-9.968037 -1.266431 0.989516 0
-9.852931 -1.234064 0.988911 0
-9.849630 -1.206556 0.988997 0
-9.962208 -1.181425 0.989807 0
-9.930704 -1.154478 0.989713 0
-9.899450 -1.098790 0.989734 1
48.877605 6.064612 1.539831 15
48.919094 5.880240 1.539255 15
48.978565 5.707169 1.538948 15
49.049351 5.535295 1.538780 15
49.119560 5.363009 1.538610 15
49.109772 5.180679 1.537511 15
49.515373 3.059125 1.531017 15
49.393703 2.869020 1.528735 15
49.383038 2.687874 1.527734 15
49.399048 2.517738 1.527089 15
49.411095 2.338303 1.526362 15
49.466423 2.161541 1.526136 15
49.533127 1.985133 1.526045 15
49.614704 1.818182 1.526170 15
49.720169 1.642934 1.526529 16
49.884968 1.469860 1.527564 16
62.172421 1.835031 1.665689 33
61.874287 1.598399 1.661310 33
61.587273 1.364333 1.657075 32
59.655418 0.860964 1.633389 31
58.714024 0.620139 1.621879 30
57.923412 0.399943 1.612143 30
57.180210 0.175657 1.602924 28
56.452183 -0.043156 1.593905 27
55.799343 -0.255866 1.585757 26
55.109741 -0.464357 1.577225 25
54.415401 -0.668050 1.568669 23
53.744339 -0.866822 1.560399 22
53.116581 -1.060938 1.552638 21
52.388161 -1.250246 1.543785 20
51.743095 -1.435118 1.535884 19
51.305481 -1.608519 1.530341 18
50.539238 -1.783483 1.521146 17
49.956390 -1.956421 1.514005 16
49.372986 -2.125299 1.506881 15
48.785038 -2.290016 1.499729 14
48.196575 -2.450642 1.492594 13
47.663586 -2.608967 1.486091 12
47.142403 -2.755436 1.479769 12
46.580177 -2.913880 1.472955 12
46.105728 -3.063581 1.467154 12
45.595249 -3.200032 1.461007 12
45.076012 -3.340945 1.454753 11
44.592319 -3.480157 1.448906 11
44.100250 -3.615571 1.442986 11
43.659710 -3.750685 1.437645 11
43.210812 -3.882250 1.432230 11
42.753578 -4.010180 1.426740 10
42.316494 -4.128623 1.421511 10
41.894520 -4.253034 1.416437 10
41.472218 -4.374537 1.411374 10
41.093464 -4.496669 1.406798 10
40.667187 -4.604725 1.401744 10
40.255970 -4.718760 1.396846 9
39.855762 -4.838361 1.392058 9
39.487793 -4.950862 1.387655 9
39.103630 -5.059276 1.383090 9
38.743095 -5.167487 1.378794 9
38.406918 -5.268692 1.374792 9
38.026024 -5.369954 1.370301 9
36.937397 -5.389217 1.358221 8
36.973568 -5.531084 1.358238 8
36.994144 -5.664556 1.358110 8
36.703770 -5.767043 1.354638 8
36.349663 -5.859547 1.350494 8
36.070751 -5.959415 1.347166 8
35.783684 -6.056339 1.343761 8
35.425076 -6.141558 1.339602 7
32.775112 -7.003198 1.308567 6
123.460594 -26.254299 2.262849 45
114.767548 -29.597803 2.163643 45
115.104324 -30.548216 2.166124 45
18.034578 -6.516727 1.149302 4
17.895813 -6.553403 1.147784 12
17.733938 -6.582665 1.146028 15
17.622101 -6.625148 1.144798 18
17.502523 -6.664694 1.143492 20
17.369539 -6.692211 1.142054 18
17.234585 -6.725663 1.140593 22
17.111126 -6.761695 1.139256 21
16.983826 -6.795771 1.137882 21
16.860344 -6.830206 1.136551 21
16.740673 -6.865041 1.135263 24
16.628616 -6.901520 1.134058 15
16.512726 -6.936070 1.132816 24
16.408239 -6.973577 1.131696 24
16.288511 -7.005449 1.130420 26
16.187773 -7.042845 1.129344 26
16.075619 -7.075800 1.128153 26
15.979672 -7.110043 1.127135 26
15.871278 -7.142948 1.125988 27
15.777991 -7.180410 1.125002 11
9.570440 -5.120071 1.060390 2
9.476987 -5.132102 1.059413 2
9.394872 -5.147619 1.058555 3
9.290255 -5.154360 1.057465 3
9.245748 -5.182636 1.057003 7
9.152480 -5.192433 1.056034 8
9.078719 -5.206769 1.055270 9
9.037883 -5.235425 1.054851 11
8.937276 -5.240808 1.053811 13
8.870306 -5.258616 1.053123 13
8.807068 -5.277475 1.052475 16
8.747546 -5.297424 1.051867 17
8.702863 -5.322978 1.051415 19
8.618119 -5.329863 1.050547 22
8.566003 -5.351728 1.050021 22
8.506474 -5.370222 1.049419 23
8.439563 -5.385267 1.048742 25
8.380046 -5.403009 1.048143 23
8.320533 -5.420390 1.047546 24
8.264699 -5.438991 1.046988 27
8.212530 -5.458849 1.046470 25
8.149360 -5.473577 1.045839 23
8.097183 -5.492777 1.045323 27
8.037694 -5.508402 1.044733 27
7.989155 -5.528603 1.044258 29
7.933319 -5.545204 1.043709 29
7.877489 -5.561470 1.043160 28
7.823257 -5.573973 1.042626 28
7.766653 -5.591294 1.042074 28
7.718088 -5.609984 1.041605 27
7.658679 -5.623228 1.041025 28
7.606507 -5.639580 1.040521 28
7.554338 -5.655625 1.040018 27
7.499394 -5.667945 1.039485 27
7.447247 -5.683371 1.038985 28
7.397871 -5.701912 1.038517 29
7.349308 -5.718524 1.038057 27
7.300743 -5.734853 1.037598 8
7.256566 -5.751106 1.037183 2
7.124210 -5.806647 1.035958 35
7.050880 -5.808538 1.035244 30
6.998822 -5.821274 1.034755 30
6.951988 -5.832475 1.034315 31
6.906162 -5.849998 1.033896 30
6.854156 -5.861866 1.033410 32
6.812684 -5.879223 1.033036 31
6.775545 -5.896762 1.032706 30
6.737534 -5.915634 1.032371 32
6.696014 -5.932333 1.031999 34
6.654486 -5.948801 1.031629 30
6.623355 -5.971014 1.031370 34
6.574865 -5.983052 1.030928 30
6.536762 -6.000858 1.030597 31
6.502086 -6.020488 1.030303 35
6.467377 -6.039936 1.030011 36
6.436070 -6.061254 1.029755 36
6.415881 -6.087138 1.029615 34
6.398144 -6.116484 1.029507 70
6.346182 -6.124897 1.029035 69
6.311244 -6.181588 1.028825 9
6.308841 -6.260823 1.028974 1
6.310751 -6.302668 1.029085 2
6.309103 -6.342433 1.029159 1
6.300556 -6.377912 1.029160 1
6.322040 -6.433024 1.029487 3
6.300700 -6.458399 1.029350 5
6.291681 -6.493951 1.029351 3
6.275855 -6.525076 1.029281 3
6.256589 -6.553930 1.029175 12
6.250483 -6.591671 1.029213 33
6.234292 -6.622686 1.029144 30
6.237780 -6.667226 1.029289 32
6.247639 -6.716404 1.029506 32
6.249407 -6.755987 1.029625 32
6.247983 -6.799957 1.029729 29
6.265951 -6.857837 1.030046 28
6.284634 -6.914481 1.030368 26
6.304060 -6.969876 1.030694 26
6.325404 -7.029259 1.031050 21
6.347493 -7.087406 1.031410 20
6.380056 -7.158140 1.031901 17
6.422951 -7.234850 1.032501 13
6.478253 -7.321478 1.033242 4
6.658742 -7.547587 1.035500 0
25.411276 -21.835058 1.242779 6
24.290031 -21.128696 1.230836 5
24.562977 -21.632977 1.234768 5
25.480703 -22.654186 1.245927 6
21.803682 -20.023306 1.205842 25
21.759029 -20.123823 1.205788 8
23.168692 -21.402344 1.222036 10
22.155119 -20.721529 1.211144 97
20.988989 -19.904413 1.198504 20
21.191057 -20.206366 1.201237 8
21.474628 -20.858671 1.205874 65
52.225945 -47.483326 1.556410 38
21.100695 -21.365578 1.204594 4
24.021942 -24.100208 1.238651 6
25.015148 -25.150137 1.250680 7
24.710697 -25.046343 1.247810 6
53.248211 -51.790321 1.580773 41
52.251507 -51.189667 1.570435 40
52.570660 -51.857113 1.575598 41
52.138977 -51.826862 1.572034 41
53.449738 -53.422150 1.588785 42
51.116562 -51.569366 1.562893 40
50.896839 -51.677887 1.561595 40
51.689964 -52.797932 1.572376 41
52.157398 -53.614803 1.579375 41
51.244270 -53.090385 1.570084 41
51.010899 -53.225407 1.568827 41
50.555130 -53.157364 1.565008 40
47.100941 -53.199955 1.538939 39
46.862957 -53.329876 1.537751 39
46.701836 -53.523579 1.537430 39
46.841877 -54.026005 1.540742 39
45.684513 -53.133827 1.528166 38
45.782063 -53.607834 1.531054 38
45.649128 -53.830727 1.531114 38
44.458252 -52.873619 1.518025 37
44.253048 -53.008575 1.517172 37
44.015690 -53.106762 1.515924 37
44.669769 -54.220238 1.525872 38
44.123859 -53.969620 1.520785 37
43.739891 -53.900383 1.517725 37
44.803368 -55.513157 1.532999 39
44.125618 -55.066639 1.526066 38
43.913414 -55.199852 1.525223 38
43.798706 -55.448540 1.525635 38
43.646915 -55.654118 1.525588 38
36.567291 -56.306957 1.482624 35
36.043915 -55.964409 1.477521 35
35.876820 -56.133129 1.477444 35
35.528694 -56.037010 1.474799 35
35.309517 -56.127926 1.473990 35
35.973587 -57.532692 1.485884 36
35.004601 -56.487076 1.474198 35
35.641052 -57.869900 1.485822 36
6.972199 -21.596251 1.114025 47
6.901909 -21.631115 1.113968 11
22.188898 -58.117767 1.420021 31
21.983261 -58.187099 1.419664 31
21.963112 -58.702644 1.423053 32
21.738800 -58.730450 1.422361 32
6.784596 -22.806969 1.121416 13
6.715270 -22.843409 1.121399 49
6.644924 -22.888577 1.121441 28
6.418418 -22.534956 1.118183 37
6.312935 -22.485880 1.117457 2
6.545718 -23.317785 1.124007 10
6.507550 -23.452198 1.124792 8
6.402497 -23.410604 1.124129 2
6.321507 -23.432299 1.123991 2
6.254259 -23.491245 1.124162 8
6.988569 -25.756756 1.142389 6
6.837231 -25.607302 1.140833 9
6.754034 -25.645536 1.140816 40
4.964667 -20.830790 1.101292 20
6.577379 -25.665276 1.140364 15
6.081119 -24.516430 1.130708 8
4.508625 -20.382759 1.096671 52
4.459917 -20.462297 1.097075 52
4.758913 -21.601994 1.106034 25
4.721601 -21.731987 1.106835 27
4.645551 -21.731312 1.106598 9
4.735191 -22.265306 1.110647 23
4.559380 -21.964235 1.107990 18
4.378662 -21.639275 1.105152 8
2.495296 -15.723736 1.057616 10
2.434696 -15.708704 1.057336 15
2.387969 -15.739428 1.057423 18
2.338507 -15.770761 1.057509 3
3.672124 -20.556664 1.095433 50
3.624831 -20.649401 1.095970 24
3.823265 -21.599346 1.103321 65
3.755699 -21.634956 1.103400 70
3.684770 -21.658777 1.103388 14
3.474266 -21.168982 1.099318 26
3.398726 -21.168648 1.099126 30
3.386603 -21.407801 1.100826 10
3.287176 -21.318098 1.099935 88
3.226806 -21.362637 1.100114 54
3.169514 -21.435043 1.100505 38
2.991708 -21.026064 1.097118 36
2.937123 -21.105513 1.097572 38
2.904632 -21.278128 1.098759 44
2.858009 -21.396286 1.099520 30
2.765718 -21.307148 1.098669 30
2.695777 -21.327557 1.098670 18
3.248791 -24.085648 1.120044 26
2.289104 -20.177158 1.089392 33
2.522444 -21.555304 1.099988 48
2.446505 -21.551418 1.099811 48
2.361725 -21.487808 1.099179 12
2.671892 -23.719545 1.116227 5
2.339681 -22.897085 1.109552 28
2.258695 -22.868170 1.109198 9
1.724316 -20.506721 1.090786 22
1.645954 -20.464563 1.090344 19
1.919617 -22.313629 1.104524 19
1.842258 -22.331789 1.104538 65
2.116514 -24.318447 1.119748 36
1.644022 -22.496414 1.105471 2
1.426641 -22.106781 1.102260 38
1.481379 -24.482437 1.120121 10
1.760619 -26.988359 1.139251 6
1.320300 -24.525972 1.120264 15
0.941417 -22.381821 1.103738 6
1.448831 -26.696669 1.136721 9
0.949466 -23.575317 1.112726 47
1.489081 -28.446157 1.149932 10
0.807115 -23.750664 1.113912 7
0.546255 -22.247215 1.102343 2
0.483708 -22.355299 1.103106 2
0.945801 -27.117514 1.139439 3
0.618018 -25.720932 1.128640 8
0.531375 -25.725939 1.128618 51
0.182320 -25.715046 1.128333 28
-0.203867 -22.187319 1.101393 34
-0.568932 -19.407864 1.080147 3
-0.261983 -24.406830 1.118218 7
-0.346733 -24.368866 1.117902 18
-0.743561 -19.689228 1.082228 43
-0.821051 -19.449797 1.080390 14
-0.889251 -19.389917 1.079921 30
-0.937869 -20.887053 1.091305 26
-1.007820 -20.878654 1.091236 61
-1.074795 -20.857862 1.091075 33
-1.146306 -20.889093 1.091313 15
-1.215664 -20.891951 1.091338 33
-1.298118 -20.530813 1.088593 26
-1.426085 -18.502075 1.073149 59
-1.487930 -18.475985 1.072960 56
-1.527165 -19.317362 1.079382 37
-1.577718 -19.914734 1.083948 43
-1.643900 -19.904095 1.083886 30
-1.709387 -19.933218 1.084129 32
-1.789416 -18.754234 1.075168 33
-1.848155 -18.762835 1.075257 55
-1.913576 -18.683275 1.074679 31
-1.975214 -18.695469 1.074802 10
-2.040959 -22.423338 1.103270 6
-2.101228 -19.751181 1.082923 66
-2.166396 -19.726715 1.082776 8
-2.557093 -25.388922 1.126233 2
-2.607060 -24.055330 1.116107 5
-2.571115 -20.154919 1.086345 4
-2.760391 -23.826660 1.114498 7
-2.689180 -19.818821 1.083891 1
-2.798107 -19.229984 1.079513 27
-2.857922 -19.215252 1.079464 7
-3.053147 -21.812737 1.099453 4
-3.020391 -19.863840 1.084582 1
-3.268491 -23.022818 1.108910 15
-3.341866 -22.962362 1.108539 58
-3.991446 -30.235344 1.164665 3
-4.301865 -33.136669 1.187126 5
-3.673575 -23.280519 1.111394 9
-4.008519 -25.452860 1.128366 2
-4.098572 -25.501493 1.128870 2
-4.559451 -29.701176 1.161425 3
-4.341465 -26.262888 1.135021 3
-5.051105 -31.591211 1.176540 13
-4.217159 -22.477116 1.106150 65
-4.287025 -22.457712 1.106124 87
-4.431201 -22.393532 1.105899 6
-4.513246 -22.448479 1.106466 2
-4.455935 -20.767273 1.093674 3
-4.635438 -21.066906 1.096291 24
-4.688806 -20.934702 1.095406 7
-4.814332 -21.381811 1.099032 15
-6.090862 -29.874578 1.165582 27
-5.382459 -23.708565 1.117741 2
-5.075934 -21.169966 1.098017 1
-5.170139 -20.879971 1.096064 7
-5.682129 -23.556490 1.117298 7
-5.048009 -19.274727 1.083771 6
-5.110364 -19.256090 1.083786 22
-5.175617 -19.273260 1.084077 58
-5.251595 -19.312693 1.084564 63
-7.483860 -30.668190 1.174860 4
-5.385891 -18.974983 1.082404 16
-5.453828 -18.990551 1.082703 15
-7.391613 -28.605179 1.159299 14
-5.582317 -18.998007 1.083113 6
-5.689126 -18.882463 1.082562 1
-8.633326 -32.581478 1.192228 5
-9.072134 -34.095337 1.204681 5
-9.150141 -33.898472 1.203463 5
-6.174869 -19.591955 1.089234 39
-7.806731 -26.456833 1.144672 62
-6.270047 -19.414297 1.088228 19
-6.328718 -19.375921 1.088133 37
-6.387701 -19.353685 1.088160 68
-6.596184 -19.932932 1.093069 24
-6.697010 -19.776220 1.092260 5
-8.479650 -26.516706 1.147298 9
-8.588115 -26.588039 1.148186 97
-8.472408 -25.415201 1.139283 9
-8.551286 -25.369284 1.139229 3
-9.546824 -28.684183 1.166722 7
-7.811668 -22.034498 1.112509 4
-7.884557 -22.026667 1.112718 2
-7.968769 -22.044476 1.113157 2
-8.553000 -23.799431 1.127931 18
-8.410868 -23.016079 1.121781 7
-11.001212 -31.526773 1.192533 9
-8.837012 -23.882849 1.129607 5
-8.475762 -22.136662 1.115753 18
-8.951506 -23.408899 1.126680 81
-8.990032 -23.258577 1.125767 22
-9.119760 -23.397940 1.127278 23
-8.899909 -22.447765 1.119662 57
-12.230387 -32.064747 1.201261 5
-9.053129 -22.174469 1.118371 2
-10.475439 -25.861099 1.150276 6
-10.628640 -26.024197 1.152077 6
-9.631777 -22.656755 1.124235 2
-9.705911 -22.626215 1.124350 22
-9.132727 -20.800606 1.109121 38
-9.689702 -21.887535 1.119158 2
-9.473494 -21.084667 1.112629 4
-12.053282 -27.725464 1.170253 100
-11.032803 -24.762991 1.145151 6
-11.105576 -24.705181 1.145095 6
-10.071532 -21.798622 1.120320 2
-10.249227 -22.038403 1.122803 2
-11.406167 -24.742388 1.146780 3
-10.889472 -22.556746 1.129439 5
-10.615242 -21.687511 1.122215 64
-14.566279 -30.583008 1.201867 51
-10.596129 -21.048492 1.117832 20
-10.685071 -21.062407 1.118382 2
-10.814294 -21.167555 1.119750 11
-14.851755 -30.119278 1.200246 5
-10.755853 -20.668669 1.116134 31
-10.762148 -20.490543 1.114990 40
-15.301176 -30.316826 1.203925 20
-11.011107 -20.684990 1.117599 36
-11.076335 -20.646154 1.117696 6
-11.187075 -20.704966 1.118682 22
-11.254025 -20.669159 1.118815 45
-11.526860 -21.066643 1.122903 24
-11.593316 -21.026052 1.123008 11
-11.689219 -21.046452 1.123675 35
-17.913021 -33.332958 1.237934 7
-16.445387 -30.096272 1.208809 15
-16.450356 -29.865822 1.207362 5
-15.519893 -27.305847 1.185674 4
-15.670502 -27.372110 1.186977 8
-19.843651 -35.124771 1.260529 16
-19.964108 -35.079563 1.260960 8
-15.826540 -27.014530 1.185653 15
-15.937986 -27.004881 1.186262 3
-19.819292 -33.964298 1.253115 15
-20.234865 -34.453205 1.258680 8
-15.515428 -25.595766 1.174935 3
-20.541525 -34.458015 1.260591 8
-29.710999 -50.585617 1.416619 24
-16.449629 -26.655020 1.187236 3
-16.544268 -26.417233 1.186378 3
-17.034796 -27.062578 1.193404 4
-17.145725 -27.044508 1.194000 4
-16.965813 -25.928783 1.186138 3
-17.230852 -26.170630 1.189311 7
-19.944227 -30.419123 1.232348 12
-19.916798 -30.145082 1.230547 12
-20.247160 -30.462893 1.234613 18
-21.193148 -31.749233 1.248477 14
-20.001265 -29.607239 1.227954 5
-16.989101 -24.640467 1.178703 7
-12.412054 -17.060253 1.103688 21
-12.454842 -17.003727 1.103658 21
-12.545788 -17.020571 1.104383 16
-22.444708 -31.573326 1.256032 14
-24.293085 -34.085312 1.283190 8
-22.641766 -31.406693 1.256478 29
-20.037819 -27.178669 1.214347 4
-24.143923 -32.424572 1.272875 8
-23.868454 -31.589952 1.266303 7
-22.045750 -28.836290 1.237986 6
-26.217319 -34.378822 1.298665 9
-23.907532 -30.327545 1.259796 14
-21.933355 -27.493324 1.229954 5
-22.878872 -28.548563 1.242651 6
-23.557602 -29.238344 1.251413 20
-22.072870 -27.105618 1.228976 11
-25.927511 -31.891344 1.283307 8
-23.696905 -28.822514 1.250315 6
-21.437569 -25.740051 1.217036 4
-25.352987 -30.507139 1.271753 7
-26.754404 -32.075710 1.290636 8
-22.883726 -27.032932 1.234861 5
-28.105427 -33.294106 1.307360 9
-27.968325 -32.885044 1.304227 9
-23.899887 -27.702045 1.246211 6
-27.633945 -32.052185 1.297431 9
-26.127949 -30.022268 1.275409 23
-27.816797 -31.821978 1.297752 9
-24.802486 -27.644644 1.253154 13
-28.597084 -31.856775 1.304214 9
-25.148390 -27.679089 1.256130 13
-25.896912 -28.347862 1.265432 7
-30.665812 -33.571453 1.329287 10
-26.829197 -28.821054 1.275336 7
-28.541838 -30.541061 1.297546 8
-25.358759 -26.818998 1.253826 12
-26.968000 -28.394033 1.274515 7
-9.665401 -9.365380 1.042431 0
-9.657729 -9.301737 1.042077 0
-9.555754 -9.134446 1.040460 0
-9.449970 -8.965052 1.038803 0
-9.477656 -8.938998 1.038922 0
-9.506629 -8.911538 1.039047 0
-10.262530 -9.291757 1.047230 0
-10.360816 -9.334825 1.048272 0
-10.318639 -9.235325 1.047486 0
-10.632835 -9.486300 1.051299 1
-10.524421 -9.149624 1.048962 0
-10.546936 -9.114318 1.049022 0
-10.592619 -9.100876 1.049380 0
-10.629542 -9.079022 1.049626 0
-10.684014 -9.073329 1.050097 0
-10.647341 -8.983357 1.049414 0
-10.539608 -8.407358 1.046269 0
-10.642489 -8.441154 1.047351 0
-9.965255 -7.811464 1.038768 0
-9.976701 -7.773281 1.038741 0
-10.030841 -7.771134 1.039243 0
-10.053183 -7.744466 1.039362 0
-10.076605 -7.716314 1.039487 0
-10.133897 -7.716044 1.040031 0
-10.200576 -7.723050 1.040689 0
-10.161808 -7.643973 1.040055 0
-10.209795 -7.635520 1.040487 0
-10.230861 -7.602888 1.040582 0
-10.260053 -7.579091 1.040786 0
-10.289178 -7.555171 1.040990 0
-11.044572 -8.102214 1.050040 0
-11.141867 -8.127063 1.051062 0
-11.324935 -8.217304 1.053124 0
-11.683361 -8.440158 1.057306 1
-11.588235 -8.314286 1.055992 1
-11.754074 -8.386839 1.057837 1
-11.882133 -8.429529 1.059222 1
-11.949647 -8.426037 1.059877 1
-12.181314 -8.543392 1.062507 1
-12.362318 -8.621367 1.064524 1
-60.045280 -43.288769 1.636644 39
-54.743053 -39.174690 1.572294 34
-60.470520 -43.007858 1.640090 39
-29.225618 -20.419956 1.265566 5
-29.169165 -20.229982 1.264483 5
-29.193487 -20.105156 1.264392 5
-29.200861 -19.968964 1.264104 5
-29.233936 -19.851151 1.264129 5
-29.269817 -19.735601 1.264193 5
-29.305340 -19.634068 1.264293 11
-29.360123 -19.524900 1.264573 11
-29.427866 -19.431513 1.265030 11
-29.502079 -19.349331 1.265585 5
-29.625937 -19.292938 1.266715 5
-30.070734 -19.446619 1.271639 5
-30.701263 -19.717495 1.278751 6
-31.155993 -19.869095 1.283782 6
-184.692017 -104.350174 3.064345 45
-12.924033 -6.654078 1.066196 1
-13.096765 -6.694214 1.068128 1
-13.127204 -6.660870 1.068418 1
-13.174435 -6.638314 1.068905 1
-13.491098 -6.747364 1.072498 1
-13.019738 -6.464492 1.067008 1
-12.859067 -6.338034 1.065103 1
-12.915063 -6.222124 1.065598 1
-13.003305 -6.032758 1.066404 1
-13.020735 -5.994319 1.066567 1
-13.072215 -5.878640 1.067059 1
-13.272517 -5.919683 1.069327 1
-12.954728 -5.645778 1.065604 0
-13.558513 -5.756381 1.072461 1
-13.759459 -5.793242 1.074746 1
-13.776047 -5.752165 1.074920 1
-13.249772 -5.451985 1.068864 1
-13.265172 -5.412690 1.069030 1
-13.739413 -5.550469 1.074453 1
-13.725262 -5.498047 1.074283 1
-13.692181 -5.438709 1.073899 1
-14.074679 -5.535159 1.078275 1
-28.018854 -10.646004 1.237955 3
-28.221317 -10.616985 1.240273 3
-28.021479 -10.440978 1.237988 3
-28.055828 -10.345542 1.238389 3
-28.163628 -10.281226 1.239635 3
-99.268440 -35.087894 2.054005 45
-99.262032 -34.704964 2.054002 45
-53.099949 -18.518028 1.525324 19
-62.616951 -21.540794 1.634398 33
-90.388573 -30.598902 1.952640 57
-103.011360 -34.431450 2.097388 45
-102.507668 -33.876072 2.091764 45
-103.664597 -33.861927 2.105185 45
-112.492905 -36.288383 2.206561 45
-115.285530 -36.744526 2.238787 45
-118.999489 -37.019653 2.281862 45
-59.033325 -17.054209 1.595214 28
-58.846123 -16.787676 1.593252 28
-58.553188 -16.282053 1.590286 55
-58.633167 -16.091755 1.591417 55
-58.704765 -15.899052 1.592461 55
-58.771839 -15.705031 1.593461 55
-58.861500 -15.516653 1.594730 55
-59.056656 -15.365074 1.597210 28
-59.506260 -15.264878 1.602644 28
-91.463203 -22.519182 1.971714 56
-91.164032 -22.118351 1.968696 56
-91.221542 -21.803352 1.969805 56
-89.803749 -20.827892 1.954352 54
-90.067581 -20.564608 1.957875 54
-90.193871 -20.269871 1.959823 54
-13.446609 -3.476597 1.072427 0
-13.286828 -3.401124 1.070644 0
-13.154076 -3.332480 1.069174 0
-12.997469 -3.260003 1.067427 0
-13.146412 -3.249847 1.069222 0
-12.710630 -3.123812 1.064238 0
-12.753253 -3.093227 1.064802 0
-12.379210 -2.983560 1.060530 0
-12.570831 -2.981617 1.062826 0
-12.369051 -2.906757 1.060553 0
-12.324383 -2.861421 1.060107 0
-12.393786 -2.836387 1.060988 0
-12.179287 -2.762307 1.058566 0
-12.185306 -2.726764 1.058712 0
-12.009637 -2.661427 1.056740 0
-12.015304 -2.626477 1.056883 0
-12.005043 -2.589029 1.056842 0
-11.796701 -2.523087 1.054483 0
-11.501016 -2.445489 1.051101 0
-11.569497 -2.419920 1.051984 0
-11.562445 -2.384812 1.051982 0
-11.503995 -2.340945 1.051382 0
-11.726542 -2.337286 1.054075 0
-11.314712 -2.248415 1.049327 0
-11.318942 -2.215894 1.049459 0
-11.283368 -2.178405 1.049126 0
-11.196029 -2.134921 1.048183 0
-11.072563 -2.089436 1.046811 0
-10.885495 -2.035951 1.044693 0
-10.928740 -2.009334 1.045288 0
-10.920206 -1.976881 1.045274 0
-10.871772 -1.940372 1.044790 0
-10.855030 -1.907404 1.044681 0
-10.730675 -1.864171 1.043299 0
-10.677813 -1.828496 1.042763 0
-10.632640 -1.795421 1.042313 0
-10.559580 -1.758748 1.041537 0
-10.538188 -1.726885 1.041375 0
-10.528759 -1.694640 1.041359 0
-10.435340 -1.657629 1.040341 0
-10.405598 -1.625880 1.040081 0
-10.367657 -1.595260 1.039718 0
-10.297771 -1.561361 1.038980 0
-10.271752 -1.529224 1.038769 0
-10.213583 -1.496870 1.038170 0
-10.207209 -1.467760 1.038190 0
-10.164781 -1.436866 1.037780 0
-10.138218 -1.407033 1.037560 0
-10.119539 -1.377743 1.037435 0
-10.028762 -1.347071 1.036439 0
-10.013918 -1.317049 1.036366 0
-9.990919 -1.288269 1.036190 0
-9.943748 -1.261703 1.035713 0
-9.968568 -1.233228 1.036120 0
-9.961297 -1.203836 1.036141 0
-9.953892 -1.175888 1.036156 0
-9.946342 -1.150768 1.036160 0
-10.154735 -1.124302 1.038797 0
-10.203042 -1.096283 1.039493 0
-9.923290 -1.064639 1.036214 0
-9.915397 -1.036965 1.036228 0
65.722481 10.794587 2.151935 44
65.842171 10.571595 2.152373 44
65.939415 10.356470 2.152506 44
66.026093 10.127013 2.152377 45
66.161285 9.892788 2.153042 45
92.984665 13.847409 2.628115 63
49.731033 3.265825 1.836185 17
49.474583 3.063718 1.830760 17
49.417431 2.869600 1.828755 17
49.538605 2.345417 1.828053 17
49.605934 2.168949 1.828287 17
49.628742 1.989493 1.827764 17
49.686867 1.811885 1.827858 17
49.712425 1.632270 1.827403 17
66.126236 1.532932 2.104562 43
66.158325 1.307826 2.104060 43
61.272129 -1.951969 2.007666 35
36.915112 -5.380739 1.585630 8
36.890934 -5.522419 1.584935 8
122.703842 -26.535522 2.994058 63
109.220314 -31.120176 2.772096 63
108.699265 -31.810148 2.764014 63
17.786852 -6.668938 1.266137 18
17.628706 -6.697962 1.263590 16
17.285702 -6.744940 1.258066 1
17.273266 -6.814527 1.257933 1
17.103708 -6.836336 1.255211 3
16.972456 -6.868814 1.253125 3
16.834599 -6.894778 1.250929 3
16.702349 -6.928827 1.248837 5
16.586376 -6.963618 1.247013 14
16.475239 -6.995679 1.245267 17
16.332638 -7.020321 1.243009 22
16.235651 -7.059129 1.241507 26
16.127241 -7.093522 1.239820 29
16.022600 -7.128515 1.238199 26
15.910373 -7.160258 1.236455 29
15.813258 -7.196533 1.234964 29
15.713419 -7.227791 1.233425 32
15.612481 -7.261528 1.231876 34
15.519053 -7.297336 1.230455 31
15.414310 -7.328480 1.228849 28
15.332099 -7.367223 1.227619 13
9.349854 -5.221441 1.128437 9
9.301410 -5.248419 1.127726 1
8.946843 -5.246955 1.122123 0
8.991640 -5.308399 1.122970 0
8.924514 -5.326207 1.121956 0
8.768221 -5.308086 1.119458 0
8.742812 -5.339294 1.119137 0
8.680256 -5.355339 1.118198 0
8.594749 -5.363766 1.116882 0
8.549200 -5.390322 1.116241 0
8.494063 -5.408307 1.115430 0
8.399859 -5.456607 1.114098 12
8.329989 -5.467346 1.113045 20
8.270389 -5.484244 1.112170 29
8.203472 -5.497566 1.111174 31
8.135804 -5.512245 1.110174 31
8.091645 -5.532770 1.109556 34
8.043025 -5.553159 1.108871 32
7.998025 -5.574923 1.108249 36
7.931991 -5.584669 1.107267 35
7.882545 -5.605888 1.106579 35
7.833077 -5.626807 1.105893 36
7.788820 -5.645719 1.105282 33
7.730104 -5.657504 1.104428 33
7.674211 -5.672372 1.103629 33
7.624714 -5.692080 1.102948 28
7.579614 -5.711574 1.102335 27
7.531732 -5.727376 1.101668 22
7.475865 -5.740999 1.100875 18
7.410126 -5.747261 1.099907 15
7.360633 -5.765442 1.099231 12
7.312795 -5.780074 1.098569 10
7.241970 -5.786674 1.097533 14
7.189795 -5.800447 1.096807 21
7.120764 -5.803033 1.095785 28
7.078427 -5.823336 1.095237 35
7.029850 -5.838051 1.094575 39
6.992691 -5.856601 1.094101 37
6.951145 -5.874614 1.093562 39
6.896396 -5.883168 1.092789 42
6.857500 -5.904154 1.092306 40
6.813289 -5.917956 1.091715 37
6.771717 -5.935004 1.091180 40
6.737097 -5.955757 1.090765 43
6.695489 -5.972369 1.090232 41
6.654739 -5.987240 1.089705 43
6.615709 -6.006906 1.089228 44
6.577524 -6.024856 1.088757 47
6.550539 -6.047191 1.088472 30
6.418626 -6.089002 1.086767 0
6.418870 -6.127263 1.086963 0
6.386449 -6.149737 1.086610 0
6.320830 -6.149595 1.085668 0
6.402307 -6.238353 1.087293 0
6.351052 -6.244973 1.086595 2
6.341996 -6.281947 1.086661 1
6.326031 -6.314632 1.086608 1
6.347910 -6.369558 1.087214 6
6.316686 -6.388535 1.086875 13
6.304603 -6.421894 1.086887 27
6.289991 -6.451595 1.086845 45
6.294348 -6.495924 1.087154 53
6.284213 -6.532934 1.087220 58
6.291497 -6.579637 1.087587 59
6.289589 -6.618293 1.087782 59
6.290823 -6.659248 1.088036 56
6.296492 -6.707689 1.088397 57
6.297335 -6.748804 1.088650 53
6.305831 -6.799736 1.089069 51
6.318357 -6.851653 1.089553 48
6.333888 -6.906034 1.090094 46
6.363214 -6.968410 1.090875 37
6.367364 -7.017663 1.091234 41
6.396076 -7.080489 1.092014 37
6.437404 -7.152978 1.093028 36
6.466496 -7.221676 1.093854 24
6.528475 -7.312933 1.095270 15
24.676739 -21.131559 1.428423 11
24.549046 -21.181015 1.427035 5
26.320448 -22.690304 1.460608 6
24.172859 -21.192242 1.422091 5
26.551474 -23.176815 1.466912 7
22.100143 -19.857595 1.385670 13
22.009262 -19.915148 1.384858 4
22.120813 -20.270235 1.388750 9
21.931900 -20.256588 1.386181 9
21.438736 -19.995232 1.377924 25
21.390963 -20.092096 1.377980 12
21.206797 -20.077175 1.375483 8
21.528481 -20.479240 1.382497 13
21.426615 -20.533094 1.381566 13
20.736597 -20.086403 1.369479 82
20.577969 -20.094753 1.367504 8
25.652142 -24.555834 1.464849 7
25.645742 -24.717287 1.465949 7
21.044268 -21.323658 1.382502 4
24.955214 -24.937124 1.458866 7
24.889465 -25.047058 1.458878 7
24.748951 -25.089941 1.457453 7
52.546143 -50.796616 2.000528 53
52.637043 -51.212627 2.004884 53
52.470329 -51.411182 2.004384 53
52.361423 -51.663715 2.005033 54
52.052967 -51.747662 2.001925 53
52.390343 -52.404545 2.011258 54
51.167480 -51.601639 1.989990 52
50.811546 -51.615372 1.985793 52
51.161694 -52.289982 1.995468 53
52.032543 -53.495087 2.015724 55
51.270935 -53.136169 2.003672 54
51.023743 -53.239567 2.001571 54
50.613968 -53.199020 1.996364 53
46.995598 -53.089443 1.953252 49
46.865440 -53.315674 1.953738 49
46.734303 -53.541630 1.954226 49
46.745819 -53.923199 1.957715 50
45.893990 -53.364182 1.943161 48
45.928860 -53.770817 1.947165 48
45.701580 -53.890282 1.945688 48
44.505245 -52.927460 1.923721 46
44.236057 -52.990864 1.921304 46
44.103207 -53.188854 1.921626 46
44.517040 -54.028870 1.933814 47
44.063725 -53.883347 1.927515 47
43.734997 -53.877464 1.923871 46
44.840416 -55.538460 1.951181 49
44.221527 -55.199570 1.941347 48
43.920975 -55.229351 1.938383 48
43.857639 -55.539295 1.940592 48
43.705524 -55.745079 1.940893 48
43.516788 -55.907364 1.940410 49
36.321678 -55.956135 1.868517 41
35.982166 -55.856045 1.864280 41
35.713497 -55.876232 1.861966 41
35.329643 -55.746452 1.857033 40
35.975574 -57.091915 1.877054 42
36.161175 -57.791748 1.886085 44
35.258286 -56.889706 1.868328 42
34.921776 -56.805962 1.864373 41
22.774813 -58.411118 1.787707 34
22.525600 -58.383240 1.785786 34
22.180195 -58.125973 1.780507 33
22.081257 -58.449780 1.783797 33
6.901584 -22.671398 1.257023 36
6.871982 -22.804516 1.258459 49
6.793712 -22.818979 1.258163 34
6.812505 -23.087263 1.261544 27
6.830041 -23.368641 1.265083 5
6.566929 -23.385180 1.263758 8
6.501231 -23.435902 1.264007 22
7.093519 -25.511953 1.292921 3
6.930520 -25.597393 1.293082 9
5.004759 -20.934034 1.224850 8
4.877393 -20.792147 1.222415 82
4.790582 -20.775614 1.221759 36
4.936501 -21.431616 1.230707 38
4.857310 -21.420383 1.230165 27
5.900651 -25.064972 1.281099 15
5.697658 -24.739965 1.276018 45
5.603827 -24.732412 1.275469 15
4.506251 -21.543442 1.229995 65
4.415459 -21.517527 1.229239 42
2.547237 -15.719329 1.147172 8
2.488890 -15.712161 1.146812 15
2.438736 -15.731569 1.146830 18
2.393070 -15.766139 1.147064 15
3.728574 -20.497198 1.213170 37
3.951612 -21.519585 1.227170 51
3.852737 -21.431555 1.225620 10
3.754231 -21.355646 1.224231 36
3.926017 -22.520252 1.239851 4
5.057303 -26.995949 1.301853 7
4.537003 -25.417130 1.279492 60
3.308494 -21.385614 1.222808 40
3.136849 -21.012764 1.217344 42
3.737729 -24.033373 1.258588 5
3.118162 -21.842262 1.227986 57
3.036041 -21.821127 1.227416 6
3.893754 -25.740847 1.281252 9
2.798397 -21.462502 1.221929 42
2.679358 -21.288992 1.219267 52
2.640499 -21.429199 1.220959 28
2.598140 -21.557663 1.222490 40
2.541749 -21.660315 1.223643 12
2.423154 -21.461037 1.220666 72
2.891011 -24.411989 1.260653 24
2.812613 -24.424162 1.260575 30
3.036572 -25.954115 1.281263 15
2.294129 -22.647844 1.235795 18
2.258413 -22.887213 1.238832 23
2.419320 -24.143362 1.255765 42
2.279934 -24.271244 1.257070 18
2.199462 -24.289978 1.257107 70
2.104282 -24.225723 1.256018 34
1.696181 -22.352207 1.230314 22
1.601934 -22.270969 1.229014 27
1.513099 -22.172319 1.227502 21
1.441962 -22.224533 1.228027 6
1.353426 -22.121277 1.226464 21
1.280367 -22.136806 1.226510 46
1.284060 -22.658239 1.233420 65
1.247341 -23.444052 1.243758 5
0.999755 -22.283518 1.227883 6
0.926608 -22.301783 1.227987 19
0.859742 -22.367367 1.228736 10
1.336371 -26.568760 1.285411 3
1.264312 -26.715153 1.287234 13
0.662488 -22.610498 1.231633 13
0.577599 -22.540236 1.230564 4
0.782316 -24.956675 1.263061 27
0.825400 -26.859653 1.288489 3
0.366094 -23.381145 1.241470 42
0.296169 -23.468845 1.242551 16
0.718671 -28.499359 1.310236 10
0.064685 -22.659771 1.231469 6
-0.001852 -22.806595 1.233358 18
0.176496 -25.697979 1.272200 9
0.140646 -26.247065 1.279509 12
-0.246686 -24.556664 1.256549 5
-0.571551 -21.143551 1.210593 5
-0.640722 -21.164375 1.210825 5
-0.724321 -20.961441 1.208053 71
-0.848213 -21.177303 1.210882 3
-0.918792 -21.177206 1.210849 15
-0.841187 -24.212978 1.251608 18
-1.078353 -20.780737 1.205474 35
-1.202379 -21.138382 1.210246 1
-1.426781 -18.573061 1.175774 4
-1.529521 -19.348310 1.186189 37
-1.580817 -19.921648 1.193897 34
-1.631178 -20.758774 1.205153 24
-1.699651 -20.787935 1.205561 33
-1.765629 -20.752827 1.205108 29
-1.852015 -18.665787 1.177090 4
-1.916310 -18.746202 1.178197 6
-1.972700 -20.446226 1.201072 80
-2.040665 -20.522196 1.202129 91
-2.103361 -19.558037 1.189208 4
-2.185036 -21.429317 1.214410 3
-2.274452 -22.876301 1.233919 47
-2.375684 -20.246590 1.198663 14
-2.471617 -21.496716 1.215546 7
-2.539268 -21.351009 1.213653 9
-2.677137 -19.317816 1.186493 6
-2.723519 -18.883734 1.180720 70
-2.784812 -18.857124 1.180440 37
-2.847446 -18.862267 1.180592 23
-2.904422 -18.755342 1.179236 8
-3.192013 -22.893557 1.235168 6
-3.270078 -22.985313 1.236516 54
-3.617963 -25.977337 1.277185 3
-3.791000 -25.949474 1.277108 6
-4.157495 -29.652216 1.327359 3
-4.244843 -29.485020 1.325284 11
-3.831547 -22.387693 1.229505 27
-3.913034 -22.501019 1.231187 6
-3.996480 -22.585810 1.232496 2
-4.215980 -24.079657 1.252933 15
-4.140810 -22.471474 1.231286 17
-4.215672 -22.463869 1.231355 100
-4.289232 -22.444073 1.231264 25
-4.960238 -27.045794 1.294262 3
-4.309547 -20.683018 1.207837 3
-4.375695 -20.683191 1.208010 29
-4.588939 -21.837713 1.223942 6
-5.128137 -25.442225 1.273352 11
-5.213884 -25.435122 1.273495 20
-5.296940 -25.407898 1.273369 17
-4.807652 -21.256281 1.216827 3
-5.455539 -25.333414 1.272843 2
-4.970013 -21.431154 1.219630 8
-5.612098 -25.249989 1.272213 20
-5.077315 -21.156340 1.216322 16
-5.152094 -21.197395 1.217104 15
-5.210227 -21.086971 1.215832 16
-5.173081 -20.420410 1.206900 17
-5.056815 -19.308586 1.191825 30
-5.110044 -19.254980 1.191300 7
-6.130940 -24.716406 1.266878 44
-6.603299 -26.403589 1.290789 3
-5.382416 -18.974483 1.188590 30
-5.415737 -18.793072 1.186334 96
-5.504652 -18.918417 1.188320 48
-5.575708 -18.949221 1.189002 16
-5.710600 -18.987137 1.190037 6
-5.918069 -19.662960 1.199719 16
-5.798892 -18.772392 1.187595 96
-5.861986 -18.779238 1.187949 24
-7.651180 -26.555721 1.296940 16
-7.734131 -26.508526 1.296685 26
-10.193780 -36.318081 1.435074 7
-7.184774 -23.006844 1.248741 4
-7.250307 -22.941935 1.248199 2
-8.993717 -29.799650 1.345077 4
-10.662404 -36.131851 1.434811 7
-8.070690 -25.244583 1.281829 3
-8.586408 -26.545464 1.301101 19
-8.707449 -26.662783 1.303207 10
-7.563973 -21.686090 1.233508 4
-7.775624 -22.192299 1.241081 4
-7.837762 -22.129604 1.240597 2
-7.922203 -22.147610 1.241268 2
-8.507668 -23.627798 1.263277 5
-10.009779 -28.485165 1.333293 7
-8.850039 -24.207039 1.272510 5
-8.068617 -21.314058 1.231426 6
-8.424592 -22.234423 1.245091 7
-8.349570 -21.470942 1.234993 38
-8.633099 -22.136616 1.245035 2
-8.934350 -22.300575 1.248863 4
-9.498284 -23.761440 1.270589 8
-9.594070 -23.784451 1.271455 8
-9.184937 -22.310163 1.250491 2
-11.224539 -28.042162 1.334731 3
-10.500221 -25.092897 1.293414 3
-9.059131 -20.791599 1.230761 16
-9.111803 -20.721693 1.230232 4
-9.203836 -20.760622 1.231310 2
-9.247779 -20.667810 1.230449 8
-9.328890 -20.676119 1.231087 16
-9.920705 -22.038956 1.251825 40
-9.984057 -21.985014 1.251586 21
-10.050660 -21.950956 1.251618 45
-12.302730 -27.529594 1.335398 7
-10.603870 -22.920259 1.267285 5
-10.325432 -22.006779 1.254191 66
-10.176951 -21.424414 1.246049 13
-10.107051 -21.047253 1.240965 92
-12.715160 -26.967907 1.331446 7
-14.380560 -30.706707 1.388725 10
-10.450281 -20.900507 1.241664 13
-10.529397 -20.884102 1.242050 40
-10.589133 -20.832190 1.241871 13
-10.613331 -20.699495 1.240462 6
-10.675307 -20.663506 1.240499 6
-11.585792 -22.521719 1.269608 7
-11.655396 -22.486164 1.269717 10
-10.761429 -20.309389 1.236939 89
-10.855408 -20.328043 1.237891 40
-11.565472 -21.148552 1.253189 7
-15.631858 -29.436306 1.383171 14
-15.066442 -27.777071 1.359168 4
-16.347580 -30.142309 1.397257 5
-16.360136 -29.912968 1.394693 5
-15.324019 -27.376635 1.356652 4
-15.426835 -27.351343 1.357226 4
-15.580856 -27.425243 1.359384 4
-15.614946 -27.277092 1.357972 4
-19.999624 -35.424015 1.489035 8
-19.858294 -34.865742 1.481428 8
-15.835350 -26.803579 1.354473 8
-17.605961 -29.861214 1.404768 27
-16.326283 -27.060276 1.361728 4
-16.339243 -26.668907 1.357442 16
-16.844593 -27.132395 1.367225 4
-19.462027 -31.500898 1.439927 6
-19.616316 -31.522881 1.441595 13
-16.808428 -26.252600 1.357125 4
-16.875643 -25.966536 1.354608 32
-16.513458 -25.167145 1.342409 7
-16.579000 -25.085548 1.342143 11
-16.708765 -25.109610 1.343650 7
-16.845161 -25.143276 1.345331 67
-17.100136 -25.187523 1.348289 3
-17.160894 -25.088022 1.347813 11
-21.643339 -31.963903 1.465809 7
-21.833126 -32.023174 1.468323 7
-22.068781 -31.937922 1.469766 22
-22.168818 -31.844078 1.469776 7
-23.983269 -34.375175 1.514878 8
-22.348089 -31.649220 1.469535 22
-22.442867 -31.571602 1.469687 7
-24.586206 -34.521198 1.522566 9
-20.066809 -27.607012 1.403797 5
-20.231670 -27.659176 1.406047 5
-23.941339 -32.358459 1.493422 8
-21.825638 -29.137726 1.438016 6
-21.062046 -27.855377 1.416794 11
-22.819780 -30.114265 1.458561 13
-22.988626 -30.145653 1.460688 7
-26.191650 -34.344597 1.537658 9
-22.282026 -28.532515 1.436775 18
-20.988073 -26.599249 1.403298 15
-21.118284 -26.597010 1.404702 15
-22.785606 -28.626139 1.443225 6
-20.928518 -25.968855 1.396373 4
-23.495075 -29.137115 1.456135 6
-22.568171 -27.538904 1.430093 5
-22.670759 -27.489466 1.430764 11
-24.528454 -29.671928 1.472960 7
-24.618406 -29.570354 1.472995 7
-25.598499 -30.594812 1.494039 7
-23.341446 -27.575502 1.439216 6
-23.527107 -27.615870 1.441735 6
-22.129528 -25.721273 1.407560 15
-28.682148 -33.299309 1.555375 10
-23.276920 -26.568954 1.428912 5
-28.733778 -32.457451 1.548101 9
-24.869728 -27.536201 1.456720 6
-24.705111 -27.160294 1.451301 12
-23.728033 -25.868477 1.427772 5
-23.859566 -25.843508 1.429128 5
-28.629782 -31.037985 1.533849 9
-28.702417 -30.909056 1.533566 9
-31.021511 -33.277576 1.583076 11
-24.718500 -26.095158 1.441831 6
-25.615496 -26.722298 1.458423 19
-27.370148 -28.439280 1.495242 22
-25.832510 -26.597771 1.460013 6
-9.664118 -9.190870 1.106751 0
-9.655555 -9.122025 1.106046 0
-9.743020 -9.160349 1.107473 0
-9.307928 -8.646759 1.097579 0
-10.225076 -9.428858 1.115863 0
-10.341669 -9.313198 1.116388 0
-10.228256 -9.143533 1.113520 0
-10.399358 -9.254761 1.116653 0
-10.540370 -9.108408 1.117314 0
-10.642804 -9.145540 1.118964 0
-10.596623 -9.048588 1.117584 0
-10.581994 -8.976238 1.116820 0
-11.387961 -9.665730 1.132974 0
-11.565653 -9.767863 1.136147 0
-11.842772 -9.710770 1.139453 0
-10.650389 -8.601703 1.114868 0
-10.688866 -8.581964 1.115247 0
-10.632199 -8.482486 1.113732 0
-10.627845 -8.426258 1.113257 0
-10.041830 -7.874606 1.101133 0
-10.068759 -7.849077 1.101319 0
-9.853719 -7.620163 1.096681 0
-10.146941 -7.818205 1.102182 0
-10.263012 -7.866277 1.104144 0
-10.540127 -8.045751 1.109293 0
-10.508842 -7.970354 1.108323 0
-10.551686 -7.955726 1.108823 0
-10.537261 -7.897222 1.108213 0
-10.984739 -8.208693 1.116691 0
-10.925220 -8.110117 1.115171 0
-11.072385 -8.175514 1.117708 0
-11.133190 -8.169333 1.118532 0
-11.279348 -8.229052 1.121022 0
-11.456467 -8.313866 1.124125 0
-11.612060 -8.380508 1.126801 0
-11.760569 -8.443015 1.129351 0
-11.919170 -8.511847 1.132089 0
-12.044456 -8.551558 1.134160 0
-12.306221 -8.688988 1.138841 0
-47.006119 -34.278305 1.806841 23
-54.019852 -39.181255 1.940156 37
-54.275585 -39.088909 1.943313 37
-54.190971 -38.749210 1.939956 37
-60.434517 -42.952934 2.057663 50
-60.710819 -42.841522 2.061047 50
-71.705788 -47.795914 2.253973 63
-71.830544 -47.544548 2.254419 63
-109.711533 -71.702011 2.961387 63
-13.185809 -6.737596 1.142179 0
-13.277047 -6.734673 1.143634 0
-13.204003 -6.648593 1.142127 0
-13.101856 -6.548831 1.140100 0
-13.243019 -6.570238 1.142462 0
-13.352132 -6.574905 1.144245 0
-13.471239 -6.586117 1.146217 0
-13.249105 -6.429904 1.142051 0
-13.366343 -6.435082 1.143976 0
-13.410489 -6.407326 1.144600 0
-13.017148 -6.172319 1.137379 0
-13.074083 -6.154262 1.138249 0
-13.051957 -6.097209 1.137698 0
-13.250722 -6.143408 1.141107 0
-13.086255 -6.021864 1.138019 0
-13.512591 -6.165927 1.145482 0
-13.120898 -5.944346 1.138348 0
-13.046451 -5.865333 1.136881 0
-13.154999 -5.866588 1.138678 0
-13.146130 -5.816554 1.138386 0
-13.188557 -5.788594 1.139009 0
-13.595708 -5.914366 1.146117 0
-13.612719 -5.873859 1.146288 0
-13.651761 -5.842471 1.146854 0
-13.691561 -5.808828 1.147429 0
-13.729610 -5.779053 1.147987 0
-13.746148 -5.738080 1.148160 0
-13.416913 -5.559619 1.142212 0
-13.644817 -5.603230 1.146135 0
-13.902975 -5.656919 1.150592 0
-13.628012 -5.503119 1.145621 0
-28.038229 -10.850664 1.399980 39
-28.064886 -10.756915 1.400231 39
-28.121218 -10.674191 1.401011 32
-28.177288 -10.591192 1.401792 25
-28.285751 -10.526963 1.403503 10
-99.657661 -35.571556 2.660588 63
-99.913551 -35.278008 2.664414 63
-53.036472 -18.676937 1.838490 20
-53.159058 -18.529612 1.840332 21
-62.687191 -21.554329 2.007635 36
-102.451195 -34.618698 2.706575 63
-103.450867 -34.540142 2.723540 63
-103.645081 -34.230862 2.726419 63
-102.426315 -33.425766 2.704440 63
-118.940613 -36.959827 2.992382 63
-58.711544 -16.954489 1.933963 28
-59.156067 -16.864340 1.941609 28
-59.102993 -16.635193 1.940546 28
-59.160999 -16.436811 1.941443 28
-59.519791 -16.318399 1.947621 29
-59.561222 -16.114481 1.948252 29
-59.582569 -15.905455 1.948544 29
-59.610912 -15.698438 1.948970 29
-59.568687 -15.473875 1.948174 28
-90.828842 -22.008492 2.495466 63
-89.608658 -21.075480 2.474139 63
-90.009186 -20.199539 2.481355 63
-13.387802 -3.460098 1.139455 0
-13.282755 -3.396428 1.137631 0
-13.122574 -3.322172 1.134843 0
-12.992976 -3.257359 1.132592 0
-12.890526 -3.198923 1.130818 0
-12.799953 -3.141621 1.129256 0
-12.713400 -3.083866 1.127767 0
-12.582994 -3.020457 1.125510 0
-12.480141 -2.961259 1.123739 0
-12.443565 -2.916803 1.123130 0
-12.351683 -2.862813 1.121554 0
-12.259552 -2.809487 1.119974 0
-12.190526 -2.762647 1.118800 0
-12.073970 -2.708351 1.116792 0
-12.016939 -2.661071 1.115835 0
-11.939674 -2.612806 1.114523 0
-11.921464 -2.574386 1.114249 0
-11.780554 -2.517351 1.111821 0
-11.678922 -2.467233 1.110084 0
-11.668082 -2.431128 1.109944 0
-11.593758 -2.386095 1.108690 0
-11.526930 -2.344361 1.107566 0
-11.448265 -2.299824 1.106237 0
-11.381302 -2.257422 1.105116 0
-11.345893 -2.219576 1.104551 0
-11.278789 -2.176410 1.103433 0
-11.195417 -2.133438 1.102026 0
-11.175225 -2.100133 1.101730 0
-11.123307 -2.061747 1.100879 0
-11.063284 -2.022856 1.099887 0
-11.003269 -1.982826 1.098899 0
-10.994638 -1.950159 1.098817 0
-10.962012 -1.915179 1.098312 0
-10.825747 -1.870464 1.095976 0
-10.729103 -1.830408 1.094341 0
-10.691906 -1.797892 1.093754 0
-10.610888 -1.760352 1.092396 0
-10.577545 -1.727332 1.091883 0
-10.524025 -1.694467 1.091010 0
-10.470605 -1.659009 1.090147 0
-10.488844 -1.629103 1.090556 0
-10.418994 -1.596035 1.089395 0
-10.408883 -1.567335 1.089296 0
-10.378806 -1.536012 1.088847 0
-10.352690 -1.503680 1.088475 0
-10.298417 -1.471479 1.087598 0
-10.307929 -1.442916 1.087858 0
-10.297368 -1.413345 1.087761 0
-10.214845 -1.379262 1.086389 0
-10.188074 -1.349459 1.086006 0
-10.197165 -1.321169 1.086264 0
-10.186173 -1.292155 1.086165 0
-10.179033 -1.264768 1.086132 0
-10.171803 -1.237431 1.086098 0
-10.176540 -1.207570 1.086290 0
-10.229097 -1.181475 1.087330 0
-10.153631 -1.151523 1.086084 0
-10.146058 -1.121538 1.086061 0
-10.158359 -1.093210 1.086391 0
-10.138557 -1.066042 1.086140 0
-10.150668 -1.036236 1.086476 0
130.405334 27.424814 4.136201 112
130.335617 26.926939 4.130238 94
130.397171 26.457527 4.127484 5
66.419357 10.963728 2.568618 46
50.817986 6.548526 2.184337 19
36.885838 -5.350873 1.812688 8
36.878441 -5.487494 1.812329 8
122.864502 -26.457788 3.737650 63
109.012627 -31.378687 3.437987 63
108.643967 -31.693354 3.430589 63
108.590157 -32.094524 3.430310 63
108.454124 -32.472691 3.428211 63
108.535812 -32.913483 3.431052 63
17.092333 -6.601074 1.370446 1
16.755447 -6.570169 1.363024 1
17.276094 -6.797492 1.374959 1
17.179281 -6.841511 1.372972 1
16.423996 -6.965334 1.356958 1
16.403137 -7.029608 1.356711 1
16.374460 -7.091300 1.356292 1
16.387295 -7.166811 1.356820 1
16.369522 -7.232238 1.356660 1
16.351515 -7.297615 1.356500 1
16.321938 -7.359018 1.356083 1
16.139606 -7.359811 1.352173 1
16.074781 -7.411586 1.350976 1
15.732288 -7.360195 1.343452 1
15.447213 -7.395982 1.337502 30
15.323571 -7.419428 1.334960 28
15.261046 -7.461459 1.333801 11
8.813795 -5.098539 1.186890 36
8.903751 -5.221830 1.189325 8
8.878627 -5.297414 1.189128 0
8.625034 -5.242729 1.183525 0
8.088785 -5.565582 1.173949 0
8.058298 -5.594148 1.173478 0
7.998659 -5.609211 1.172332 0
7.888236 -5.600381 1.170006 0
7.665689 -5.538338 1.165067 0
7.971765 -5.723898 1.172444 0
8.024728 -5.789584 1.173921 0
7.514110 -5.587435 1.162251 0
7.588090 -5.664200 1.164231 0
7.765847 -5.792457 1.168648 0
