# .PCD v.7 - Point Cloud Data file format
VERSION .7
FIELDS x y z intensity
SIZE 4 4 4 1
TYPE F F F U
COUNT 1 1 1 1
WIDTH 1479
HEIGHT 1
VIEWPOINT 0 0 0 1 0 0 0
POINTS 1479
DATA ascii
7.873831 51.869236 10.827751 28
8.066616 51.863739 10.833211 28
8.244799 51.876484 10.841707 28
8.431287 51.882946 10.849425 28
8.624342 51.919502 10.863121 29
8.808836 51.913044 10.868583 29
8.990934 51.894394 10.871795 29
9.178913 51.901966 10.880238 29
9.564095 51.953358 10.904584 29
9.745719 51.928185 10.907025 29
9.937136 51.944454 10.917687 29
10.124274 51.940891 10.924604 29
10.493737 51.949154 10.941441 30
10.677104 51.964828 10.952107 90
10.858119 51.931881 10.953769 60
11.018641 51.818336 10.939727 30
11.171629 51.677670 10.920448 29
11.348762 51.631565 10.919853 29
11.508527 51.520294 10.906548 29
11.866714 51.444073 10.909073 29
12.046182 51.406902 10.910701 29
12.431603 51.457863 10.938630 30
12.628687 51.479092 10.952196 30
12.823886 51.492016 10.964261 30
13.099790 51.131741 10.912179 59
13.334467 51.274410 10.950373 30
13.589988 51.479893 11.001253 61
14.143745 52.007252 11.126878 97
14.606658 52.841667 11.303923 100
14.807188 52.843395 11.315171 100
15.023110 52.860065 11.330112 100
15.221660 52.852741 11.339854 100
15.416293 52.862595 11.352612 100
15.614962 52.882893 11.367603 100
15.814116 52.873322 11.377327 100
16.017279 52.874130 11.389282 100
16.227161 52.892700 11.404963 100
16.432142 52.895618 11.417652 100
16.638693 52.901440 11.431080 100
16.717022 52.551743 11.372869 70
17.192097 52.180481 11.335520 35
17.549072 52.071045 11.338490 35
17.716232 51.973351 11.331745 35
17.877558 51.835041 11.317498 34
18.049213 51.776333 11.318242 34
18.220846 51.691620 11.314467 34
18.390665 51.602684 11.309943 34
18.602995 51.618771 11.327036 35
19.025723 51.641079 11.359707 35
19.249718 51.679951 11.381994 100
19.483416 51.739594 11.408746 36
19.827290 52.054867 11.488402 37
20.093151 52.206177 11.533804 37
20.391172 52.402843 11.589582 38
20.589752 52.367744 11.597662 38
20.979626 52.302849 11.614591 38
21.211517 52.315189 11.633781 38
21.442984 52.348480 11.656732 39
21.660183 52.348644 11.672970 39
21.859470 52.308708 11.681009 39
22.084797 52.346939 11.704725 39
22.311811 52.340240 11.720895 39
22.535202 52.347481 11.739337 40
22.793022 52.424614 11.772659 40
23.044392 52.508469 11.806763 40
23.257574 52.465942 11.816198 41
23.442635 52.388222 11.817487 41
23.836626 52.301998 11.834236 82
24.063883 52.306332 11.853366 83
24.277142 52.303780 11.870305 83
24.514017 52.301624 11.889370 84
24.751230 52.298424 11.908426 84
24.989098 52.338375 11.935011 85
25.253057 52.403831 11.968231 43
26.903866 52.459080 12.119494 45
27.944044 52.609005 12.237123 45
28.128326 52.511143 12.237531 45
28.457850 52.659885 12.292161 45
28.589224 52.491169 12.276266 45
28.781231 52.404510 12.279626 45
28.960833 52.296944 12.278524 45
29.140057 52.188747 12.277417 45
29.329163 52.096691 12.280019 45
31.130365 52.597538 12.533770 45
31.496735 52.749950 12.594124 45
31.679680 52.636196 12.593685 45
32.655365 53.350441 12.804993 90
32.929783 53.366741 12.834926 90
33.204735 53.381763 12.864848 90
33.480221 53.395504 12.894759 90
33.729668 53.368977 12.915762 45
6.950336 13.882222 3.915545 28
34.531158 52.603554 12.876933 3
34.805027 52.626408 12.909074 90
35.088482 52.641544 12.941139 3
35.280201 52.508652 12.940533 3
35.457832 52.375225 12.938503 3
35.637642 52.263592 12.940238 3
35.858376 52.169762 12.949244 3
36.088768 52.106865 12.964231 3
36.338051 52.068146 12.985134 3
36.620689 52.072220 13.016392 90
36.930588 52.128658 13.058809 90
37.675213 52.712830 13.229869 45
37.966347 52.717361 13.262555 45
38.262825 52.726696 13.296710 45
38.576820 52.756256 13.336031 45
38.886642 52.778084 13.373859 45
39.183159 52.799397 13.410264 45
39.486877 52.809017 13.445847 45
39.798561 52.826328 13.483636 45
40.099327 52.846382 13.520742 45
40.398930 52.825874 13.551779 45
40.719860 52.847733 13.591745 45
41.017338 52.857319 13.627336 45
41.593033 52.792297 13.684216 90
41.899525 52.806671 13.721988 90
42.192703 52.784950 13.753021 45
44.899639 54.807411 14.368287 45
45.243099 54.820923 14.411028 45
45.590820 54.855724 14.457526 45
46.021851 54.962715 14.524605 45
46.268028 54.859398 14.539242 45
46.456154 54.690788 14.537629 45
46.670120 54.550625 14.543392 45
46.927532 54.438812 14.558663 45
47.220726 54.383568 14.586552 45
48.727821 54.894089 14.844329 45
49.310726 55.133667 14.950336 45
50.571846 55.713814 15.188895 45
50.936466 55.690548 15.231309 45
51.322227 55.705620 15.281903 45
51.693661 55.722408 15.331095 45
52.056034 55.708324 15.375022 90
52.100212 55.371731 15.334179 45
52.134350 55.027164 15.291131 90
52.443073 54.957138 15.321032 45
52.796776 54.929756 15.362707 90
53.001995 54.754856 15.365327 90
53.246143 54.617531 15.378252 90
53.504150 54.492805 15.394852 90
53.801708 54.405010 15.421750 45
54.158356 54.390617 15.466399 45
54.607735 54.442898 15.532289 45
55.731060 55.143059 15.773435 45
56.040947 55.054012 15.802461 45
56.446136 55.051601 15.855759 45
56.884632 55.058037 15.914828 45
57.261478 55.042908 15.963034 45
57.744461 55.102608 16.035400 45
58.194210 55.109646 16.096613 45
58.640533 55.148361 16.161678 45
59.020149 55.124672 16.209810 45
59.439232 55.114353 16.265179 45
73.329285 66.892670 19.667572 45
73.461464 66.544426 19.640877 45
73.579720 66.162338 19.608179 45
73.696800 65.803696 19.578547 45
73.765083 65.427681 19.540222 45
73.905975 65.091988 19.517206 45
74.006294 64.723251 19.484640 45
74.114021 64.362144 19.454283 45
74.220161 64.001060 19.423925 45
74.355080 63.664974 19.400913 45
74.470306 63.313805 19.373497 45
74.562614 62.945274 19.340944 45
74.656342 62.579327 19.309128 45
74.762321 62.246494 19.283308 45
74.877594 61.900230 19.257366 45
74.985199 61.549049 19.229958 45
75.111122 61.191677 19.204630 45
75.202087 60.851490 19.176617 45
75.289589 60.488289 19.145548 45
75.412979 60.153870 19.123281 45
75.494263 59.788410 19.091484 45
75.606140 59.426140 19.064697 45
75.718124 59.107433 19.043291 45
75.830116 58.747414 19.017241 45
75.948914 58.435543 18.998035 45
76.022545 58.070419 18.966249 45
76.120026 57.723980 18.940329 45
76.251122 57.402859 18.922466 45
76.332970 57.047180 18.893620 45
76.458153 56.723511 18.875027 45
76.739487 56.510735 18.892309 45
77.877129 56.896679 19.104313 45
78.947380 57.225975 19.300150 45
80.461121 57.852184 19.595459 45
80.990593 57.790848 19.667494 45
81.601768 57.802982 19.760122 45
84.373177 58.787678 20.284285 45
85.206810 58.927826 20.425045 45
87.280205 59.857597 20.839115 45
87.456100 59.526443 20.829725 45
89.104874 60.152466 21.147112 45
90.332733 60.492794 21.370110 45
91.521004 60.797710 21.583540 45
94.505386 62.233292 22.191500 45
95.234940 62.221207 22.301722 45
99.103554 63.676529 23.047958 45
100.086021 63.793449 23.211308 45
100.432800 63.514851 23.235865 45
102.469795 64.283981 23.630005 45
104.347893 64.940941 23.988262 45
106.539986 65.744629 24.410479 45
109.798607 66.635101 25.007893 45
110.924850 66.767441 25.197021 45
114.276848 68.177940 25.862446 45
116.810989 69.090446 26.350430 45
119.253761 69.929680 26.817118 45
119.497826 69.508202 26.814079 45
125.853928 71.892410 28.049927 45
125.916801 71.373474 28.009718 45
128.820679 72.377815 28.566883 45
133.487747 74.343140 29.496422 45
166.408463 91.412674 36.360100 45
167.005264 90.974327 36.413891 45
167.468887 90.463127 36.439983 45
22.367899 12.769972 5.957572 9
-53.282658 5.918402 10.467407 27
-30.410461 14.013359 6.811460 13
-88.430618 52.090839 19.816250 45
-87.831200 52.121933 19.724649 45
-87.298874 52.229977 19.651701 45
-86.578598 52.220795 19.537380 45
-88.203545 51.527252 28.302797 63
-87.610588 51.582813 28.173115 63
-87.233788 51.763153 28.112015 63
-85.801811 51.687805 27.770063 63
-85.294121 51.779472 27.666664 63
-84.655327 51.787445 27.521006 63
-82.905472 51.103123 27.017340 44
-82.346352 51.146523 26.895882 45
-81.987144 51.311909 26.838821 45
-81.631035 51.477470 26.782803 45
-81.398308 51.720066 26.766909 45
-80.752838 51.696503 26.616842 46
-80.639366 52.013313 26.640007 46
-80.631218 52.399593 26.698038 46
-80.257225 52.546692 26.636669 46
-79.689690 52.543869 26.508610 46
-77.920807 51.753914 25.987488 48
-77.524834 51.872330 25.917576 49
-75.647194 51.360367 25.417238 51
-75.254173 51.468575 25.347244 51
-74.863815 51.954903 25.339369 51
-74.148605 51.831547 25.161480 52
-73.696289 51.889103 25.071327 52
-70.573723 50.035084 24.081181 56
-69.718605 50.125229 23.909014 57
-69.249367 50.126793 23.806992 57
-68.757439 50.144547 23.703005 57
-14.207962 10.202540 5.163831 18
-14.194058 10.259231 5.170490 16
-63.223614 50.128010 22.516888 62
-62.934456 50.265026 22.480389 62
-62.857494 50.573509 22.519060 62
-62.859409 50.930168 22.583073 62
-62.660164 51.104908 22.572874 62
-62.226219 51.102016 22.482248 62
-61.807827 51.109093 22.396898 62
-61.396027 51.118835 22.313650 63
-60.111778 50.384686 21.915747 62
-59.695137 50.379345 21.829264 62
-58.703571 49.875744 21.534033 61
-58.260868 49.821106 21.433655 60
-57.918098 49.867706 21.372534 60
-57.653889 49.981300 21.340014 60
-57.395348 50.098759 21.309601 60
-57.185589 50.241322 21.293949 60
-57.001278 50.423565 21.291079 60
-56.639015 50.444714 21.222479 60
-56.197441 50.391220 21.124182 59
-55.833660 50.405643 21.054489 59
-55.470448 50.418133 20.984781 59
-55.116280 50.436573 20.918240 58
-54.742939 50.434692 20.844261 58
-54.395519 50.454624 20.779812 58
-54.071251 50.476925 20.720585 58
-53.788925 50.554642 20.680500 58
-52.986458 50.475075 20.509077 57
-52.625229 50.469727 20.438190 57
-52.278416 50.475983 20.372593 56
-51.978767 50.526562 20.325018 56
-51.764038 50.660084 20.310320 56
-51.508167 50.751717 20.279701 56
-51.976997 51.557446 20.529146 57
-50.055859 50.646450 19.984070 55
-49.726635 50.652893 19.923672 55
-49.421928 50.682743 19.872814 54
-49.059216 50.649517 19.798592 54
-48.192112 50.405861 19.588470 53
-47.571857 50.103138 19.412333 53
-47.185970 50.013256 19.323122 52
-46.322571 49.757393 19.112906 51
-46.130878 49.889126 19.105471 51
-45.951679 50.034473 19.103338 51
-45.736095 50.138847 19.086330 51
-45.895885 50.666958 19.225449 52
-45.623520 50.690769 19.181828 52
-45.168404 50.872101 19.139277 52
-45.164501 51.221504 19.212538 52
-45.066017 51.462986 19.246494 52
-44.766842 51.469105 19.195448 52
-44.476990 51.466324 19.144341 52
-44.177376 51.485802 19.096510 100
-43.887039 51.496445 19.048618 51
-43.594696 51.502701 18.999653 51
-43.275955 51.474709 18.938986 51
-42.401043 50.759769 18.634918 50
-41.804214 50.359524 18.446619 49
-41.541924 50.387028 18.408218 49
-40.793564 50.153919 18.231459 48
-40.509384 50.146629 18.182392 96
-40.281723 50.192116 18.154533 96
-40.066799 50.270744 18.136282 48
-39.868977 50.388737 18.129761 48
-39.681805 50.502430 18.124252 48
-39.512291 50.621162 18.122948 48
-39.342964 50.758175 18.125937 48
-39.159309 50.876064 18.122538 48
-38.917927 50.915802 18.092545 47
-38.653893 50.923389 18.051907 47
-38.412983 50.960896 18.021896 47
-38.108936 50.909889 17.962093 47
-37.922482 51.001377 17.953299 47
-37.612576 50.919586 17.885988 47
-37.444283 51.053238 17.889986 47
-37.162449 51.044250 17.844013 47
-36.971588 51.144760 17.837358 46
-36.683807 51.086353 17.779585 46
-36.403328 51.073563 17.733583 46
-36.240860 51.212662 17.740738 46
-35.499046 50.871731 17.549644 91
-35.253792 50.864082 17.510975 91
-35.008751 50.873985 17.476591 91
-34.869965 51.043880 17.495417 45
-34.890930 51.440163 17.590836 92
-34.879761 51.810528 17.675650 92
-34.874115 52.213127 17.769016 93
-34.893646 52.639877 17.871931 94
-34.671444 52.689423 17.851360 94
-34.426746 52.702129 17.819071 93
-34.254631 52.809574 17.819742 93
-32.348736 52.914188 17.578079 45
-32.106819 52.916649 17.545710 45
-31.859489 52.908031 17.510136 45
-31.585814 52.851452 17.459642 45
-31.152208 52.932785 17.421473 45
-30.915812 52.936768 17.391193 45
-30.552898 52.710293 17.288467 44
-30.190075 52.478539 17.184662 44
-28.333639 52.860268 17.043688 43
-28.242203 53.131100 17.099634 44
-27.512182 53.011585 16.981806 43
-27.525749 53.502628 17.105947 44
-27.383720 53.678421 17.133099 88
-27.150955 53.666046 17.102688 88
-26.939365 53.672714 17.079708 87
-26.707932 53.683720 17.055702 87
-26.482723 53.682468 17.029535 87
-26.273506 53.690044 17.007601 87
-26.041258 53.694714 16.982508 87
-25.815348 53.687199 16.955252 87
-25.430130 53.298252 16.813894 42
-25.235987 53.355263 16.806877 42
-24.630032 52.476532 16.517323 41
-24.352634 52.332783 16.450581 40
-23.912403 52.300125 16.394903 40
-23.838018 52.599869 16.463531 40
-23.573729 52.476921 16.404222 40
-23.337082 52.441933 16.370516 40
-23.131983 52.455688 16.352777 40
-22.713633 52.459347 16.310884 39
-22.528130 52.492142 16.300573 39
-22.344961 52.556515 16.298807 39
-22.162998 52.623829 16.298101 39
-21.998913 52.737240 16.311255 39
-21.824623 52.824936 16.316938 39
-21.685507 53.005768 16.350346 40
-21.483068 53.020226 16.334688 40
-21.288532 53.026917 16.317940 39
-21.062666 53.003387 16.290554 39
-20.858177 53.008213 16.272743 39
-20.657801 53.023132 16.258125 79
-20.458906 53.012264 16.237087 78
-20.256308 53.018394 16.220325 78
-20.058958 53.038311 16.207825 78
-19.856680 53.042900 16.191050 78
-19.654593 53.046715 16.174269 78
-19.453924 53.053413 16.158548 78
-19.252213 53.055683 16.141756 77
-19.059807 53.054199 16.124945 77
-18.860874 53.062298 16.110273 77
-18.666805 53.084328 16.099863 77
-18.464638 53.079914 16.081980 77
-18.263857 53.078403 16.065157 77
-17.864065 53.076782 16.032560 76
-17.663919 53.072987 16.015720 76
-17.466196 53.075817 16.001007 76
-17.275167 53.100101 15.992691 76
-17.206604 53.545761 16.106007 38
-17.205143 54.236179 16.289742 79
-17.228382 55.031101 16.503353 40
-17.243139 55.815685 16.713764 42
-17.270502 56.628086 16.932701 43
-17.299704 57.467312 17.159107 44
-17.314402 58.353664 17.397270 45
-17.314928 59.211056 17.626896 46
-17.326485 60.092648 17.863981 46
-17.380857 61.121704 18.143742 47
-17.413433 62.091969 18.406427 48
-17.421734 63.083469 18.673399 49
-17.388071 63.885944 18.887003 50
-11.171400 53.263939 15.655277 36
-10.793202 53.254871 15.635070 72
-10.615665 53.261116 15.628693 72
-10.429656 53.272045 15.623379 72
-10.243677 53.282314 15.618059 72
-10.058319 53.295734 15.613801 72
-9.878658 53.284245 15.603134 72
-9.690581 53.277306 15.593530 71
-9.506504 53.296402 15.591391 71
-9.319702 53.295765 15.583910 71
-9.134045 53.302101 15.578559 71
-8.948433 53.307777 15.573202 71
-8.762870 53.312801 15.567840 71
-8.576390 53.309517 15.560338 71
-8.401052 53.319752 15.557102 71
-8.216105 53.326664 15.552792 71
-8.020703 53.322502 15.545271 71
-7.835000 53.320412 15.538815 71
-7.659374 53.324337 15.534492 71
-7.475035 53.332470 15.531227 71
-7.289538 53.328453 15.524755 71
-7.106022 53.342960 15.523616 71
-6.922107 53.352989 15.521402 71
-6.735383 53.331665 15.510646 71
-6.539774 53.205986 15.471069 70
-6.353835 53.183300 15.460303 70
-6.173820 53.116947 15.437798 100
-5.982217 53.012253 15.404610 69
-5.796221 52.972210 15.389560 69
-5.611096 52.939198 15.376639 69
-5.428303 52.936302 15.372251 100
-5.255149 52.939880 15.369998 100
-5.065444 52.970913 15.375197 100
-4.885952 53.023834 15.386801 69
-4.716053 53.091053 15.402674 69
-4.537376 53.173573 15.422804 70
-4.349012 53.255901 15.442920 70
-4.168586 53.321758 15.458769 35
-3.989367 53.429367 15.486351 100
-3.814527 53.420456 15.481923 70
-3.630966 53.422817 15.480683 70
-3.447194 53.416832 15.477304 100
-3.284279 54.246490 15.705467 73
-3.098120 54.258556 15.707409 73
-2.911618 54.254559 15.705078 73
-2.725379 54.265327 15.707009 73
-2.548099 54.248360 15.701477 73
-2.361977 54.277134 15.708733 73
-2.166230 54.278313 15.708503 73
-1.979802 54.278770 15.708280 73
-1.802672 54.286312 15.710196 73
-1.616243 54.281647 15.708894 73
-1.429730 54.287895 15.710788 73
-1.243013 54.305054 15.715877 73
-1.065693 54.310150 15.717772 73
-0.889262 54.268410 15.706861 73
-0.710873 53.535782 15.504960 100
-0.527471 53.515747 15.500430 71
-0.352554 53.522327 15.503376 71
-0.168388 53.528015 15.506304 71
0.010768 53.398228 15.471890 70
0.191729 53.333309 15.455607 70
0.371057 53.240814 15.431852 35
0.550876 53.170807 15.414494 35
0.740345 53.118969 15.402449 34
1.095228 53.087952 15.398654 100
1.276277 53.057793 15.393009 34
1.461699 53.096252 15.406557 35
1.646365 53.118664 15.415833 35
1.835702 53.201946 15.442168 70
2.013302 53.242947 15.456781 70
2.199447 53.271095 15.468174 70
2.394456 53.402313 15.508353 71
2.593094 53.563538 15.557057 71
2.789308 53.581116 15.566280 71
2.965510 53.580490 15.570201 71
3.141759 53.579277 15.574117 71
3.328797 53.591896 15.582274 71
3.524788 53.599068 15.589341 72
3.712113 53.610329 15.597486 72
3.889525 53.614277 15.603515 72
4.077110 53.624241 15.611650 72
4.274498 53.636284 15.620825 72
4.460510 53.629570 15.624683 72
4.638783 53.634827 15.631756 72
4.826372 53.638302 15.638803 72
5.015584 53.652573 15.649042 72
5.203940 53.658527 15.657143 72
5.391889 53.659992 15.664172 72
5.571268 53.665913 15.672284 72
5.768078 53.660912 15.678215 73
5.955740 53.656551 15.684162 73
6.141868 53.702473 15.703982 100
6.325037 53.666317 15.701391 73
6.514176 53.667591 15.709453 73
6.614195 52.010391 15.260905 68
6.776987 51.889015 15.234863 100
6.956338 51.865864 15.236525 100
7.141744 51.876240 15.247772 100
7.325254 51.874561 15.255816 100
7.514507 51.902546 15.272380 100
7.902571 52.048985 15.331084 34
8.097508 52.144680 15.366832 34
8.276417 52.109325 15.366323 34
8.459823 52.096012 15.372202 34
8.639342 52.063164 15.372748 34
9.011840 52.059666 15.391935 35
9.198676 52.058784 15.402053 35
9.387314 52.064751 15.414295 35
9.576979 52.073784 15.427596 35
9.764257 52.070843 15.437696 35
9.950781 52.063461 15.446726 35
10.138232 52.098782 15.467493 70
10.319674 52.067547 15.470121 100
10.506533 52.058147 15.479134 71
10.690692 52.036839 15.484945 71
10.874855 52.014866 15.490752 71
11.054251 51.973549 15.491229 71
11.222880 51.890549 15.479989 71
11.393047 51.814453 15.470875 100
11.556887 51.715435 15.455368 70
11.727238 51.641949 15.447309 100
12.088116 51.535408 15.443924 70
12.266490 51.525719 15.453979 70
12.451297 51.537651 15.470417 71
12.641974 51.535259 15.483624 71
12.827396 51.513645 15.491502 71
13.034765 51.565292 15.520661 71
13.259311 51.671501 15.565777 72
13.508342 51.854229 15.633231 72
13.769049 52.069000 15.710252 100
13.960293 52.054340 15.721287 73
14.163231 52.075741 15.742956 74
14.357127 52.066963 15.756106 74
14.821619 52.893963 16.011833 100
15.014423 52.900394 16.029251 77
15.220171 52.914108 16.049818 77
15.429184 52.905701 16.065023 77
15.635473 52.917793 16.085577 77
15.829225 52.921234 16.102968 77
16.034801 52.928116 16.122444 78
16.238094 52.926914 16.139786 78
16.444174 52.932201 16.159248 78
16.654415 52.947571 16.181894 78
16.862362 52.954853 16.202408 79
16.922087 52.555775 16.103811 39
17.398806 52.214512 16.059017 38
17.542149 52.053032 16.030600 38
17.723476 51.991905 16.031946 38
17.887299 51.912045 16.026951 38
18.067183 51.821087 16.020807 38
18.240643 51.740189 16.016827 38
18.405148 51.637234 16.006462 38
18.633030 51.690948 16.042862 38
18.848364 51.711582 16.069685 38
19.241512 51.657700 16.095682 39
19.489222 51.750401 16.144798 39
19.740864 51.849087 16.196032 39
20.037706 52.049339 16.278065 40
20.334677 52.244598 16.359024 40
20.566608 52.286583 16.394285 40
20.958612 52.227238 16.421272 40
21.182196 52.245407 16.450138 40
21.399788 52.248600 16.474745 41
21.634714 52.264305 16.504610 41
21.835884 52.252308 16.523937 41
22.064198 52.273769 16.554893 41
22.279764 52.266369 16.577347 41
22.507196 52.282452 16.607225 41
22.731691 52.290627 16.634972 42
22.949804 52.283981 16.658463 42
23.178354 52.297222 16.688316 42
23.405590 52.306030 16.717098 42
23.619055 52.307987 16.742737 42
23.850452 52.321823 16.773628 42
24.075281 52.320911 16.800262 42
24.305687 52.329357 16.830074 43
24.531166 52.326538 16.856695 43
24.765848 52.339878 16.888613 43
25.000948 52.352203 16.920521 43
25.241873 52.373741 16.955603 43
25.523308 52.490875 17.019375 44
25.719814 52.425262 17.027914 44
25.945631 52.413147 17.053421 44
26.217985 52.484661 17.105440 44
27.173363 52.506142 17.233864 44
27.473818 52.615292 17.299616 45
27.658741 52.540878 17.306028 45
27.892445 52.508804 17.329290 45
28.146484 52.530914 17.368504 45
28.731714 52.719666 17.492540 45
28.861094 52.526226 17.463877 45
29.023346 52.388668 17.453232 45
29.211050 52.293461 17.456364 45
29.402494 52.204151 17.461609 45
29.579515 52.091156 17.459429 45
30.993595 53.597080 18.013594 47
31.433784 52.678562 17.860579 47
31.743496 52.740131 17.919718 47
32.111298 52.513382 17.920513 47
33.219349 53.388874 18.286631 49
33.488979 53.393631 18.327753 49
33.756901 53.393959 18.367805 49
6.944605 13.957212 5.277495 4
7.019720 13.872618 5.269462 16
34.659592 52.750408 18.357281 49
34.822624 52.597214 18.347544 49
35.180721 52.735130 18.434168 49
35.424900 52.692776 18.462511 49
35.601101 52.555805 18.459101 49
35.776802 52.418236 18.455688 49
35.922188 52.239742 18.438517 49
36.193501 52.231041 18.479527 49
36.386826 52.135174 18.488855 49
36.642338 52.102673 18.522442 49
36.965435 52.138973 18.582394 50
37.320675 52.251587 18.664673 50
37.827507 52.538723 18.810318 51
38.282368 52.752892 18.931616 51
38.548939 52.721531 18.968304 51
38.873119 52.761631 19.030355 51
39.169281 52.763855 19.079706 52
39.458725 52.755604 19.125874 52
39.763756 52.783283 19.182671 52
40.068775 52.790192 19.235155 52
40.391438 52.816513 19.295025 52
40.700089 52.823341 19.348541 53
40.991291 52.788483 19.390347 53
41.392452 52.901863 19.482929 53
41.912853 52.802998 19.550848 54
42.224148 52.802269 19.604298 54
44.970497 54.867973 20.518610 57
45.298763 54.863430 20.575113 57
45.589260 54.813885 20.615765 58
45.836388 54.713963 20.638454 58
46.213009 54.776550 20.718227 58
46.658493 54.516220 20.743502 58
46.871639 54.374741 20.752434 58
47.131443 54.283508 20.780355 58
47.420071 54.222229 20.819878 58
47.727303 54.179321 20.866776 59
48.214611 54.326015 20.985409 59
48.528416 54.285088 21.034384 59
48.582924 53.989014 20.984264 59
50.622952 55.743690 21.714672 62
50.916271 55.665298 21.753012 62
51.288948 55.686035 21.826235 62
51.671925 55.695545 21.899351 63
52.070618 55.699116 21.974472 63
52.302666 55.551315 21.988506 63
52.303688 55.191193 21.917219 63
52.401226 54.891518 21.876335 63
52.514256 54.646061 21.849337 62
52.686932 54.459812 21.845528 62
52.931953 54.325298 21.865866 63
53.187805 54.200439 21.890411 63
55.825653 56.356934 22.815954 60
54.776917 54.577682 22.269453 62
55.616188 55.009796 22.515270 62
56.225689 55.200520 22.670353 61
56.559635 55.130829 22.722174 61
57.030209 55.184784 22.824537 60
57.362183 55.108673 22.875273 60
57.894539 55.212265 22.999710 60
58.307850 55.204403 23.079895 59
58.695930 55.171181 23.150585 59
59.058537 55.112865 23.211782 59
59.505455 55.126648 23.303492 58
59.949539 55.153851 23.397385 58
73.685486 66.705948 28.289568 63
73.789291 66.309937 28.237532 63
73.894493 65.939835 28.190886 63
73.989662 65.585541 28.145414 63
74.129951 65.247948 28.112450 63
74.239227 64.885368 28.068964 63
74.331337 64.487289 28.015892 63
74.446190 64.132210 27.975567 63
74.592308 63.804043 27.946814 63
74.674240 63.424435 27.895975 63
74.752579 63.065689 27.848419 63
74.927437 62.763817 27.831234 63
75.004578 62.384468 27.780403 63
75.070930 61.998150 27.726423 63
75.174965 61.643131 27.686113 63
75.320045 61.321384 27.660519 63
75.433311 60.975719 27.624414 63
75.517578 60.608822 27.578856 63
75.640091 60.272530 27.546957 63
75.724304 59.908123 27.502453 63
75.809998 59.546177 27.459002 63
75.899368 59.209492 27.420931 63
76.029335 58.861759 27.389965 63
76.119751 58.506886 27.349672 63
76.248459 58.202187 27.326309 63
76.326637 57.840508 27.282869 63
76.412636 57.485760 27.242584 63
76.544197 57.164795 27.218048 63
76.636703 56.816784 27.180916 43
76.771904 56.499950 27.158480 43
77.579430 56.654251 27.359610 63
80.319160 57.719181 28.131128 63
81.106758 57.835033 28.322649 63
81.273521 57.523167 28.309534 63
82.376549 57.864201 28.607084 63
83.373711 58.125519 28.868908 63
84.843323 58.671284 29.280537 63
87.471413 59.968273 30.067556 63
87.577446 59.590343 30.032230 63
91.512085 60.775597 31.095236 63
93.865585 61.810215 31.782082 63
95.201813 62.183167 32.139656 63
96.430519 62.477970 32.461521 63
100.286255 63.873810 33.543949 63
100.531349 63.556671 33.552437 63
103.610138 64.453003 34.386349 63
106.799370 65.854019 35.320549 63
107.002846 65.460381 35.309822 63
109.673416 66.488838 36.071812 63
110.569664 66.487320 36.277763 63
111.968750 66.769897 36.640732 63
115.366074 68.213249 37.630932 63
119.725670 69.586319 38.834724 63
123.488861 70.557228 39.845451 63
126.231941 71.493996 40.614880 63
167.086655 90.948189 52.841839 63
167.616241 90.471306 52.902508 63
22.401373 12.881478 8.296708 5
-0.205805 -1.176473 0.098260 1
-0.148632 -1.187976 0.071137 0
-0.087878 -1.199886 0.042319 0
-0.157087 -1.200194 0.074473 0
-0.186548 -1.203390 0.087999 0
-0.014222 -1.227824 0.006668 0
-0.014972 -1.234756 0.006640 0
0.016664 -1.245307 -0.008633 0
0.001453 -1.250687 -0.001885 2
-0.093747 -1.253216 0.042108 7
-0.015493 -1.269827 0.004809 14
-0.099041 -1.266057 0.043749 9
-0.103426 -1.271553 0.045420 7
-0.100738 -1.278662 0.043700 8
-0.105254 -1.284790 0.045368 10
-0.084682 -1.294488 0.035175 15
-0.110758 -1.297488 0.047010 10
-0.018593 -1.318098 0.002927 10
-0.109134 -1.310895 0.045265 11
-0.027852 -1.330454 0.006263 14
-0.111236 -1.324091 0.045213 12
-0.044394 -1.341864 0.012988 14
-0.034823 -1.350493 0.007877 7
-0.039573 -1.356739 0.009544 10
-0.047910 -1.362330 0.012907 11
-0.041997 -1.370420 0.009491 13
-0.046810 -1.376603 0.011159 13
-0.044517 -1.384084 0.009437 7
-0.038694 -1.392261 0.006020 11
-0.043576 -1.398418 0.007689 11
-0.012930 -1.411551 -0.007594 18
-0.129260 -1.401882 0.046601 0
-0.066767 -1.421678 0.016060 0
-0.082372 -1.425427 0.022815 0
-0.062560 -1.436691 0.012617 0
-0.071118 -1.441905 0.015981 0
-0.107980 -1.440772 0.032910 0
-0.098872 -1.449772 0.027797 0
-0.125113 -1.450729 0.039641 0
-0.077249 -1.468801 0.015876 0
-0.131716 -1.462975 0.041285 0
-0.076851 -1.482729 0.014130 0
-0.131280 -1.476544 0.039540 0
-0.101251 -1.490915 0.024253 0
-0.060762 -1.508153 0.003876 0
-0.104611 -1.504162 0.024201 0
-0.085285 -1.516230 0.014000 0
-0.118661 -1.514951 0.029237 0
-0.092322 -1.528655 0.015644 0
-0.080134 -1.539094 0.008834 0
-0.092452 -1.542921 0.013896 0
-0.129204 -1.539879 0.030833 0
-0.117096 -1.550336 0.024022 0
-0.087525 -1.565522 0.008731 0
-0.113814 -1.565155 0.020580 0
-0.070448 -1.584634 -0.001497 0
-0.138432 -1.571807 0.030709 0
-0.095380 -1.592177 0.008629 0
-0.097402 -1.598823 0.008603 0
-0.140889 -1.592341 0.028938 0
-0.129078 -1.603140 0.022126 0
-0.138150 -1.607814 0.025493 0
-0.071109 -1.636027 -0.008465 0
-0.097411 -1.634960 0.003386 0
-0.140896 -1.628086 0.023723 0
-0.146482 -1.633435 0.025395 0
-0.134798 -1.644178 0.018583 0
-0.120070 -1.657150 0.010071 0
-0.128947 -1.660708 0.013442 0
-0.110786 -1.674679 0.003234 0
-0.160839 -1.664179 0.026969 0
-0.152869 -1.674224 0.021853 0
-0.131424 -1.689544 0.009947 0
-0.137073 -1.694505 0.011621 0
-0.163261 -1.692291 0.023477 0
-0.121471 -1.715039 0.001387 0
-0.134222 -1.718113 0.006453 0
-0.102805 -1.737434 -0.010546 0
-0.135534 -1.731767 0.004708 0
-0.182096 -1.721643 0.026750 0
-0.144076 -1.743777 0.006355 0
-0.173585 -1.739631 0.019911 0
-0.152437 -1.755058 0.008005 0
-0.182040 -1.751016 0.021560 0
-0.224883 -1.741004 0.041909 0
-0.177030 -1.767499 0.016420 0
-0.136162 -1.791874 -0.005676 0
-0.182185 -1.779893 0.016373 0
-0.161505 -1.796095 0.004464 0
-0.167707 -1.801409 0.006136 0
-0.170459 -1.807802 0.006112 0
-0.216411 -1.795414 0.028162 0
-0.232271 -1.795506 0.034932 0
-0.225067 -1.806073 0.029814 0
-0.241059 -1.806353 0.036583 0
-0.214118 -1.825896 0.021276 0
-0.246617 -1.818616 0.036537 0
-0.180327 -1.856499 0.000850 0
-0.189841 -1.859799 0.004223 0
-0.248555 -1.840009 0.033071 0
-0.176128 -1.881701 -0.006015 0
-0.234733 -1.861570 0.022834 0
-0.195117 -1.887822 0.000732 0
-0.247044 -1.870408 0.026186 0
-0.275910 -1.863486 0.039753 0
-0.249802 -1.884232 0.024442 0
-0.168244 -1.931681 -0.019744 0
-0.265611 -1.891555 0.029492 0
-0.226686 -1.918890 0.007386 0
-0.213406 -1.932696 -0.001129 0
-0.255560 -1.919633 0.019231 0
-0.258724 -1.925718 0.019209 1
-0.233048 -1.946933 0.003896 0
-0.271517 -1.934469 0.022561 0
-0.226477 -1.965448 -0.002944 0
-0.242725 -1.965083 0.003828 0
-0.220413 -1.984713 -0.009787 0
-0.223975 -1.991231 -0.009811 0
-0.233390 -1.993312 -0.006433 0
-0.255974 -1.989228 0.003738 0
-0.303441 -1.970235 0.027506 0
-0.300643 -1.980010 0.024084 0
-0.310310 -1.982354 0.027461 0
-0.301132 -1.995460 0.020641 0
-0.235614 -2.041294 -0.016768 0
-0.323646 -1.998175 0.029095 0
-0.311304 -2.012906 0.020577 0
-0.314968 -2.019091 0.020554 0
-0.327803 -2.019395 0.025631 0
-0.328037 -2.026804 0.023911 0
-0.278952 -2.064574 -0.005005 0
-0.328954 -2.042234 0.020468 0
-0.286313 -2.076567 -0.005049 0
-0.345204 -2.047857 0.025525 0
-0.348996 -2.053917 0.025503 0
-0.355508 -2.057456 0.027183 0
-0.288873 -2.107872 -0.011936 0
-0.350621 -2.076727 0.020341 0
-0.354333 -2.082480 0.020320 0
-0.361099 -2.086245 0.021999 0
-0.301255 -2.133648 -0.013723 0
-0.380506 -2.089398 0.028758 0
-0.387088 -2.092759 0.030439 0
-0.378824 -2.106447 0.023617 0
-0.379830 -2.114410 0.021895 0
-0.392652 -2.113949 0.026976 0
-0.324627 -2.168404 -0.013850 0
-0.391418 -2.131321 0.021834 0
-0.347572 -2.169736 -0.005391 0
-0.396277 -2.144605 0.020092 0
-0.412053 -2.141842 0.026874 0
-0.421498 -2.142630 0.030256 0
-0.428776 -2.146574 0.031935 0
-0.420792 -2.160258 0.025114 0
-0.413083 -2.174284 0.018292 0
-0.428816 -2.171258 0.025074 0
-0.427031 -2.181037 0.021653 0
-0.416580 -2.197324 0.013129 0
-0.434996 -2.191720 0.021614 0
-0.436218 -2.199358 0.019894 0
-0.443240 -2.202621 0.021575 0
-0.433014 -2.219050 0.013051 0
-0.448901 -2.215944 0.019834 0
-0.447168 -2.225523 0.016413 0
-0.445482 -2.235126 0.012993 0
-0.461336 -2.231857 0.019776 0
-0.473886 -2.230206 0.024861 0
-0.475303 -2.237787 0.023141 0
-0.482397 -2.240834 0.024823 0
-0.402295 -2.314497 -0.026230 0
-0.493572 -2.248851 0.026487 0
-0.486913 -2.263560 0.019662 0
-0.499424 -2.261648 0.024748 0
-0.512341 -2.260187 0.029832 0
-0.486194 -2.290980 0.011099 0
-0.498723 -2.288984 0.016185 0
-0.500419 -2.296565 0.014465 0
-0.524135 -2.285299 0.026357 0
-0.520353 -2.297542 0.021234 0
-0.519371 -2.307452 0.017813 0
-0.532057 -2.305459 0.022899 0
-0.550142 -2.298605 0.031388 0
-0.527559 -2.327699 0.014355 0
-0.497069 -2.364205 -0.007784 0
-0.507163 -2.364599 -0.004399 0
-0.548956 -2.335248 0.019407 0
-0.558916 -2.335426 0.022793 0
-0.510228 -2.389446 -0.011260 0
-0.578786 -2.335621 0.029564 0
-0.514556 -2.404753 -0.014700 0
-0.529969 -2.400021 -0.007911 0
-0.571399 -2.370081 0.015898 0
-0.581378 -2.370070 0.019284 0
-0.591339 -2.370006 0.022671 0
-0.611701 -2.359834 0.032865 0
-0.561885 -2.417653 -0.002893 0
-0.608179 -2.382156 0.024321 0
-0.610376 -2.389549 0.022602 0
-0.625455 -2.384193 0.029394 0
-0.622558 -2.396661 0.024271 0
-0.617179 -2.411734 0.017445 0
-0.622058 -2.416554 0.017428 0
-0.632021 -2.416186 0.020816 0
-0.631867 -2.426143 0.017395 0
-0.644342 -2.423102 0.022485 0
-0.598885 -2.479821 -0.011576 0
-0.658944 -2.427060 0.025858 0
-0.663876 -2.431734 0.025842 0
-0.668825 -2.436391 0.025826 0
-0.663911 -2.451615 0.019000 0
-0.600039 -2.530608 -0.028684 0
-0.679118 -2.455815 0.022372 0
-0.671690 -2.473549 0.013845 0
-0.686514 -2.467456 0.020639 0
-0.698856 -2.463967 0.025731 0
-0.653233 -2.525147 -0.010039 0
-0.667862 -2.518785 -0.003244 0
-0.699461 -2.493576 0.015469 0
-0.707012 -2.495386 0.017156 0
-0.733567 -2.475318 0.032465 0
-0.726835 -2.493425 0.023937 0
-0.717857 -2.514344 0.013705 0
-0.741872 -2.496771 0.027312 0
-0.740035 -2.509445 0.022189 0
-0.747582 -2.511064 0.023877 0
-0.697171 -2.582139 -0.017007 0
-0.755740 -2.522562 0.022144 0
-0.763304 -2.524102 0.023833 0
-0.777206 -2.516770 0.030631 0
-0.739130 -2.574438 -0.001739 0
-0.772086 -2.545219 0.018681 0
-0.772642 -2.554938 0.015261 0
-0.796289 -2.536747 0.028871 0
-0.799097 -2.543575 0.027154 0
-0.804435 -2.547759 0.027140 0
-0.761215 -2.615019 -0.010343 0
-0.766804 -2.619335 -0.010358 0
-0.787530 -2.603302 0.001551 0
-0.821553 -2.570071 0.023679 1
-0.827256 -2.574382 0.023664 0
-0.804495 -2.616126 0.001508 0
-0.841936 -2.576322 0.027045 0
-0.843635 -2.586582 0.023624 0
-0.850714 -2.587290 0.025315 0
-0.856480 -2.591494 0.025301 0
-0.857470 -2.601146 0.021882 0
-0.873556 -2.590421 0.030386 0
-0.862265 -2.617931 0.016746 0
-0.880672 -2.604357 0.026953 0
-0.885667 -2.607867 0.026941 0
-0.853994 -2.665203 -0.003734 0
-0.894746 -2.618588 0.025213 0
-0.847398 -2.700224 -0.019093 1
-0.903922 -2.629259 0.023484 0
-0.903478 -2.642072 0.018361 0
-0.915492 -2.637065 0.023459 0
-0.919150 -2.643855 0.021743 1
-0.926549 -2.644412 0.023435 0
-0.938476 -2.639257 0.028534 0
-0.944147 -2.642955 0.028522 0
-0.941693 -2.658609 0.021696 0
-0.920093 -2.704952 -0.002169 0
-0.955126 -2.662907 0.023376 0
-0.924183 -2.724695 -0.009008 0
-0.924391 -2.737643 -0.014131 0
-0.924676 -2.750611 -0.019254 0
-0.972520 -2.686583 0.018218 0
-0.932729 -2.764067 -0.022685 0
-0.961375 -2.730663 -0.002250 0
-0.963631 -2.740479 -0.005669 0
-0.995647 -2.700598 0.018174 0
-1.005224 -2.697869 0.021571 0
-1.011099 -2.701333 0.021560 0
-1.022458 -2.695399 0.026662 0
-1.022887 -2.708199 0.021539 0
-1.021591 -2.724154 0.014712 0
-1.030843 -2.721102 0.018110 0
-0.997630 -2.793790 -0.019389 0
-1.017997 -2.772026 -0.005768 1
-1.046990 -2.734326 0.016375 0
-1.025037 -2.788349 -0.010901 0
-1.056969 -2.743951 0.014651 0
-1.065033 -2.744216 0.016345 0
-1.072784 -2.744284 0.018039 0
-1.049875 -2.801796 -0.010942 0
-1.064262 -2.788944 -0.002430 0
-1.097651 -2.741084 0.024827 0
-1.096393 -2.756752 0.018002 0
-1.063293 -2.837411 -0.022911 0
-1.110822 -2.760111 0.019686 0
-1.113644 -2.769662 0.016268 0
-1.120781 -2.769206 0.017964 0
-1.093333 -2.840442 -0.017836 0
-1.102910 -2.837108 -0.014437 0
-1.139493 -2.778472 0.017937 0
-1.139333 -2.794490 0.011111 0
-1.153076 -2.781030 0.019624 0
-1.164219 -2.774324 0.024729 0
-1.160780 -2.796720 0.014494 0
-1.171912 -2.789952 0.019598 0
-1.175064 -2.799400 0.016181 0
-1.179470 -2.805415 0.014469 0
-1.194718 -2.788510 0.024688 0
-1.194957 -2.804506 0.017862 0
-1.199727 -2.810611 0.016149 0
-1.204530 -2.816704 0.014437 0
-1.210505 -2.819333 0.014429 0
-1.213602 -2.828580 0.011013 0
-1.200220 -2.877985 -0.012859 0
-1.233686 -2.817521 0.019520 0
-1.237164 -2.826854 0.016103 0
-1.249071 -2.816153 0.022915 0
-1.246736 -2.838694 0.012680 0
-1.264400 -2.814658 0.026310 0
-1.274763 -2.807158 0.031417 0
-1.272925 -2.829826 0.021182 0
-1.284294 -2.818780 0.027994 0
-1.276004 -2.858305 0.009236 1
-1.289009 -2.843965 0.017752 0
-1.264135 -2.927462 -0.023167 0
-1.270812 -2.930021 -0.023174 0
-1.308187 -2.851315 0.017733 0
-1.308262 -2.870668 0.009203 0
-1.326035 -2.842528 0.024540 0
-1.325553 -2.861627 0.016010 0
-1.335696 -2.853765 0.021118 0
-1.338776 -2.866409 0.015998 0
-1.350958 -2.851540 0.024516 0
-1.352581 -2.867455 0.017691 0
-1.361416 -2.862868 0.021095 0
-1.365844 -2.872044 0.017680 0
-1.376644 -2.860430 0.024494 0
-1.382259 -2.866135 0.022784 0
-1.388397 -2.868175 0.022779 0
-1.392940 -2.877285 0.019364 0
-1.397676 -2.882627 0.017654 0
-1.376661 -2.970890 -0.024973 0
-1.404844 -2.907702 0.007414 0
-1.421561 -2.875020 0.024459 0
-1.402830 -2.960129 -0.016464 0
-1.432772 -2.886039 0.021040 0
-1.434811 -2.901773 0.014216 1
-1.438310 -2.914143 0.009096 1
-1.451366 -2.895354 0.019322 0
-1.431140 -2.987447 -0.025011 0
-1.445968 -2.961586 -0.011376 0
-1.467804 -2.911358 0.014195 0
-1.476358 -2.906233 0.017601 0
-1.478802 -2.921919 0.010777 1
-1.491122 -2.902770 0.021003 0
-1.476277 -2.984953 -0.018216 0
-1.486831 -2.972773 -0.011399 0
-1.508514 -2.918595 0.015877 0
-1.518736 -2.906276 0.022694 0
-1.523240 -2.914881 0.019281 1
-1.530741 -2.913024 0.020983 0
-1.539411 -2.907702 0.024390 0
-1.542301 -2.923293 0.017567 0
-1.550960 -2.917917 0.020974 0
-1.558421 -2.915951 0.022676 0
-1.564723 -2.917406 0.022673 0
-1.565785 -2.943623 0.010735 1
-1.578790 -2.916870 0.024373 0
-1.582004 -2.932397 0.017551 0
-1.590216 -2.926771 0.020959 0
-1.584517 -2.988448 -0.008030 0
-1.600621 -2.943760 0.014134 1
-1.608075 -2.941599 0.015837 0
-1.616930 -2.932313 0.020950 0
-1.624318 -2.930090 0.022654 1
-1.626886 -2.952708 0.012421 0
-1.636341 -2.939780 0.019240 0
-1.641735 -2.948154 0.015828 0
-1.646535 -2.960074 0.010712 0
-1.658411 -2.932801 0.024351 0
-1.646394 -3.040910 -0.026804 0
-1.669354 -2.949408 0.017528 0
-1.675429 -2.950439 0.017527 0
-1.684532 -2.937280 0.024347 0
-1.676865 -3.027681 -0.018282 0
-1.696825 -2.946588 0.020935 0
-1.690366 -3.033468 -0.019989 0
-1.699559 -3.020225 -0.013169 0
-1.717580 -2.946082 0.022638 0
-1.724831 -2.943475 0.024343 0
-1.731559 -2.944426 0.024343 0
-1.738291 -2.945353 0.024343 0
-1.743127 -2.960605 0.017522 0
-1.751764 -2.947136 0.024342 0
-1.758955 -2.944402 0.026048 0
-1.764037 -2.955968 0.020932 0
-1.770809 -2.956782 0.020933 0
-1.770156 -3.022277 -0.009759 0
-1.783161 -2.969126 0.015818 0
-1.792304 -2.948288 0.026050 0
-1.797925 -2.959799 0.020935 0
-1.802898 -2.978495 0.012410 0
-1.810448 -2.971970 0.015821 0
-1.818287 -2.961814 0.020937 0
-1.825728 -2.955230 0.024349 0
-1.825011 -3.042346 -0.016573 0
-1.838371 -2.967221 0.019236 0
-1.845755 -2.960561 0.022647 0
-1.852542 -2.961089 0.022649 0
-1.854102 -3.033772 -0.011452 0
-1.865783 -2.962051 0.022652 0
-1.866655 -3.052775 -0.019974 0
-1.879370 -2.962944 0.022655 0
-1.886377 -2.959743 0.024362 0
-1.892963 -2.963742 0.022659 0
-1.900134 -2.956878 0.026072 0
-1.906561 -2.964445 0.022664 0
-1.913362 -2.964761 0.022666 0
-1.917196 -3.037360 -0.011433 0
-1.927645 -2.947243 0.031196 0
-1.933925 -2.951090 0.029493 0
-1.938012 -3.038111 -0.011425 0
-1.946941 -2.969593 0.020974 0
-1.952044 -3.042115 -0.013125 0
-1.960505 -2.973536 0.019274 0
-1.966007 -3.053258 -0.018234 0
-1.973214 -3.046129 -0.014820 0
-1.980229 -3.053449 -0.018227 0
-1.987386 -3.046271 -0.014813 0
-1.994709 -2.959462 0.026111 0
-2.001570 -3.060786 -0.021626 0
-2.008691 -3.057152 -0.019917 0
-2.015057 -2.959416 0.026122 0
-2.022899 -3.053427 -0.018204 0
-2.029797 -3.038864 -0.011380 0
-2.036725 -3.031514 -0.007966 0
-2.043996 -3.042228 -0.013077 0
-2.050901 -3.063785 -0.023303 0
-2.055955 -2.965919 0.022736 0
-2.065909 -3.063360 -0.023293 0
-2.069952 -2.976332 0.017630 0
-2.078922 -3.030313 -0.007939 0
-2.085709 -3.040902 -0.013050 0
-2.092113 -3.026134 -0.006225 0
-2.100554 -3.047469 -0.016449 0
-2.104574 -2.989293 0.010834 0
-2.113710 -3.028657 -0.007914 0
-2.117352 -2.977703 0.015959 0
-2.130614 -3.078397 -0.031772 2
-2.135747 -3.041803 -0.014718 0
-2.144857 -3.070194 -0.028351 1
-2.150066 -3.048053 -0.018116 0
-2.152963 -2.993403 0.007462 0
-2.161966 -3.014471 -0.002761 0
-2.169156 -3.024770 -0.007870 0
-2.177185 -3.027713 -0.009568 0
-2.184866 -3.034291 -0.012971 0
-2.190530 -3.022861 -0.007851 0
-2.197183 -3.022220 -0.007845 0
-2.198675 -2.967523 0.017733 0
-2.210803 -3.017200 -0.006127 0
-2.220494 -3.037998 -0.016349 0
-2.227550 -3.037218 -0.016342 0
-2.234251 -3.036454 -0.016335 0
-2.242667 -3.050040 -0.023147 0
-2.239155 -2.962986 0.017772 0
-2.256759 -3.044665 -0.021428 0
-2.260564 -3.018640 -0.009488 0
-2.261168 -2.967463 0.014385 0
-2.276367 -3.027483 -0.014587 0
-2.278646 -2.997940 -0.000943 0
-2.280728 -2.961094 0.016111 0
-2.298302 -3.035326 -0.019678 0
-2.302443 -3.012755 -0.009442 0
-2.314965 -3.047446 -0.026480 0
-2.314670 -2.999877 -0.004313 0
-2.321592 -2.998768 -0.004305 0
-2.319616 -2.944089 0.021271 0
-2.336894 -3.007240 -0.009402 1
-2.334920 -2.952511 0.016174 0
-2.352675 -3.015533 -0.014499 0
-2.354514 -2.985802 -0.000854 0
-2.354840 -2.948964 0.016198 0
-2.373911 -3.015357 -0.016177 0
-2.381235 -3.013976 -0.016168 0
-2.388899 -3.016186 -0.017863 0
-2.379676 -2.933180 0.021346 0
-2.399985 -2.999238 -0.011027 0
-2.406559 -2.997902 -0.011019 0
-2.414214 -3.000015 -0.012714 0
-2.422237 -3.002025 -0.014408 0
-2.428054 -2.997078 -0.012695 0
-2.438078 -3.009710 -0.019502 0
-2.445035 -3.008171 -0.019492 0
-2.446365 -2.981907 -0.007553 0
-2.451594 -2.973287 -0.004134 0
-2.466697 -3.006929 -0.021166 0
-2.451809 -2.913769 0.023152 0
-2.477176 -2.989558 -0.014329 0
-2.484926 -2.991396 -0.016023 0
-2.485681 -2.965116 -0.004084 0
-2.481813 -2.921315 0.016376 0
-2.500176 -2.965186 -0.005767 0
-2.514284 -2.991443 -0.019389 0
-2.511580 -2.954743 -0.002338 0
-2.519879 -2.960028 -0.005736 0
-2.516555 -2.919698 0.013020 0
-2.537622 -2.970217 -0.012529 0
-2.540206 -2.954483 -0.005703 0
-2.550265 -2.962938 -0.010803 0
-2.541084 -2.905351 0.016471 0
-2.550375 -2.913973 0.011370 0
-2.568575 -2.950131 -0.007361 0
-2.568780 -2.927428 0.002873 0
-2.563219 -2.883762 0.023331 0
-2.592354 -2.958125 -0.014143 1
-2.603019 -2.966209 -0.019241 0
-2.605489 -2.950281 -0.012414 0
-2.612237 -2.948158 -0.012402 0
-2.620085 -2.949456 -0.014093 0
-2.625710 -2.943840 -0.012377 0
-2.636960 -2.955397 -0.019180 0
-2.619714 -2.881056 0.016610 0
-2.644037 -2.933982 -0.010638 0
-2.656895 -2.948740 -0.019143 0
-2.659256 -2.932635 -0.012315 0
-2.670707 -2.943994 -0.019116 0
-2.677433 -2.941642 -0.019103 1
-2.685365 -2.942677 -0.020794 0
-2.690523 -2.936990 -0.019078 0
-2.693176 -2.924489 -0.013955 0
-2.702666 -2.928730 -0.017348 0
-2.684712 -2.862059 0.015030 0
-2.708971 -2.907091 -0.008805 0
-2.721990 -2.921524 -0.017309 0
-2.735119 -2.935889 -0.025812 0
-2.715972 -2.865699 0.008269 0
-2.711540 -2.836358 0.021909 0
-2.754517 -2.924463 -0.024066 0
-2.728260 -2.841431 0.016826 0
-2.757997 -2.895797 -0.012115 0
-2.744037 -2.842878 0.013447 0
-2.743511 -2.823541 0.021977 0
-2.783202 -2.901127 -0.018885 0
-2.782763 -2.881701 -0.010355 0
-2.770565 -2.835784 0.011799 0
-2.774376 -2.826297 0.015220 0
-2.783565 -2.830227 0.011828 0
-2.805835 -2.863964 -0.006891 0
-2.803195 -2.841413 0.003341 0
-2.803674 -2.825374 0.010168 0
-2.835528 -2.878537 -0.018767 0
-2.814789 -2.816427 0.011900 0
-2.845173 -2.866229 -0.015332 0
-2.851948 -2.863120 -0.015316 0
-2.858068 -2.860287 -0.015301 0
-2.833680 -2.791782 0.018771 0
-2.869369 -2.850985 -0.013568 0
-2.877011 -2.851358 -0.015256 0
-2.883732 -2.848134 -0.015239 0
-2.855214 -2.773469 0.022236 0
-2.907686 -2.864656 -0.027126 0
-2.859414 -2.751249 0.030780 0
-2.873568 -2.764422 0.022282 0
-2.879360 -2.761518 0.022297 0
-2.887394 -2.761510 0.020611 0
-2.891522 -2.755339 0.022328 0
-2.930893 -2.816494 -0.011706 0
-2.908670 -2.758700 0.017252 0
-2.951877 -2.825965 -0.020186 0
-2.920812 -2.752317 0.017284 1
-2.926867 -2.749094 0.017300 0
-2.931188 -2.742666 0.019019 0
-2.928547 -2.723516 0.027547 0
-2.978087 -2.799569 -0.014995 0
-2.945706 -2.726493 0.022472 0
-2.942842 -2.707384 0.031000 0
-3.000262 -2.795542 -0.018348 0
-2.967138 -2.722796 0.019117 0
-3.009063 -2.782237 -0.014909 0
-3.017031 -2.781840 -0.016594 0
-3.021367 -2.775152 -0.014874 0
-2.990575 -2.709306 0.019184 0
-2.996478 -2.705840 0.019201 0
-3.041279 -2.767657 -0.016524 0
-3.002658 -2.689536 0.024341 0
-3.008492 -2.686028 0.024358 0
-3.055489 -2.750666 -0.013067 0
-3.073522 -2.765102 -0.023259 0
-3.035456 -2.690765 0.015901 1
-3.033335 -2.675041 0.022725 0
-3.042974 -2.677554 0.019339 0
-3.050995 -2.676778 0.017656 0
-3.050935 -2.663951 0.022779 0
-3.058641 -2.663318 0.021095 1
-3.101537 -2.717496 -0.011220 1
-3.109747 -2.716479 -0.012902 0
-3.125637 -2.727709 -0.021391 0
-3.125596 -2.714725 -0.016267 0
-3.122877 -2.699145 -0.009444 0
-3.134813 -2.704223 -0.014530 0
-3.092461 -2.627990 0.026326 0
-3.093711 -2.618385 0.029746 0
-3.101631 -2.617347 0.028064 0
-3.119607 -2.631331 0.017874 0
-3.126750 -2.630774 0.016189 0
-3.169916 -2.680098 -0.014415 0
-3.173621 -2.673054 -0.012694 0
-3.129404 -2.597886 0.028156 0
-3.151298 -2.617829 0.014564 0
-3.190907 -2.660678 -0.012635 0
-3.149630 -2.592221 0.024809 0
-3.161840 -2.596743 0.019725 0
-3.167625 -2.592476 0.019746 0
-3.176906 -2.594601 0.016361 0
-3.217249 -2.636760 -0.010835 0
-3.183520 -2.580580 0.019802 0
-3.226616 -2.625136 -0.009093 0
-3.240776 -2.632538 -0.015877 0
-3.244473 -2.625120 -0.014155 0
-3.245625 -2.615061 -0.010733 0
-3.244207 -2.602386 -0.005611 0
-3.216289 -2.555249 0.019921 0
-3.219395 -2.548166 0.021641 0
-3.265559 -2.594699 -0.008950 0
-3.223226 -2.531177 0.026783 0
-3.297138 -2.611084 -0.024214 0
-3.235806 -2.525618 0.025121 0
-3.241067 -2.521297 0.025141 0
-3.292915 -2.572380 -0.008846 0
-3.251282 -2.512817 0.025181 0
-3.313094 -2.574383 -0.015606 0
-3.320871 -2.572549 -0.017285 0
-3.331007 -2.573430 -0.020664 0
-3.312249 -2.541822 -0.003642 0
-3.332078 -2.553404 -0.013821 0
-3.280220 -2.483346 0.027005 0
-3.340118 -2.541588 -0.012079 0
-3.333422 -2.523359 -0.003557 0
-3.353412 -2.534662 -0.013735 0
-3.356282 -2.527239 -0.012013 0
-3.308059 -2.463471 0.025408 0
-3.376561 -2.528436 -0.018769 0
-3.391366 -2.534530 -0.025548 0
-3.384625 -2.516135 -0.017025 0
-3.345165 -2.463850 0.013593 0
-3.379939 -2.490835 -0.006783 0
-3.395024 -2.496539 -0.013560 0
-3.412922 -2.504532 -0.022035 0
-3.347709 -2.426632 0.025577 0
-3.412964 -2.484460 -0.015193 0
-3.506395 -2.570416 -0.074656 2
-3.395574 -2.445850 0.003549 0
-3.369810 -2.410264 0.023964 0
-3.433327 -2.464596 -0.015102 0
-3.425577 -2.446778 -0.006582 0
-3.448540 -2.459663 -0.018455 0
-3.391476 -2.393796 0.022351 0
-3.463755 -2.454588 -0.021808 0
-3.442817 -2.424216 -0.004792 0
-3.406062 -2.378909 0.022418 0
-3.465674 -2.426650 -0.013242 0
-3.473210 -2.424025 -0.014918 0
-3.404240 -2.349426 0.032679 0
-3.427353 -2.361880 0.020807 0
-3.479688 -2.401372 -0.009753 0
-3.479203 -2.391277 -0.006331 1
-3.444263 -2.349066 0.019177 0
-3.497025 -2.387989 -0.011380 0
-3.496202 -2.378151 -0.007960 0
-3.492878 -2.365648 -0.002840 0
-3.457104 -2.324202 0.022665 0
-3.458954 -2.316704 0.024386 0
-3.515073 -2.357135 -0.007866 0
-3.462549 -2.301717 0.027829 0
-3.538056 -2.358415 -0.016312 0
-3.545706 -2.355138 -0.017985 0
-3.462187 -2.274545 0.036390 0
-3.483110 -2.283526 0.026222 0
-3.501349 -2.290038 0.017753 1
-3.558475 -2.329047 -0.014492 0
-3.551923 -2.314323 -0.007675 0
-3.509026 -2.269632 0.021220 0
-3.563745 -2.305760 -0.009325 0
-3.562626 -2.295715 -0.005904 0
-3.510385 -2.245171 0.028081 0
-3.573898 -2.287599 -0.007556 0
-3.533070 -2.245909 0.019638 0
-3.588850 -2.280533 -0.010901 0
-3.609880 -2.288989 -0.021067 0
-3.517756 -2.206943 0.036691 0
-3.604864 -2.266052 -0.012525 0
-3.548979 -2.214010 0.023155 0
-3.544107 -2.202533 0.028270 0
-3.617434 -2.249748 -0.012453 0
-3.613057 -2.237550 -0.007335 0
-3.565139 -2.192820 0.023249 0
-3.566330 -2.185189 0.024970 0
-3.617018 -2.214142 -0.002167 0
-3.632874 -2.217057 -0.008933 0
-3.578485 -2.168728 0.025043 0
-3.647089 -2.209874 -0.012277 0
-3.665963 -2.214673 -0.020739 0
-3.584564 -2.147939 0.028510 0
-3.638792 -2.177935 -0.000320 0
-3.666561 -2.188848 -0.013873 0
-3.596327 -2.131289 0.028583 0
-3.674707 -2.177188 -0.013822 0
-3.645891 -2.148802 0.004872 0
-3.673589 -2.159649 -0.008681 0
-3.611548 -2.109180 0.028680 0
-3.696572 -2.158030 -0.017115 0
-3.637229 -2.109950 0.018548 0
-3.629136 -2.095959 0.025361 0
-3.690261 -2.128290 -0.006856 0
-3.700205 -2.126336 -0.010224 0
-3.646253 -2.083061 0.022041 0
-3.677415 -2.094899 0.006796 0
-3.696453 -2.098758 -0.001662 0
-3.651206 -2.061903 0.025510 1
-3.688618 -2.077280 0.006872 0
-3.729235 -2.094320 -0.013461 0
-3.655898 -2.040758 0.028978 0
-3.659463 -2.034973 0.029003 0
-3.728043 -2.068641 -0.006596 0
-3.747223 -2.071947 -0.015052 0
-3.679369 -2.023118 0.023990 0
-3.745202 -2.054186 -0.009910 0
-3.745692 -2.046254 -0.008188 0
-3.667915 -1.992707 0.035939 0
-3.686991 -1.995951 0.027484 0
-3.756382 -2.027922 -0.008109 0
-3.769348 -2.027164 -0.013170 0
-3.731857 -1.997828 0.008904 0
-3.681539 -1.961687 0.037761 0
-3.745001 -1.989236 0.005565 0
-3.710310 -1.962164 0.025941 0
-3.754930 -1.978770 0.003921 0
-3.783762 -1.986446 -0.009618 0
-3.787138 -1.980216 -0.009591 0
-3.777703 -1.967159 -0.002782 0
-3.787418 -1.964335 -0.006147 0
-3.781089 -1.953048 -0.001033 0
