# .PCD v.7 - Point Cloud Data file format
VERSION .7
FIELDS x y z intensity
SIZE 4 4 4 1
TYPE F F F U
COUNT 1 1 1 1
WIDTH 1457
HEIGHT 1
VIEWPOINT 0 0 0 1 0 0 0
POINTS 1457
DATA ascii
15.761568 -6.931428 0.798170 104
15.212499 -6.882477 0.801769 8
15.049246 -6.890042 0.802708 8
14.853864 -6.891955 0.803872 4
14.863442 -6.961384 0.803402 1
14.443199 -6.877924 0.806421 1
14.419918 -6.931065 0.806243 1
14.310010 -6.952668 0.806772 21
14.321939 -7.024837 0.806267 13
14.300878 -7.081774 0.806050 3
14.354501 -7.166782 0.805215 30
13.451509 -6.885947 0.812302 8
13.438407 -6.942712 0.812034 64
13.409135 -6.996364 0.811881 30
13.425420 -7.064709 0.811365 24
13.426538 -7.127351 0.810974 52
13.412552 -7.184133 0.810707 24
13.436532 -7.253180 0.810138 91
13.377642 -7.291920 0.810246 99
13.377843 -7.354700 0.809854 30
13.942828 -7.652627 0.804666 10
13.930640 -7.712885 0.804361 9
13.936636 -7.780950 0.803899 9
13.427635 -7.689286 0.807462 1
13.959027 -8.051643 0.802056 24
13.901491 -8.092678 0.802131 16
13.902247 -8.159610 0.801699 21
13.837152 -8.196914 0.801839 24
13.529519 -8.119672 0.804124 15
13.440509 -8.140979 0.804503 63
13.422810 -8.198208 0.804236 54
13.413231 -8.265882 0.803853 57
13.416753 -8.333355 0.803395 76
13.406847 -8.391344 0.803074 64
13.421944 -8.461514 0.802529 49
13.406661 -8.520555 0.802230 28
25.846617 -14.812059 0.689442 10
25.615818 -14.818002 0.690724 10
25.375767 -14.823679 0.692059 9
25.126602 -14.811060 0.693566 9
24.893217 -14.810758 0.694898 9
24.649508 -14.803483 0.696333 9
24.438097 -14.811326 0.697482 13
24.188019 -14.797376 0.698994 13
23.967758 -14.803254 0.700202 8
23.738512 -14.791167 0.701579 8
23.514273 -14.785963 0.702880 12
23.307953 -14.788920 0.704022 12
23.091406 -14.784835 0.705268 12
22.895100 -14.784741 0.706371 12
22.686190 -14.781966 0.707561 8
22.477604 -14.777902 0.708756 8
22.283268 -14.780437 0.709823 8
22.078796 -14.775833 0.710995 8
21.878120 -14.771966 0.712139 11
21.691605 -14.774899 0.713154 11
21.495003 -14.770638 0.714274 11
21.305613 -14.769238 0.715332 7
21.116520 -14.766685 0.716395 11
20.924299 -14.760924 0.717495 11
20.739250 -14.758125 0.718533 10
20.564751 -14.760446 0.719475 10
20.399729 -14.761990 0.720369 10
20.212137 -14.753851 0.721453 10
20.041849 -14.755149 0.722374 14
19.861662 -14.749043 0.723399 14
19.695309 -14.750405 0.724295 16
19.525841 -14.748623 0.725227 16
19.346556 -14.739338 0.726265 13
19.180065 -14.731796 0.727220 9
19.013861 -14.723303 0.728178 13
18.862272 -14.728478 0.728957 13
18.704233 -14.728348 0.729807 13
18.546450 -14.727283 0.730662 9
18.395567 -14.729746 0.731451 9
18.231672 -14.722351 0.732381 9
18.087902 -14.727509 0.733109 12
17.931160 -14.722765 0.733978 12
17.781273 -14.721650 0.734781 15
17.634918 -14.721947 0.735554 12
17.485531 -14.719088 0.736364 8
17.346197 -14.722290 0.737076 8
17.206215 -14.719011 0.737836 11
17.047836 -14.706614 0.738759 14
16.909220 -14.707351 0.739480 11
16.324829 -14.382072 0.744951 13
16.271626 -14.441220 0.744788 21
16.263248 -14.533468 0.744143 10
16.350658 -14.697531 0.742462 13
16.235628 -14.711071 0.742956 13
16.098398 -14.707087 0.743695 10
15.974144 -14.712008 0.744298 10
15.824691 -14.696749 0.745182 10
15.706436 -14.699538 0.745767 12
15.579658 -14.699851 0.746413 12
15.453094 -14.699447 0.747062 10
15.323609 -14.695847 0.747749 10
15.206886 -14.701468 0.748299 7
15.068481 -14.688940 0.749096 9
14.952168 -14.693192 0.749651 9
14.826720 -14.689233 0.750314 11
14.722469 -14.696843 0.750780 14
14.594354 -14.689013 0.751483 16
14.472654 -14.685562 0.752118 15
14.378807 -14.704511 0.752440 18
14.248303 -14.692068 0.753186 13
14.136396 -14.694397 0.753724 13
14.012501 -14.685726 0.754404 15
13.904032 -14.689393 0.754911 15
13.786659 -14.684617 0.755527 14
13.678560 -14.687074 0.756038 17
13.573643 -14.691582 0.756517 14
13.462893 -14.690226 0.757069 12
13.361305 -14.696243 0.757516 17
13.241996 -14.685698 0.758179 16
13.146115 -14.690607 0.758605 12
13.035569 -14.681582 0.759210 16
12.932285 -14.687986 0.759657 16
12.825106 -14.680510 0.760231 16
12.712825 -14.672321 0.760834 14
12.607167 -14.674258 0.761324 14
12.515199 -14.678764 0.761726 13
12.412266 -14.677075 0.762228 11
12.310033 -14.680094 0.762688 13
12.209856 -14.674816 0.763203 15
12.112747 -14.671804 0.763685 13
12.016780 -14.678775 0.764079 13
11.920010 -14.674764 0.764564 15
11.815347 -14.667051 0.765115 15
11.730759 -14.678522 0.765415 13
11.623652 -14.666923 0.766006 13
11.534122 -14.676989 0.766338 13
11.452700 -14.689939 0.766608 11
11.343395 -14.673880 0.767241 8
11.256250 -14.675004 0.767631 14
11.172414 -14.683759 0.767942 8
11.080380 -14.683427 0.768363 7
10.988510 -14.682620 0.768786 5
10.912921 -14.693627 0.769038 5
10.813125 -14.683185 0.769574 3
10.727189 -14.686847 0.769929 1
10.641384 -14.690077 0.770287 1
10.566534 -14.704659 0.770500 1
10.551028 -14.783908 0.769911 1
10.186104 -14.477775 0.774074 1
44.495068 -57.682503 0.262179 39
44.472797 -58.859833 0.252234 40
44.467850 -59.248096 0.248934 40
44.264305 -59.409946 0.248391 40
43.184608 -58.478680 0.260832 39
43.311134 -59.055367 0.255358 40
43.279800 -59.434471 0.252226 40
42.997551 -59.490734 0.252892 40
42.863590 -59.739620 0.251288 40
42.873474 -60.179489 0.247448 40
42.806240 -60.521091 0.244764 40
42.440197 -60.465694 0.246712 40
42.407330 -60.834332 0.243646 40
42.239586 -61.023113 0.242673 40
41.752472 -60.820084 0.246371 40
31.043888 -55.110447 0.337155 32
30.256834 -55.954838 0.332318 32
26.949659 -62.988052 0.278547 36
26.696934 -62.982090 0.279354 36
26.534685 -63.171421 0.278074 36
26.181747 -62.972103 0.280966 35
25.897934 -62.920586 0.282274 35
25.719189 -63.101597 0.281106 35
25.361544 -62.879734 0.284207 35
19.461340 -58.450085 0.341879 30
19.059868 -58.598511 0.341494 30
18.858747 -58.671673 0.341305 30
18.753057 -59.011517 0.338346 31
18.469090 -58.853596 0.340547 31
18.609915 -63.337158 0.297553 34
18.510307 -63.769901 0.293659 34
18.364901 -64.069481 0.291138 34
17.721483 -62.814148 0.304605 33
17.580227 -63.119122 0.302013 33
17.429945 -63.400948 0.299658 33
17.399073 -64.076248 0.293267 34
17.357908 -64.732948 0.287072 34
16.527346 -62.773479 0.307671 33
16.277584 -62.722725 0.308703 33
16.107687 -62.902000 0.307352 33
16.316650 -64.436600 0.292178 34
16.039248 -64.303970 0.294042 34
15.794400 -64.281845 0.294770 34
15.509284 -64.112328 0.296995 34
4.065964 -23.801092 0.708351 8
3.881440 -24.076529 0.706064 43
3.802870 -24.104677 0.705945 28
3.727059 -24.144205 0.705710 51
3.684223 -24.319490 0.704099 48
3.631823 -24.459753 0.702843 30
3.371321 -23.724150 0.710442 44
3.299291 -23.773926 0.710094 46
3.250635 -23.908331 0.708883 37
3.173347 -23.938225 0.708733 77
3.093643 -23.976557 0.708505 34
3.036262 -24.079290 0.707611 11
2.956576 -24.100641 0.707544 8
2.861130 -24.451912 0.704301 6
2.727382 -24.213987 0.706837 2
2.651885 -24.257803 0.706538 5
2.517573 -24.435026 0.705036 21
2.439154 -24.445948 0.705057 15
2.345347 -24.374029 0.705906 28
2.477023 -25.557705 0.694181 100
2.347628 -25.377836 0.696133 37
2.083416 -24.368464 0.706368 5
1.897976 -24.213587 0.708156 31
1.820234 -24.246786 0.707947 46
1.746756 -24.307367 0.707464 17
1.585259 -23.810598 0.712541 5
1.665527 -24.862707 0.702162 39
1.568026 -24.808739 0.702825 24
1.459529 -24.618607 0.704830 54
1.372600 -24.598864 0.705141 46
1.797305 -29.708372 0.654650 4
0.789047 -23.284903 0.718742 7
0.768229 -23.795269 0.713775 8
0.693865 -23.848488 0.713344 27
0.565756 -23.400312 0.717884 36
0.569826 -24.112320 0.710909 27
0.498199 -24.204662 0.710087 22
0.318157 -23.262438 0.719520 55
0.218214 -23.087717 0.721343 50
0.143098 -23.115231 0.721156 42
0.083452 -23.309753 0.719314 10
0.013514 -23.404531 0.718458 7
-0.054862 -23.478828 0.717801 7
0.228415 -27.838268 0.674766 100
0.011095 -27.458334 0.678706 7
-0.106036 -27.186272 0.681487 3
-0.276391 -28.725090 0.666542 8
-0.384835 -28.531292 0.668539 3
-0.723367 -25.793926 0.695699 3
-0.680151 -28.398876 0.670085 3
-0.880386 -28.187622 0.672316 3
-0.917795 -29.714209 0.657351 12
-1.141626 -26.104101 0.692976 16
-1.221727 -26.206758 0.692024 16
-1.386468 -23.406509 0.719648 22
-1.465000 -23.392521 0.719839 5
-1.537139 -23.686178 0.717000 5
-1.578080 -25.943224 0.694850 26
-1.666051 -25.872555 0.695598 26
-1.855341 -23.430450 0.719705 26
-1.933536 -23.442818 0.719626 34
-2.495581 -24.097569 0.713456 16
-2.578332 -24.183666 0.712643 13
-2.680239 -24.921171 0.705435 12
-2.722661 -23.635368 0.718081 7
-2.840379 -24.844036 0.706247 8
-2.925862 -24.900911 0.705714 27
-2.980823 -24.130085 0.713301 24
-3.055261 -24.078758 0.713825 16
-3.203364 -23.827181 0.716331 10
-3.278767 -23.819071 0.716426 44
-3.353825 -23.738607 0.717230 13
-3.693484 -25.175552 0.703177 3
-3.768306 -25.098000 0.703946 3
-12.828490 -61.259628 0.348113 30
-12.955408 -60.826019 0.352268 30
-13.157500 -60.752029 0.352880 30
-13.366626 -60.659657 0.353662 30
-13.673113 -61.126129 0.348951 30
-13.885963 -61.100716 0.349072 30
-14.103292 -61.151157 0.348448 30
-14.244871 -60.775478 0.352007 30
-18.484838 -25.367027 0.680001 4
-18.629494 -25.215092 0.680942 21
-18.677418 -25.104282 0.681784 8
-18.800295 -25.101688 0.681464 13
-18.916456 -25.088713 0.681251 4
-18.965618 -24.803959 0.683606 13
-17.823116 -23.039309 0.702296 3
-19.588617 -25.316740 0.677340 9
-17.700718 -22.550188 0.706916 3
-17.846821 -22.591959 0.706127 52
-17.907751 -22.517221 0.706598 33
-17.922934 -22.381390 0.707733 18
-17.236082 -21.311731 0.719037 13
-17.352665 -21.319038 0.718627 54
-18.093023 -21.991983 0.710594 10
-18.156349 -21.923021 0.710997 3
-21.108953 -25.565529 0.670674 5
-21.192051 -25.495531 0.671022 5
-20.293177 -24.182232 0.685053 4
-20.391350 -24.140148 0.685110 39
-21.464817 -25.315067 0.671727 15
-19.582752 -22.809649 0.699002 56
-21.151651 -24.426117 0.680292 4
-20.272358 -23.036072 0.694897 16
-21.565020 -24.426834 0.678971 23
-21.669792 -24.385939 0.678981 9
-22.387541 -25.067673 0.670901 63
-19.838820 -21.905706 0.705856 23
-19.894943 -21.831272 0.706301 11
-19.629707 -21.378624 0.710978 18
-19.385195 -20.955215 0.715339 100
-19.240883 -20.650976 0.718368 45
-19.293406 -20.572699 0.718849 59
-19.414762 -20.571953 0.718451 35
-20.220043 -21.332850 0.709402 19
-20.304245 -21.283968 0.709526 7
-19.265972 -20.000912 0.723711 27
-19.269983 -19.872690 0.724762 57
-19.804882 -20.320908 0.719221 32
-19.937485 -20.328972 0.718700 21
-19.381756 -19.600262 0.726635 42
-19.347773 -19.434666 0.728119 27
-20.053368 -20.050123 0.720601 31
-20.031273 -19.894440 0.721959 21
-22.617769 -22.451603 0.691915 36
-22.297255 -21.971563 0.696976 8
-20.730145 -20.226078 0.716785 41
-20.118845 -19.469957 0.725127 35
-20.225327 -19.449259 0.724917 100
-20.817348 -19.915522 0.719008 36
-20.826548 -19.793238 0.719968 10
-21.116499 -19.949745 0.717655 7
-21.148237 -19.849249 0.718354 78
-21.113689 -19.684486 0.719811 29
-21.517563 -19.946226 0.716229 18
-21.618086 -19.911276 0.716143 34
-22.317011 -20.448082 0.709262 32
-22.561638 -20.545055 0.707583 20
-22.793800 -20.491257 0.707153 20
-30.170124 -27.031706 0.627478 8
-21.330523 -18.620979 0.727518 14
-21.409647 -18.569492 0.727627 66
-23.390490 -20.225214 0.707023 17
-22.047585 -18.768288 0.723629 37
-22.094397 -18.684998 0.724104 11
-25.377153 -21.426645 0.689966 20
-25.442202 -21.339682 0.690395 5
-25.591812 -21.325573 0.689926 5
-28.833014 -23.960827 0.656774 6
-24.445740 -20.074718 0.704134 4
-26.311718 -21.361244 0.686835 5
-25.659561 -20.675600 0.694709 4
-28.804344 -23.130499 0.663323 6
-25.418024 -19.935339 0.701367 9
-25.430864 -19.810940 0.702268 4
-25.953453 -19.828043 0.700032 14
-24.869457 -18.713825 0.712888 4
-24.705992 -18.467293 0.715419 12
-24.814461 -18.424320 0.715300 42
-24.827076 -18.301954 0.716170 12
-19.848957 -14.440230 0.765680 7
-19.882874 -14.368275 0.766080 20
-19.932575 -14.308153 0.766324 7
-24.934313 -17.890778 0.718806 28
-24.030445 -17.107670 0.728405 50
-24.099424 -17.040062 0.728619 19
-24.168200 -16.972170 0.728835 19
-24.340923 -16.978390 0.728063 31
-24.432386 -16.925758 0.728067 15
-25.681307 -17.681213 0.717226 12
-25.152317 -17.188511 0.723088 8
-25.258400 -17.148115 0.722934 12
-24.892815 -16.776554 0.727210 40
-24.824894 -16.606827 0.728739 27
-28.319317 -18.858728 0.697374 10
-30.814072 -20.410490 0.675387 19
-26.002544 -17.057178 0.720410 4
-32.995541 -21.573381 0.657564 7
-26.102753 -16.869816 0.721331 12
-24.690771 -15.828108 0.734956 22
-33.665798 -21.535845 0.654927 7
-25.780901 -16.315603 0.726712 4
-28.312946 -17.302092 0.708571 5
-42.803093 -25.661839 0.585401 13
-42.597218 -25.344515 0.588543 13
-28.911518 -17.017097 0.707913 5
-31.514000 -18.162165 0.688266 6
-34.661324 -19.822830 0.662581 7
-28.739355 -16.295773 0.713694 4
-40.867752 -23.053902 0.612223 11
-41.007191 -22.953382 0.612281 11
-28.296419 -15.565547 0.720718 13
-28.378597 -15.490983 0.720851 37
-35.519032 -19.097311 0.663641 8
-29.383694 -15.548698 0.715845 5
-29.356791 -15.290576 0.717704 14
-37.549404 -19.249647 0.653235 8
-33.747005 -17.153107 0.684884 7
-33.081551 -16.678665 0.691137 6
-49.556923 -24.781439 0.560529 19
-32.911427 -16.330044 0.694237 6
-32.434902 -15.830338 0.699760 12
-51.212940 -24.766653 0.552854 21
-49.300381 -23.630434 0.569293 18
-53.426945 -25.393831 0.538314 25
-53.480328 -25.177498 0.539466 25
-34.827522 -16.284946 0.685495 7
-35.418266 -16.417999 0.681829 22
-35.395405 -16.266371 0.682914 7
-34.793484 -15.860353 0.688390 14
-34.678288 -15.677860 0.690108 14
-35.526108 -15.917794 0.684521 15
-48.691303 -21.573071 0.585439 33
-34.821499 -15.324336 0.691672 21
-34.786770 -15.173222 0.692796 49
-50.697323 -21.639290 0.575367 19
-51.278053 -21.682629 0.572289 20
-47.200027 -19.602724 0.605028 14
-48.194515 -19.823345 0.598828 14
-46.200829 -18.832222 0.614666 13
-46.248512 -18.681103 0.615367 13
-48.675869 -19.461321 0.598720 15
-57.520233 -22.731922 0.535427 29
-47.091297 -18.472326 0.612531 13
-49.034523 -19.035919 0.599570 15
-54.127750 -20.778431 0.563973 23
-49.567379 -18.860228 0.598020 16
-45.567139 -17.178036 0.627879 12
-49.047951 -18.282412 0.604066 15
-49.146297 -18.141321 0.604428 15
-45.241848 -16.552776 0.633241 12
-50.191105 -18.131426 0.599319 16
-50.255135 -17.974178 0.599938 16
-51.417313 -18.188946 0.592896 18
-60.578674 -21.142977 0.529900 31
-49.105431 -17.027239 0.611250 14
-49.032108 -16.819408 0.612837 14
-52.595913 -17.624418 0.590339 19
-49.954369 -16.369070 0.610850 15
-25.599571 -8.482953 0.778541 15
-25.566925 -8.386754 0.779259 65
-25.472397 -8.177714 0.780932 3
-25.164028 -7.995398 0.783525 3
-26.383190 -8.274423 0.775790 3
-26.400692 -8.187012 0.776196 3
-26.327078 -7.981278 0.777727 3
-26.294687 -7.875774 0.778483 3
-26.556185 -7.861733 0.777235 3
-27.232626 -7.860735 0.773803 3
-27.736713 -7.896234 0.771042 3
-26.141491 -7.294291 0.782480 3
-26.322115 -7.250681 0.781797 3
-26.366987 -7.171619 0.781998 3
-25.574915 -6.622716 0.789018 54
-27.457163 -6.882590 0.777964 3
-100.613548 -23.349663 0.314338 45
-187.063080 -36.217861 -0.199275 45
-195.753159 -32.986881 -0.228204 45
-54.633881 -9.515322 0.623586 19
-54.422203 -9.293508 0.625784 19
-54.296597 -9.086691 0.627455 19
-54.520821 -8.943060 0.626987 19
-54.348953 -8.739676 0.628875 19
-54.573544 -8.585385 0.628450 19
-54.501892 -8.378764 0.629823 19
-75.781502 -11.098879 0.505368 40
-75.586273 -10.810678 0.507771 40
-55.277863 -4.557539 0.643360 20
-54.915798 -4.329474 0.646272 19
-63.281223 -2.933811 0.608061 30
-63.087318 -2.725007 0.609961 30
-63.109730 -1.434665 0.615152 30
-63.594833 -1.212197 0.613486 31
33.133537 4.846759 0.945155 11
33.189331 4.729890 0.944656 11
33.214119 4.601508 0.944128 11
33.152569 4.478490 0.943666 11
53.165531 5.655826 0.937914 40
53.291378 5.269948 0.936299 40
88.533928 8.975150 0.932719 63
88.544403 8.656519 0.931435 63
66.855080 4.399114 0.925701 54
75.771782 4.036661 0.919577 62
80.317787 3.467129 0.914911 63
80.300995 3.178131 0.913759 63
80.322456 2.905571 0.912654 63
80.352272 2.604524 0.911430 63
80.403801 2.333042 0.910313 63
80.430992 2.045976 0.909147 63
80.485168 1.759704 0.907969 63
70.865814 0.417404 0.907617 57
63.618519 -0.172330 0.909045 52
63.662834 -0.630209 0.907183 100
63.363941 -1.099719 0.905455 9
63.327320 -1.316308 0.904605 12
53.625725 -1.854872 0.907523 40
53.842434 -2.053105 0.906614 40
43.149036 -2.328340 0.911108 22
43.127296 -3.582398 0.906085 22
43.365627 -3.754829 0.905268 23
18.917452 -2.787460 0.921952 3
18.109943 -2.793483 0.922351 2
17.800900 -2.835906 0.922343 2
16.148029 -2.808972 0.923316 2
15.902596 -2.851056 0.923276 2
15.713118 -2.894175 0.923202 2
15.679307 -2.946779 0.923008 2
15.724147 -3.014294 0.922714 2
15.740198 -3.085109 0.922421 2
15.678019 -3.134181 0.922257 4
15.658241 -3.197491 0.922013 4
15.626723 -3.256095 0.921794 2
15.638241 -3.323275 0.921519 6
15.625470 -3.506453 0.920790 20
15.636922 -3.567747 0.920538 18
15.627465 -3.632372 0.920283 24
15.634057 -3.696287 0.920023 45
15.633468 -3.752898 0.919796 24
15.631234 -3.818763 0.919533 13
15.645546 -3.881056 0.919276 31
15.630995 -3.945055 0.919026 31
15.559437 -4.056137 0.918618 2
15.536914 -4.115326 0.918392 2
15.533324 -4.181000 0.918130 2
15.585691 -4.250689 0.917823 2
15.652940 -4.326784 0.917482 2
15.676650 -4.395135 0.917196 2
15.716405 -4.463656 0.916900 2
15.723283 -4.532454 0.916620 2
15.719379 -4.592788 0.916380 2
62.930157 -14.348005 0.852500 52
63.079010 -14.615469 0.851348 52
61.618710 -14.542334 0.852407 51
60.269203 -14.482841 0.853352 50
60.008488 -14.664557 0.852759 50
58.292130 -14.496655 0.854332 48
57.148651 -14.458014 0.855086 48
56.696045 -14.570819 0.854870 47
56.500401 -14.740913 0.854289 47
54.793007 -14.539302 0.855993 44
54.613277 -14.705507 0.855420 44
52.831848 -14.680727 0.856452 41
52.919556 -14.906361 0.855500 42
31.991037 -9.740952 0.887194 11
31.681677 -9.787002 0.887171 10
30.647476 -9.755514 0.887839 10
29.569853 -9.709723 0.888587 9
29.512358 -9.812344 0.888205 9
28.864819 -9.736278 0.888849 9
28.623480 -9.795224 0.888739 9
28.561186 -9.881361 0.888426 9
17.932751 -6.878880 0.906044 3
17.605482 -6.857110 0.906303 9
17.328400 -6.848140 0.906484 5
17.082226 -6.846653 0.906619 8
16.876551 -6.848745 0.906718 8
16.624989 -6.849493 0.906847 8
16.399630 -6.846020 0.906979 7
16.176279 -6.848682 0.907085 7
15.967624 -6.844086 0.907213 7
15.810356 -6.861889 0.907223 55
15.686329 -6.893091 0.907163 32
15.423048 -6.873266 0.907381 9
15.201785 -6.865834 0.907526 9
15.003485 -6.864730 0.907635 9
14.809181 -6.863628 0.907741 11
14.612341 -6.857015 0.907870 13
14.426022 -6.856044 0.907972 14
14.258736 -6.860606 0.908041 17
14.091619 -6.864071 0.908115 17
13.917170 -6.863685 0.908208 18
13.739169 -6.860761 0.908312 16
13.573641 -6.858162 0.908410 16
13.417487 -6.864162 0.908467 37
13.383080 -6.909535 0.908303 52
13.377350 -6.968969 0.908068 60
13.378843 -7.031346 0.907816 62
13.380088 -7.093807 0.907565 62
13.384799 -7.157832 0.907305 60
13.379202 -7.214793 0.907080 64
13.384512 -7.276306 0.906830 64
13.371474 -7.339895 0.906582 62
13.367790 -7.401182 0.906338 64
13.374932 -7.467161 0.906069 64
13.379253 -7.529024 0.905818 64
13.383333 -7.590986 0.905567 64
13.386013 -7.655732 0.905306 66
13.378594 -7.713102 0.905080 62
13.388096 -7.781223 0.904801 60
13.372989 -7.845128 0.904553 62
13.377026 -7.904832 0.904311 68
13.371124 -7.966702 0.904066 70
13.379536 -8.035254 0.903786 70
13.376754 -8.098932 0.903532 66
13.384599 -8.167732 0.903252 68
13.378766 -8.236947 0.902977 68
13.370480 -8.292068 0.902760 74
13.376208 -8.363870 0.902469 72
13.376996 -8.426970 0.902215 72
13.374926 -8.495522 0.901941 72
13.376507 -8.556109 0.901697 40
25.651062 -14.812169 0.870156 9
25.414536 -14.819901 0.870249 8
25.183146 -14.816596 0.870383 8
24.931870 -14.807500 0.870552 8
24.688099 -14.800489 0.870707 8
24.445852 -14.798409 0.870843 8
24.222952 -14.793033 0.870981 16
24.005047 -14.794612 0.871089 16
23.777994 -14.795569 0.871204 16
23.563133 -14.789923 0.871339 16
23.349710 -14.789336 0.871453 15
23.143620 -14.791272 0.871553 15
22.929724 -14.781786 0.871703 15
22.734741 -14.787019 0.871784 15
22.512119 -14.775399 0.871947 14
22.303808 -14.770273 0.872077 14
22.113207 -14.773771 0.872163 14
21.919413 -14.774113 0.872263 14
21.715527 -14.767252 0.872397 14
21.530596 -14.758996 0.872527 14
21.334263 -14.753804 0.872651 13
21.155457 -14.757616 0.872729 13
20.966610 -14.754189 0.872842 13
20.798624 -14.762001 0.872898 19
20.593264 -14.745963 0.873070 19
20.425817 -14.751637 0.873135 19
20.248396 -14.750009 0.873235 19
20.074659 -14.749421 0.873328 12
19.897808 -14.745666 0.873436 12
19.714491 -14.736570 0.873568 12
19.548378 -14.737104 0.873653 12
19.375793 -14.732327 0.873762 11
19.215977 -14.729324 0.873858 17
19.060728 -14.733455 0.873923 11
18.892332 -14.727891 0.874033 16
18.734243 -14.727937 0.874116 16
18.579741 -14.729265 0.874192 16
18.412195 -14.720766 0.874313 10
18.268158 -14.726952 0.874364 10
18.111103 -14.723289 0.874461 15
17.947727 -14.714170 0.874583 15
17.817560 -14.726832 0.874600 15
17.658010 -14.718172 0.874719 15
17.520800 -14.718949 0.874787 10
17.365080 -14.710804 0.874902 9
17.229202 -14.715664 0.874953 9
17.087029 -14.715077 0.875030 9
16.948338 -14.716010 0.875099 14
16.347467 -14.379449 0.876765 8
16.297497 -14.441046 0.876544 30
16.237667 -14.495326 0.876357 21
16.330875 -14.658400 0.875654 4
16.302362 -14.736696 0.875354 4
16.216061 -14.771579 0.875259 4
16.161579 -14.830238 0.875052 4
77.004181 -61.531929 0.655721 63
72.117935 -58.200993 0.671651 63
75.869141 -61.529766 0.656324 63
75.714142 -61.845589 0.655138 63
75.331718 -61.982765 0.654787 63
76.474861 -63.329330 0.648783 63
75.500900 -62.998310 0.650622 63
75.100281 -63.120422 0.650342 63
65.131508 -61.084057 0.663736 63
65.032722 -61.439503 0.662361 63
64.873466 -61.699085 0.661402 63
64.626999 -61.922192 0.660636 63
64.861336 -62.566162 0.657928 63
64.886635 -63.022156 0.656084 63
58.435860 -57.435966 0.681886 63
58.143505 -57.537457 0.681632 63
58.335171 -58.115463 0.679211 63
36.231674 -37.465355 0.773680 36
36.394096 -37.851109 0.772046 36
36.313499 -38.044395 0.771313 36
35.817780 -37.808655 0.772519 35
11.884964 -14.717077 0.877746 2
11.839905 -14.768280 0.877564 27
35.135250 -38.441154 0.770337 35
57.606281 -61.908577 0.664366 63
57.301365 -62.021622 0.664072 63
57.813156 -62.979359 0.659959 63
57.662945 -63.257069 0.658923 63
56.347321 -62.290115 0.663494 63
56.303719 -62.695404 0.661890 63
55.885296 -62.660969 0.662247 63
56.586380 -63.845577 0.657125 63
55.988888 -63.663612 0.658168 63
55.973064 -64.064613 0.656566 63
55.671726 -64.177979 0.656269 63
43.285576 -56.922539 0.691880 57
43.774467 -57.910728 0.687657 58
44.526806 -59.260857 0.681843 59
43.950371 -58.952831 0.683382 58
43.203831 -59.253887 0.682564 58
42.954704 -59.310089 0.682469 58
42.588032 -59.253868 0.682887 58
42.526760 -59.617542 0.681459 58
42.290627 -59.731102 0.681127 58
31.986866 -56.134945 0.700958 51
31.699499 -56.076767 0.701342 51
26.993177 -62.913258 0.676362 54
26.656704 -62.783257 0.677060 54
26.414957 -62.798000 0.677128 53
26.139421 -62.765774 0.677401 53
25.894085 -62.798004 0.677400 53
25.614569 -62.752594 0.677729 53
18.941799 -58.776073 0.697186 48
18.746815 -58.867649 0.696920 48
18.489901 -63.560505 0.678216 52
18.350321 -63.875198 0.677026 52
18.064974 -63.740124 0.677718 52
17.813368 -63.706802 0.677983 52
17.397720 -63.145584 0.680454 51
17.427116 -64.011780 0.676961 52
17.141361 -63.902710 0.677549 52
17.061766 -64.394852 0.675615 52
16.345078 -62.793015 0.682420 51
16.067442 -62.645561 0.683158 50
16.477127 -64.867630 0.674023 52
16.049818 -64.216354 0.676861 52
15.858406 -64.382919 0.676293 52
4.000458 -23.811142 0.845368 4
3.950007 -23.944227 0.844860 4
3.914562 -24.139240 0.844096 5
3.768443 -24.242079 0.843760 45
3.700658 -24.316469 0.843497 41
3.783308 -25.016735 0.840642 66
3.347159 -23.517080 0.846891 60
3.290469 -23.629082 0.846471 23
3.246644 -23.836344 0.845662 47
3.164319 -23.842815 0.845679 28
3.131556 -24.071541 0.844778 19
3.087389 -24.216482 0.844219 70
2.968632 -24.078564 0.844835 58
2.843383 -24.264568 0.844154 75
2.750983 -24.226473 0.844355 19
2.862736 -25.668709 0.838507 17
2.540438 -24.443808 0.843593 55
2.453413 -24.432007 0.843686 20
2.366840 -24.444241 0.843682 15
2.318136 -24.640339 0.842920 71
2.359144 -25.319902 0.840171 71
2.367786 -25.866812 0.837971 34
2.208201 -25.484503 0.839589 11
2.184560 -25.865875 0.838071 23
1.823274 -24.214819 0.844888 100
1.752939 -24.242510 0.844813 34
1.658742 -24.172499 0.845144 42
1.674981 -24.813671 0.842561 30
1.456016 -23.952858 0.846132 41
1.478421 -24.661278 0.843276 50
1.389623 -24.629723 0.843449 40
1.197820 -23.889317 0.846522 23
1.030486 -23.823322 0.846874 4
0.808515 -23.992771 0.846310 92
0.718877 -23.922993 0.846637 31
0.644616 -23.911554 0.846722 76
0.506304 -24.128292 0.845925 13
0.180408 -23.337557 0.849269 37
0.096995 -23.245108 0.849684 12
0.501727 -28.562389 0.828127 14
-0.032470 -23.554083 0.848512 25
0.248927 -27.857718 0.831088 13
0.246140 -28.997751 0.826513 7
0.165931 -29.168562 0.825870 7
-0.169890 -26.000847 0.838762 5
-0.065514 -28.684219 0.827935 7
-0.203913 -29.647478 0.824141 15
-0.349148 -28.806776 0.827592 29
-0.700549 -25.897882 0.839453 22
-1.046600 -25.837492 0.839876 5
-1.207946 -26.223352 0.838412 11
-1.305421 -25.886099 0.839817 5
-1.446953 -23.649059 0.848871 8
-1.467728 -26.430220 0.837718 5
-1.518663 -28.595575 0.829052 7
-1.651672 -25.965366 0.839680 5
-1.736398 -25.778397 0.840475 5
-1.833846 -24.819227 0.844376 5
-1.916992 -24.799664 0.844498 5
-2.078287 -24.627680 0.845273 34
-2.159768 -24.491268 0.845863 9
-2.231244 -23.862646 0.848424 100
-2.315021 -23.865644 0.848456 83
-2.483560 -24.298792 0.846806 13
-2.568167 -24.777018 0.844930 85
-2.660827 -24.826639 0.844779 10
-2.745298 -24.868166 0.844657 5
-2.957461 -23.959845 0.848414 22
-3.034248 -23.972527 0.848404 4
-3.109390 -23.948996 0.848538 9
-3.191758 -23.912819 0.848726 67
-3.266559 -23.816662 0.849151 13
-3.331977 -23.572521 0.850165 51
-3.564137 -23.557611 0.850347 4
-3.659179 -23.831560 0.849297 4
-12.769509 -61.175121 0.704159 48
-12.937745 -60.908939 0.705316 48
-13.118901 -60.720966 0.706166 48
-13.336184 -60.728947 0.706247 48
-13.805913 -62.039951 0.701231 49
-13.763583 -60.703297 0.706574 48
-14.030100 -60.952080 0.705715 48
-14.255984 -61.045109 0.705460 48
-18.239231 -25.032160 0.852111 8
-18.506083 -25.063303 0.852126 16
-18.585358 -24.998960 0.852426 8
-19.517452 -25.963156 0.849043 8
-17.549038 -23.004953 0.859888 6
-19.120480 -25.048473 0.852507 16
-19.549055 -25.459936 0.851080 25
-17.935444 -23.058096 0.859877 6
-19.206306 -24.641554 0.854186 8
-17.776550 -22.520618 0.861951 99
-17.745548 -22.329851 0.862701 39
-17.172621 -21.405188 0.866113 11
-20.622107 -25.858255 0.850043 9
-19.487322 -24.008522 0.856874 7
-19.618549 -24.014017 0.856921 23
-18.601570 -22.515289 0.862405 48
-20.691864 -24.892773 0.853955 8
-20.339144 -24.274597 0.856252 16
-19.591743 -23.167435 0.860305 75
-20.293644 -23.886755 0.857785 16
-19.557707 -22.810480 0.861720 14
-19.764732 -22.910568 0.861427 7
-21.056089 -24.335037 0.856385 17
-19.843401 -22.696457 0.862328 22
-20.329979 -23.129818 0.860843 23
-21.519670 -24.398268 0.856374 8
-19.889341 -21.995234 0.865166 78
-19.129910 -20.823107 0.869474 6
-19.283571 -20.721079 0.869964 76
-19.256895 -20.552713 0.870626 100
-19.310940 -20.483425 0.870932 43
-19.050520 -20.056395 0.872510 24
-19.122858 -19.996744 0.872788 12
-19.181437 -19.803017 0.873596 52
-19.867504 -20.416649 0.871492 32
-19.918781 -20.336567 0.871840 31
-19.874147 -20.154058 0.872550 51
-19.935347 -20.085722 0.872856 19
-19.913763 -19.930077 0.873469 37
-20.700285 -20.622833 0.871100 55
-20.344620 -20.116095 0.872948 32
-22.733421 -22.452499 0.864820 75
-20.846109 -20.231335 0.872748 100
-20.098223 -19.334194 0.875958 49
-20.825445 -19.812508 0.874419 13
-20.856413 -19.582411 0.875359 32
-21.287216 -19.874384 0.874412 27
-21.321342 -19.776297 0.874824 20
-21.366537 -19.689306 0.875197 20
-22.723175 -20.858009 0.871215 31
-22.809690 -20.802088 0.871485 77
-22.829168 -20.682652 0.871975 31
-22.649164 -20.383636 0.873081 15
-22.755131 -20.340528 0.873309 7
-22.772512 -20.221804 0.873795 22
-22.966124 -20.265490 0.873721 61
-23.349077 -20.344131 0.873606 15
-23.368046 -20.239517 0.874036 46
-23.672640 -20.234724 0.874215 7
-30.528917 -25.793461 0.855490 12
-24.280853 -20.231863 0.874545 16
-24.281513 -20.083759 0.875139 8
-24.310820 -19.987759 0.875540 8
-26.262775 -21.501757 0.870485 9
-24.381592 -19.773674 0.876437 8
-24.595060 -19.692242 0.876875 8
-28.692413 -22.921883 0.866056 10
-28.617432 -22.697605 0.866917 10
-32.187809 -25.439316 0.857780 12
-36.283466 -28.554926 0.847418 20
-28.861134 -22.439829 0.868079 10
-24.808668 -18.949228 0.879970 16
-24.896305 -18.882732 0.880283 24
-25.018602 -18.849241 0.880481 16
-25.400955 -19.015057 0.880016 66
-25.508184 -18.973776 0.880238 24
-24.783255 -18.288286 0.882610 23
-19.860485 -14.459233 0.895403 8
-19.910494 -14.399200 0.895670 33
-19.939589 -14.333333 0.895950 8
-33.028584 -23.879416 0.864483 12
-25.463671 -18.042255 0.883954 16
-28.109919 -19.823278 0.878190 9
-28.360804 -19.878473 0.878099 9
-24.997999 -17.339594 0.886530 82
-25.031935 -17.243093 0.886936 22
-25.101536 -17.171766 0.887258 22
-30.668716 -20.915510 0.875145 10
-24.766844 -16.713991 0.888921 14
-24.837994 -16.645718 0.889232 21
-28.290852 -18.873745 0.882096 75
-25.957188 -17.154926 0.887774 23
-28.560690 -18.773907 0.882638 9
-25.979250 -16.927580 0.888698 15
-24.484442 -15.823176 0.892349 6
-24.569464 -15.766480 0.892621 6
-25.041821 -15.972031 0.892043 14
-25.956825 -16.435389 0.890662 22
-39.799160 -25.156294 0.862902 22
-32.807899 -20.556116 0.877708 11
-32.852207 -20.433546 0.878223 11
-28.189156 -17.245237 0.888580 18
-28.269487 -17.168386 0.888931 9
-41.224644 -24.934538 0.864539 24
-41.194939 -24.729153 0.865347 23
-28.758886 -17.079226 0.889545 9
-36.049477 -21.293318 0.876446 13
-31.470999 -18.435141 0.885522 10
-28.365732 -16.352839 0.892255 17
-28.429487 -16.266708 0.892634 8
-34.707199 -19.728773 0.882023 12
-28.708385 -16.173918 0.893153 17
-32.452667 -18.158125 0.887148 11
-28.216118 -15.414503 0.895943 8
-35.570232 -19.315411 0.884135 12
-32.377575 -17.424479 0.890054 32
-32.386658 -17.306290 0.890533 10
-28.414541 -15.047070 0.897522 59
-28.587219 -15.020010 0.897721 17
-29.465641 -15.360328 0.896815 72
-29.423172 -15.216556 0.897370 9
-33.120148 -16.992929 0.892175 11
-33.180870 -16.900532 0.892578 11
-45.554882 -23.011530 0.874525 29
-34.668091 -17.371771 0.891465 11
-40.636944 -20.182667 0.883306 19
-32.488682 -15.877098 0.896323 21
-32.529552 -15.765365 0.896793 10
-45.822002 -21.987707 0.878775 28
-34.355598 -16.369677 0.895324 11
-34.166451 -16.142618 0.896136 11
-33.461246 -15.677201 0.897635 10
-33.428688 -15.528732 0.898214 10
-39.964848 -18.385580 0.890168 16
-52.324711 -23.837637 0.874754 39
-50.503048 -22.807888 0.877934 36
-33.938850 -15.226691 0.899694 11
-34.007748 -15.130382 0.900116 11
-34.454250 -15.057441 0.900643 22
-51.261982 -22.113298 0.881119 37
-51.523125 -22.020859 0.881627 37
-41.111164 -17.444710 0.894545 17
-49.364117 -20.726025 0.885695 33
-46.121979 -19.187700 0.890172 27
-45.936958 -18.932402 0.891100 26
-46.252037 -18.889952 0.891436 27
-50.540905 -20.425098 0.887519 35
-47.238605 -18.922050 0.891823 29
-47.193443 -18.731071 0.892566 28
-48.739250 -19.148914 0.891698 31
-47.312252 -18.413702 0.893902 28
-54.125587 -20.810196 0.887850 40
-47.449772 -18.085302 0.895293 28
-47.336582 -17.862474 0.896128 28
-48.592766 -18.144300 0.895654 30
-45.976643 -17.017464 0.898808 25
-49.276577 -18.031260 0.896466 32
-45.194126 -16.392212 0.900908 24
-50.031841 -17.925226 0.897287 33
-55.032391 -19.487799 0.893633 41
-50.187401 -17.612223 0.898625 33
-52.005795 -18.043331 0.897847 36
-52.090599 -17.867588 0.898597 36
-49.655312 -16.863550 0.901352 31
-48.784218 -16.401844 0.902749 30
-48.837624 -16.238445 0.903433 30
-50.603210 -16.615404 0.902844 33
-48.891945 -15.885975 0.904877 30
-48.979153 -15.742356 0.905499 30
-51.841469 -16.438963 0.904201 35
-49.516865 -15.547348 0.906563 30
-25.444071 -8.093711 0.923880 5
-25.371569 -7.987361 0.924268 5
-26.351223 -8.186949 0.923980 5
-26.091845 -8.019323 0.924517 5
-26.300692 -7.988107 0.924752 5
-26.351810 -7.910864 0.925089 5
-26.141880 -7.755990 0.925601 5
-25.706314 -7.545353 0.926218 5
-28.315313 -8.164780 0.925098 7
-26.241695 -7.244211 0.927707 5
-26.294296 -7.167405 0.928043 5
-26.261271 -7.069017 0.928421 5
-25.684019 -6.837357 0.929049 5
-26.092966 -6.848706 0.929217 5
-25.700802 -6.578979 0.930095 63
-176.855484 -28.745821 0.920256 63
-151.169815 -18.886816 0.946383 63
-119.581848 -9.675483 0.966821 63
-119.608459 -9.306049 0.968318 63
-121.425728 -5.232395 0.985622 63
-121.299110 -4.831873 0.987163 63
-63.689041 -2.549312 0.966161 48
-63.993935 -2.340357 0.967160 49
-63.974171 -2.123524 0.968020 49
-63.949646 -1.906788 0.968877 49
-63.968365 -1.690713 0.969754 49
-63.890247 -1.484616 0.970541 49
-83.675987 -1.048682 0.982651 63
33.547256 5.670181 1.158474 8
33.220436 5.233861 1.154569 8
33.182945 5.100599 1.153705 8
33.255360 4.866249 1.152912 41
33.300385 4.740859 1.152525 18
33.354591 4.502917 1.151634 8
33.456696 4.392149 1.151624 8
90.404648 4.969704 1.453849 63
80.367767 3.179600 1.393078 2
80.470512 2.881841 1.392340 63
80.391090 2.604297 1.390733 63
80.543129 2.322344 1.390335 63
80.518326 2.032866 1.388977 63
80.516495 1.744407 1.387750 63
71.097244 0.918079 1.334500 63
70.831650 0.656653 1.332009 63
70.793076 0.401556 1.330749 63
70.765396 0.159642 1.329607 63
70.749077 -0.094616 1.328478 63
63.136898 -1.555710 1.282335 63
53.892773 -1.869939 1.232211 50
53.801670 -2.053649 1.231010 50
43.252594 -2.008365 1.175411 21
43.220882 -2.165609 1.174633 65
43.132648 -2.321031 1.173567 21
43.310349 -2.642807 1.173275 22
43.147038 -3.110533 1.170646 21
43.262737 -3.440587 1.170028 34
43.317562 -3.745044 1.169196 22
83.605171 -6.782687 1.370710 63
82.388596 -6.981962 1.363573 63
81.372940 -7.217387 1.357371 63
81.043739 -7.484468 1.354681 63
80.976814 -7.770735 1.353311 63
18.590029 -2.763890 1.042317 2
18.041927 -2.787949 1.039346 1
17.226732 -2.787079 1.035057 1
16.408455 -2.773452 1.030797 1
15.737161 -2.775132 1.027260 1
15.775015 -2.838418 1.027241 1
15.824578 -2.903235 1.027281 1
15.670436 -2.952463 1.026304 1
15.711629 -3.016425 1.026304 1
15.660490 -3.076239 1.025835 1
15.661149 -3.138825 1.025630 1
15.661966 -3.198359 1.025437 1
15.614575 -3.254962 1.025002 1
15.610233 -3.320025 1.024767 1
15.606475 -3.378940 1.024555 2
15.606060 -3.441473 1.024351 1
15.577698 -3.500120 1.024014 1
15.581254 -3.560112 1.023841 1
15.575784 -3.625119 1.023607 1
15.586823 -3.686385 1.023471 1
15.589269 -3.749598 1.023286 1
15.587535 -3.812233 1.023082 1
15.546097 -3.868480 1.022692 1
15.559724 -3.933638 1.022562 1
15.552872 -3.998646 1.022328 1
15.586253 -4.064342 1.022303 1
15.599154 -4.129886 1.022172 1
15.903111 -4.248082 1.023399 1
15.639961 -4.264250 1.021984 1
15.876795 -4.369131 1.022903 1
15.845352 -4.427760 1.022568 1
15.750896 -4.473987 1.021944 1
65.969048 -14.491888 1.253054 63
62.518280 -14.042142 1.236487 63
62.977871 -14.371124 1.237925 63
62.547176 -14.517620 1.235284 63
62.347092 -14.710383 1.233708 63
59.986855 -14.423234 1.222334 63
60.316246 -14.733724 1.223170 63
60.252388 -14.947669 1.222252 63
57.335064 -14.501741 1.208459 63
56.366306 -14.485320 1.203522 63
56.269833 -14.688190 1.202479 63
56.387623 -14.920250 1.202463 63
54.330189 -14.648790 1.192634 57
54.022015 -14.781403 1.190705 56
52.739445 -14.669127 1.184434 52
52.519379 -14.806444 1.182952 51
52.271885 -14.935499 1.181355 51
74.958908 -21.067766 1.281440 63
75.193665 -21.402508 1.281787 63
30.545042 -9.734951 1.083792 7
30.380854 -9.806164 1.082778 7
29.470661 -9.677246 1.078472 6
29.353960 -9.768881 1.077654 6
28.888294 -9.755271 1.075325 6
28.669203 -9.809042 1.074085 6
18.097767 -6.855519 1.027684 2
17.812494 -6.847753 1.026260 6
17.540043 -6.838083 1.024908 6
17.308987 -6.842738 1.023731 7
17.051359 -6.837674 1.022445 5
16.832220 -6.842699 1.021331 17
16.594194 -6.840291 1.020140 7
16.360229 -6.837501 1.018972 6
16.138956 -6.833649 1.017871 8
15.896860 -6.828473 1.016670 11
15.793891 -6.860346 1.016085 52
15.549426 -6.848043 1.014890 12
15.305267 -6.834105 1.013703 10
15.110656 -6.835268 1.012730 12
14.904902 -6.831242 1.011715 11
14.730626 -6.833440 1.010844 11
14.552749 -6.833221 1.009962 12
14.364476 -6.837781 1.009019 12
14.185974 -6.838040 1.008135 11
14.007672 -6.837125 1.007256 12
13.841854 -6.836409 1.006439 12
13.683720 -6.837441 1.005658 13
13.509756 -6.834581 1.004807 13
13.415576 -6.857649 1.004299 51
13.376427 -6.904276 1.004016 49
13.377141 -6.969253 1.003894 54
13.379683 -7.028946 1.003793 52
13.377218 -7.089937 1.003665 51
13.378230 -7.152466 1.003553 50
13.375282 -7.213581 1.003426 54
13.379505 -7.277765 1.003329 52
13.382363 -7.344739 1.003221 52
13.376083 -7.401847 1.003088 51
13.389479 -7.473629 1.003025 61
13.379045 -7.529303 1.002877 57
13.385655 -7.595521 1.002794 58
13.382132 -7.654427 1.002675 56
13.376048 -7.718748 1.002537 58
13.383045 -7.782577 1.002463 61
13.380092 -7.848652 1.002339 58
13.382916 -7.911063 1.002249 60
13.387927 -7.977901 1.002164 60
13.396297 -8.046518 1.002094 56
13.392239 -8.112945 1.001969 55
13.383142 -8.170692 1.001835 58
13.383439 -8.236237 1.001734 40
13.403496 -8.509788 1.001416 68
99.898445 -56.809628 1.337878 63
93.351135 -59.430099 1.305493 63
93.218147 -59.806705 1.304539 63
92.635391 -59.904152 1.301872 63
92.574997 -60.325508 1.301212 63
84.056137 -59.659084 1.264781 63
84.002625 -60.063255 1.264256 63
83.582176 -60.215195 1.262356 63
84.034660 -60.973236 1.263749 63
16.200188 -14.180552 1.008177 2
16.259439 -14.418511 1.008283 19
16.234211 -14.493250 1.008136 8
77.266823 -60.450169 1.235729 63
72.593315 -57.354027 1.218081 63
71.941238 -57.247578 1.215456 63
77.319618 -61.797600 1.235267 63
76.252014 -61.414246 1.231088 63
75.710205 -61.408325 1.228885 63
75.658424 -61.825901 1.228491 63
75.154800 -61.845356 1.226445 63
76.124420 -63.030937 1.229873 63
76.152779 -63.521717 1.229794 63
75.568108 -63.476990 1.227467 63
65.555168 -61.083920 1.188893 63
65.298988 -61.256924 1.187891 63
64.791206 -61.223660 1.185965 63
64.986420 -61.824753 1.186635 63
64.364609 -61.705456 1.184301 63
64.854591 -62.561825 1.186070 63
58.223900 -56.847656 1.161637 63
58.236263 -57.251335 1.161661 63
57.748177 -57.187279 1.159849 63
58.277962 -58.082970 1.161788 63
57.636868 -61.962822 1.159707 63
57.437241 -62.163116 1.159031 63
57.323074 -62.451954 1.158675 63
57.119667 -62.692070 1.158003 63
56.200760 -62.159275 1.154695 63
56.396420 -62.795174 1.155504 63
55.997009 -62.803238 1.154123 63
56.604687 -63.888931 1.156467 63
55.944691 -63.617577 1.154136 63
55.823288 -63.925476 1.153801 63
43.370663 -58.223373 1.110956 63
43.311211 -59.393654 1.111427 63
42.750694 -59.088890 1.109550 63
31.819735 -56.317730 1.077043 63
26.894484 -62.703712 1.073143 63
26.625103 -62.688095 1.072603 63
26.362869 -62.685886 1.072098 63
26.164034 -62.820911 1.071892 63
26.020565 -63.079254 1.071953 63
18.927464 -58.768906 1.054216 63
18.752382 -63.659763 1.061200 63
18.095961 -62.431446 1.058501 63
17.911013 -62.592564 1.058509 63
17.759104 -62.822083 1.058667 63
17.593861 -63.050873 1.058811 63
17.399855 -63.191441 1.058790 63
17.084934 -62.941505 1.058029 63
16.830236 -62.881470 1.057636 63
16.566978 -62.789764 1.057189 63
16.310282 -62.716148 1.056782 63
16.408310 -63.809067 1.058597 63
16.131014 -63.631550 1.058013 63
16.116800 -64.409813 1.059221 63
15.829896 -64.324898 1.058782 63
15.634519 -64.479248 1.058822 63
4.201991 -23.628729 0.982251 3
4.070817 -23.771959 0.982349 3
3.962747 -23.668184 0.982078 3
3.882526 -24.370384 0.983137 3
3.823280 -24.817846 0.983813 27
3.408417 -23.461443 0.981245 17
3.746978 -25.255898 0.984466 7
3.687806 -25.384878 0.984630 3
3.202263 -24.010735 0.981984 33
3.354191 -25.091692 0.983889 10
3.160714 -24.610064 0.982948 9
3.305558 -25.663301 0.984805 7
2.946954 -24.373762 0.982404 40
2.860513 -24.367392 0.982336 9
2.760551 -24.294083 0.982148 62
2.692535 -24.397654 0.982279 31
2.630242 -24.512003 0.982434 34
2.547453 -24.524096 0.982405 31
2.453445 -24.476948 0.982272 25
2.377835 -24.503384 0.982275 28
2.293173 -24.527142 0.982270 6
2.570110 -26.521696 0.985812 42
2.362761 -25.863802 0.984587 7
2.216807 -25.560307 0.983998 31
2.090232 -25.305931 0.983505 16
1.803885 -24.072229 0.981261 21
1.737199 -24.196587 0.981448 24
1.631011 -24.023151 0.981107 6
1.547645 -24.015921 0.981063 15
1.452621 -23.957571 0.980929 86
1.468493 -24.622469 0.982087 56
1.495369 -25.366329 0.983388 30
0.936707 -23.117680 0.979316 2
1.351114 -26.928131 0.986075 8
1.539655 -29.117878 0.989949 28
0.805626 -23.969101 0.980779 34
0.715343 -23.859118 0.980571 54
0.649355 -23.987665 0.980787 28
0.421343 -23.381252 0.979690 42
0.345775 -23.413437 0.979740 52
0.245186 -23.238817 0.979425 21
0.242671 -23.974670 0.980726 17
0.093148 -23.245619 0.979430 7
0.498046 -28.574957 0.988884 13
0.412611 -28.707039 0.989119 13
0.348952 -29.109915 0.989837 13
0.183491 -28.276638 0.988363 4
0.161654 -29.241289 0.990082 4
-0.170414 -26.053190 0.984432 7
-0.077617 -28.649160 0.989050 13
-0.388192 -26.781586 0.985760 3
-0.616452 -25.921555 0.984264 7
-0.701718 -25.958189 0.984348 21
-1.151269 -23.111668 0.979364 7
-1.225021 -23.322504 0.979765 18
-1.291172 -26.394060 0.985301 3
-1.485387 -25.790615 0.984292 14
-1.837276 -24.915407 0.982875 3
-1.916684 -24.867817 0.982828 3
-2.082780 -24.755817 0.982714 78
-2.161724 -24.195398 0.981750 28
-2.235417 -23.506731 0.980555 70
-2.312630 -23.697807 0.980944 27
-2.400073 -24.412540 0.982282 27
-2.484976 -24.370926 0.982261 6
-2.560866 -24.305208 0.982193 3
-2.647537 -24.350977 0.982333 3
-2.739966 -24.700403 0.983025 3
-2.825496 -24.661552 0.983016 3
-2.966571 -24.083717 0.982085 51
-3.039432 -24.000467 0.981993 8
-3.114273 -23.968925 0.981996 37
-3.284914 -24.076185 0.982329 2
-3.437326 -23.930920 0.982201 2
-3.505393 -23.746157 0.981932 2
-3.675116 -23.886686 0.982341 80
-3.747270 -23.780994 0.982221 55
-12.762093 -61.136158 1.059260 63
-13.002050 -61.263489 1.059851 63
-13.128049 -60.772495 1.059214 63
-13.523817 -61.719666 1.061455 63
-13.621041 -61.143078 1.060635 63
-13.800326 -60.892082 1.060505 63
-14.007453 -60.895763 1.060854 63
-17.974081 -24.810518 1.019410 4
-18.365067 -25.028940 1.021063 5
-18.629925 -25.235455 1.022232 5
-18.721178 -25.187126 1.022544 15
-18.745577 -25.033808 1.022521 5
-18.790819 -24.752737 1.022487 15
-17.677921 -23.016478 1.016902 25
-18.974754 -24.660931 1.023138 5
-19.073582 -24.624222 1.023500 30
-19.071068 -24.448099 1.023369 19
-17.602438 -22.276283 1.016091 12
-19.215109 -24.133316 1.023731 4
-18.328278 -22.783648 1.019316 4
-18.433084 -22.764812 1.019725 13
-18.467699 -22.653212 1.019796 34
-18.562582 -22.620993 1.020161 21
-19.584076 -23.788198 1.025008 9
-21.304041 -25.835699 1.033219 6
-19.581167 -23.298235 1.024718 4
-19.656336 -23.233599 1.024994 23
-19.641272 -23.056295 1.024837 4
-19.818586 -22.969866 1.025533 23
-19.896383 -22.901316 1.025825 18
-22.107204 -25.438732 1.036349 12
-22.171890 -25.343765 1.036578 6
-21.266914 -24.088173 1.032170 5
-21.300972 -23.965681 1.032261 5
-21.678280 -24.249153 1.033995 5
-20.500114 -22.704464 1.028303 4
-19.079418 -20.898281 1.021466 4
-19.204636 -20.763483 1.021956 52
-19.175827 -20.592070 1.021769 31
-19.193710 -20.475048 1.021806 23
-19.248219 -20.399973 1.022020 27
-19.100174 -20.092413 1.021271 30
-19.865509 -20.813566 1.024868 20
-19.819672 -20.351877 1.024535 36
-19.760258 -20.019533 1.024187 11
-19.807276 -19.937035 1.024380 11
-19.870447 -19.871859 1.024652 58
-20.367527 -20.127287 1.026955 20
-20.394625 -20.028906 1.027062 12
-21.287842 -20.806314 1.031268 45
-20.048216 -19.405817 1.025384 42
-20.204350 -19.307720 1.026092 27
-24.426943 -23.400726 1.046046 12
-21.538204 -20.389053 1.032376 78
-21.597658 -20.306089 1.032647 13
-21.504656 -20.081005 1.032200 8
-21.594034 -20.035091 1.032617 17
-21.645462 -19.958906 1.032857 13
-21.720118 -19.898514 1.033208 8
-22.641108 -20.642578 1.037562 47
-22.689615 -20.544830 1.037794 38
-22.716309 -20.440550 1.037924 19
-23.044540 -20.610685 1.039482 9
-22.793053 -20.234802 1.038302 14
-23.118460 -20.270674 1.039863 9
-23.121780 -19.998758 1.039910 14
-31.716330 -27.543728 1.080588 10
-26.142139 -22.417469 1.054239 6
-24.330992 -20.673475 1.045692 5
-26.670425 -22.580059 1.056792 13
-24.540155 -20.580019 1.046735 10
-25.605747 -21.353533 1.051813 100
-25.545870 -21.159212 1.051562 5
-25.426996 -20.916361 1.051033 5
-24.306585 -19.837835 1.045756 5
-25.507053 -20.703535 1.051488 5
-28.519110 -23.068655 1.065819 7
-25.705254 -20.596561 1.052509 5
-33.071766 -26.507231 1.087528 11
-33.163643 -26.401142 1.088025 11
-26.879890 -21.124954 1.058233 6
-24.210171 -18.719072 1.045640 19
-33.725113 -26.129881 1.090965 11
-24.418043 -18.623919 1.046735 4
-29.066076 -22.121500 1.068931 7
-24.709114 -18.477467 1.048289 82
-24.712830 -18.360802 1.048364 76
-25.002737 -18.455381 1.049810 34
-19.837742 -14.442692 1.025204 7
-19.873121 -14.362138 1.025429 15
-19.938866 -14.313957 1.025797 5
-25.965178 -18.650616 1.054692 5
-25.394920 -17.986883 1.052106 34
-34.039978 -23.908548 1.093747 30
-37.896896 -26.484472 1.112370 19
-31.718857 -21.954113 1.082802 8
-25.593924 -17.388338 1.053543 4
-25.634895 -17.300932 1.053822 4
-25.764223 -17.268000 1.054534 9
-28.253311 -18.828979 1.066635 62
-30.797203 -20.408205 1.079017 15
-25.866011 -16.967409 1.055305 4
-26.004868 -16.939274 1.056072 9
-29.739151 -19.283583 1.074236 7
-24.818348 -15.816390 1.050613 17
-24.977495 -15.805914 1.051482 4
-25.775425 -16.079897 1.055566 9
-26.295193 -16.290562 1.058201 9
-25.870592 -15.913482 1.056237 18
-25.817003 -15.764797 1.056086 13
-25.946716 -15.729724 1.056829 69
-28.835005 -17.246979 1.071174 6
-25.987160 -15.416492 1.057364 4
-29.081059 -17.132257 1.072647 6
-28.858057 -16.746752 1.071823 5
-32.800461 -18.911148 1.091329 8
-29.123505 -16.535641 1.073530 12
-29.184456 -16.444817 1.073973 18
-28.398050 -15.877028 1.070238 16
-28.497732 -15.805512 1.070879 16
-31.768959 -17.494829 1.087199 7
-41.288071 -22.406013 1.134703 20
-29.105394 -15.645988 1.074488 23
-28.402609 -15.153922 1.071144 21
-28.328127 -14.996033 1.070925 73
-28.630720 -14.919234 1.072740 16
-28.632891 -14.802293 1.072908 73
-28.653536 -14.701114 1.073162 31
-28.676174 -14.595293 1.073436 21
-33.647694 -16.710224 1.098888 24
-33.799194 -16.647291 1.099847 24
-33.982128 -16.591923 1.100979 16
-32.548489 -15.762203 1.093958 22
-32.574501 -15.643398 1.094285 59
-35.376675 -16.698278 1.108861 27
-33.904510 -15.871029 1.101624 24
-33.975368 -15.775205 1.102185 8
-33.833878 -15.575347 1.101681 8
-33.767895 -15.411320 1.101561 39
-33.899368 -15.343580 1.102436 24
-41.415672 -18.553513 1.140982 17
-34.163296 -15.193118 1.104225 32
-33.918060 -14.945576 1.103207 23
-33.884426 -14.792018 1.103271 15
-41.320534 -17.841322 1.141629 33
-41.224319 -17.638428 1.141417 32
-41.183319 -17.468012 1.141475 16
-49.377426 -20.713425 1.183952 72
-47.206032 -19.441782 1.173437 29
-48.731995 -19.883165 1.181647 33
-46.665413 -18.498343 1.171989 27
-54.421089 -21.322557 1.212673 51
-46.723583 -18.170998 1.172961 27
-54.079376 -20.783615 1.211682 50
-45.133743 -17.208227 1.165370 23
-56.795555 -21.367016 1.226733 58
-45.486958 -17.003950 1.167886 24
-45.533970 -16.840359 1.168497 24
-51.228302 -18.725113 1.198761 39
-53.897141 -19.470434 1.213231 48
-49.430103 -17.705362 1.190080 33
-50.916092 -18.036474 1.198317 37
-54.606342 -19.114603 1.218239 49
-54.688114 -18.937302 1.219110 49
-52.115280 -17.867443 1.205900 41
-49.750988 -16.878075 1.193779 33
-63.875370 -21.329247 1.269369 63
-52.090137 -17.267538 1.207063 40
-50.908592 -16.695814 1.201184 36
-49.584682 -15.732912 1.195336 31
-60.611248 -18.918356 1.255020 63
-25.616421 -7.962325 1.067564 3
-25.517580 -7.844176 1.067243 3
-25.610472 -7.781866 1.067960 3
-25.633930 -7.699409 1.068304 3
-25.753424 -7.643732 1.069171 3
-25.470951 -7.388706 1.068071 3
-27.367071 -7.808230 1.078655 4
