# .PCD v.7 - Point Cloud Data file format
VERSION .7
FIELDS x y z intensity
SIZE 4 4 4 1
TYPE F F F U
COUNT 1 1 1 1
WIDTH 1500
HEIGHT 1
VIEWPOINT 0 0 0 1 0 0 0
POINTS 1500
DATA ascii
-15.742563 3.204667 1.319864 1
-16.018835 3.299432 1.327679 1
-16.022509 3.350478 1.328382 1
-15.474234 3.306980 1.314606 1
-15.395156 3.341729 1.313120 1
-15.339619 3.380173 1.312250 1
-15.091219 3.383129 1.306295 1
-15.027738 3.418722 1.305207 1
-15.011312 3.462833 1.305362 1
-15.046221 3.514430 1.306852 1
-15.189014 3.637904 1.311854 2
-15.218863 3.692050 1.313266 2
-15.248492 3.746437 1.314678 2
-16.623779 4.085143 1.352079 1
-14.423545 3.666210 1.293843 1
-14.291336 3.728021 1.291490 11
-14.342055 3.830134 1.294065 1
-14.433816 3.894758 1.297126 1
-14.345766 3.919872 1.295364 1
-14.389886 3.976165 1.297182 1
-15.583633 4.313297 1.330253 1
-14.368717 4.062869 1.297867 1
-15.354327 4.406366 1.326084 1
-15.206823 4.418038 1.322742 1
-15.291455 4.489639 1.325760 1
-15.568946 4.613310 1.334092 1
-14.494605 4.374175 1.305228 1
-15.446881 4.681837 1.332179 1
-14.278006 4.408141 1.300589 1
-14.458451 4.505249 1.306259 1
-14.446095 4.548855 1.306601 1
-14.433586 4.592418 1.306943 1
-14.708752 4.720151 1.315307 1
-14.888000 4.819186 1.320991 1
-14.778796 4.835566 1.318665 1
-14.765285 4.880289 1.319016 1
-14.873915 4.962585 1.322801 1
-14.874527 5.014649 1.323601 1
-108.236641 34.517242 3.958342 63
-107.736252 34.745491 3.950111 63
-107.731850 35.151382 3.956227 63
-110.648636 36.512894 4.045311 63
-106.514954 35.566319 3.934229 63
-107.500786 36.301533 3.968637 63
-103.729462 35.435234 3.867310 63
-103.196938 35.609875 3.857669 63
-103.280891 36.053921 3.866626 63
-103.132744 36.418438 3.868970 63
-117.561241 41.924572 4.291054 63
-102.303047 36.916325 3.857710 63
-112.846695 41.106693 4.168872 63
-104.436852 38.469246 3.932053 63
-95.233047 35.472740 3.671125 45
-94.904602 35.702114 3.667301 45
-94.757973 36.035477 3.669391 45
-94.818047 36.429050 3.677253 45
-95.129005 36.902164 3.692216 44
-94.185860 36.890377 3.670401 45
-93.918503 37.156475 3.668721 45
-93.406258 37.342613 3.660131 46
-91.998619 37.147533 3.624706 47
-91.723572 37.401485 3.622731 47
-94.441139 38.880337 3.709743 44
-92.039719 38.264229 3.644619 47
-92.067627 38.644733 3.651775 46
-91.511917 38.780262 3.641507 47
-91.552269 39.166298 3.649096 47
-91.748360 39.602192 3.661101 46
-84.490303 36.822876 3.448719 54
-84.035065 36.966274 3.440964 54
-83.813850 37.210484 3.440278 54
-81.680389 36.566357 3.380928 56
-81.910286 37.020950 3.394150 56
-85.857300 39.170338 3.520920 52
-78.100327 35.961628 3.289890 60
-78.014000 36.244011 3.293031 60
-77.606850 36.360535 3.286046 60
-77.554184 36.641895 3.289964 60
-76.779327 36.596275 3.271893 61
-76.637444 36.865070 3.273646 61
-79.721169 38.681164 3.375317 57
-80.038055 39.171940 3.391362 57
-81.488831 40.208763 3.442584 55
-103.374908 51.442539 4.133956 63
-80.308830 40.309280 3.418424 56
-75.202347 38.083309 3.264484 61
-75.001144 38.302368 3.264174 61
-74.577782 38.374260 3.256244 62
-75.167137 39.001553 3.281000 61
-75.168549 39.327347 3.287211 61
-71.855698 37.903988 3.187830 62
-74.196709 39.463463 3.268622 62
-75.411026 40.439983 3.313756 60
-71.317459 38.553925 3.188596 62
-65.845787 35.893948 3.018645 56
-71.039757 39.045414 3.192102 62
-71.311371 39.479557 3.206418 63
-92.124245 51.463757 3.889048 63
-69.906120 39.353886 3.173706 61
-69.510643 39.410988 3.166340 61
-71.009796 40.599361 3.221935 63
-70.680687 40.730061 3.217487 63
-71.657219 41.620121 3.256038 63
-75.399948 44.146160 3.386207 58
-84.349609 49.773651 3.689251 48
-83.840607 49.878521 3.680556 49
-82.133041 49.258507 3.631881 50
-68.715134 39.388172 3.598226 44
-68.566788 39.612938 3.599423 44
-69.007851 40.182114 3.624064 44
-69.838387 40.986191 3.664374 44
-84.311050 49.882637 4.249475 32
-83.616707 49.876129 4.231119 32
-83.079247 49.939873 4.218534 33
-81.603065 49.429199 4.168089 34
-78.952209 48.185944 4.069937 36
-78.848129 48.492233 4.074417 36
-76.818695 47.600311 4.000736 37
-69.246529 43.212238 3.700879 44
-75.349304 47.399612 3.957963 38
-69.806267 44.226654 3.739441 43
-75.845657 48.420700 3.995106 38
-75.129089 48.322231 3.974339 38
-75.644836 49.039917 4.004827 38
-76.517471 49.962162 4.049416 37
-65.982552 43.347046 3.620265 44
-56.780418 37.548576 3.244940 44
-56.931129 37.926998 3.258003 44
-10.653885 6.873668 1.324465 0
-10.562900 6.858188 1.321783 0
-10.484075 6.845939 1.319491 0
-10.427415 6.850633 1.318181 0
-10.344593 6.836710 1.315754 0
-10.363377 6.893518 1.317640 0
-10.202399 6.823513 1.311865 0
-10.178721 6.849928 1.311936 0
-10.047815 6.799290 1.307405 0
-10.024240 6.825143 1.307471 0
-9.965048 6.825001 1.306002 0
-9.893066 6.815053 1.303970 0
-9.843751 6.821314 1.302914 0
-9.805125 6.833099 1.302265 0
-9.772904 6.849489 1.301895 0
-9.704550 6.840581 1.299993 0
-9.706340 6.884525 1.301170 0
-9.663498 6.894506 1.300385 0
-9.547904 6.848074 1.296372 0
-9.492687 6.847533 1.295020 0
-9.365184 6.789984 1.290436 0
-9.344884 6.815798 1.290623 0
-9.325516 6.840255 1.290799 0
-9.304015 6.867213 1.290994 0
-9.205637 6.830097 1.287661 0
-9.214158 6.876763 1.289101 0
-9.088319 6.816038 1.284493 0
-9.067930 6.840885 1.284672 0
-9.046429 6.866899 1.284859 0
-9.026894 6.890366 1.285027 0
-8.899159 6.824953 1.280262 0
-8.878741 6.849140 1.280435 0
-8.812615 6.834345 1.278488 0
-8.792165 6.858231 1.278659 0
-8.695029 6.817840 1.275300 0
-8.747304 6.946457 1.280026 0
-8.670587 6.918645 1.277493 0
-8.629972 6.922270 1.276659 0
-8.594327 6.932181 1.276114 0
-8.269768 6.843168 1.266260 0
-8.249290 6.865158 1.266416 0
-8.208105 6.908923 1.266724 0
-7.862397 6.737930 1.254194 4
-7.782017 6.779694 1.253623 62
-7.764589 6.802810 1.253908 52
-7.747070 6.825876 1.254192 26
-7.688403 6.889026 1.254755 0
-7.734364 6.978046 1.258334 0
-7.713418 6.998167 1.258474 0
-7.684139 7.009523 1.258182 0
-7.627406 6.991685 1.256454 0
-7.579071 6.982273 1.255154 0
-7.609870 7.057435 1.258019 0
-7.600569 7.087876 1.258723 0
-7.580309 7.106548 1.258851 0
-7.577777 7.146800 1.259993 0
-7.472806 7.336542 1.263515 0
-7.581153 7.507096 1.270865 0
-7.428349 7.374875 1.263776 0
-7.547257 7.604333 1.273134 0
-7.317176 7.468406 1.264407 0
-7.421353 7.641538 1.271773 0
-7.524385 7.815475 1.279144 0
-7.500517 7.834858 1.279274 0
-7.514144 7.900894 1.281578 0
-7.639572 8.107713 1.290409 0
-7.552626 8.049165 1.286914 0
-11.254731 12.806592 1.505943 1
-11.110078 12.706646 1.500059 1
-7.679217 8.366387 1.299213 0
-7.768025 8.535183 1.306175 0
-7.763488 8.583997 1.307617 0
-40.864319 52.267284 3.301899 44
-33.282494 42.574898 2.854952 19
-34.049141 43.903690 2.911125 23
-33.930069 44.057167 2.913751 47
-33.796093 44.191032 2.915500 24
-33.900486 44.635082 2.931489 25
-38.817974 51.725330 3.246778 44
-28.605335 37.938148 2.621757 10
-38.112679 52.244823 3.250527 44
-27.960789 38.404129 2.625025 10
-28.812160 40.210838 2.698255 23
-10.022015 12.943773 1.487642 9
-9.971332 12.958556 1.487236 11
-9.951611 13.019745 1.488878 10
-9.922666 13.062865 1.489778 11
-9.869515 13.073865 1.489221 9
-9.816385 13.084641 1.488663 9
-9.774105 13.111993 1.488836 11
-9.720961 13.122360 1.488274 11
-9.580653 13.088310 1.484798 100
-9.648531 13.291101 1.492595 105
-9.694016 13.460542 1.498928 100
-27.138208 42.553795 2.746383 11
-26.564827 42.254772 2.727170 23
-26.480740 42.425583 2.731495 11
-26.934263 43.513138 2.774949 12
-26.166637 42.554317 2.730770 11
-33.771862 56.054161 3.301840 44
-33.734425 56.435390 3.313998 44
-33.738049 56.870560 3.328627 44
-33.741085 57.332790 3.344175 44
-31.390064 53.614735 3.182917 44
-33.780972 58.359264 3.379292 44
-24.062725 41.168560 2.651551 10
-24.600004 42.487667 2.704222 11
-24.467934 42.573067 2.705110 22
-24.269968 42.570751 2.702056 11
-24.359177 43.071465 2.720353 11
-29.417818 53.012283 3.132742 40
-29.215786 53.091328 3.132446 40
-28.710514 53.006634 3.122173 39
-28.697655 53.408409 3.135694 40
-23.530426 43.645504 2.727773 11
-23.334497 43.645660 2.724975 11
-23.293119 44.277702 2.746052 23
-26.985909 52.221203 3.070684 69
-26.768309 52.251423 3.068688 68
-26.606455 52.373753 3.070657 68
-26.456062 52.520851 3.073658 34
-26.250429 52.551807 3.071916 34
-25.994684 52.450996 3.064958 33
-25.826603 52.559978 3.066461 33
-25.612391 52.592606 3.064722 33
-25.374949 52.525192 3.059224 33
-25.169447 52.574223 3.058211 33
-20.661146 42.925472 2.663553 10
-20.573647 43.104256 2.668636 11
-24.452595 52.389370 3.042437 31
-24.268217 52.456577 3.042414 31
-24.070557 52.467838 3.040287 31
-20.068531 43.580235 2.678789 11
-19.508644 42.666935 2.639776 10
-19.399933 42.816486 2.643663 21
-23.193787 52.394718 3.026746 60
-19.279678 43.337513 2.660474 10
-4.013948 6.113841 1.165243 0
-3.974628 6.116543 1.164868 1
-3.949471 6.104918 1.164160 1
-3.931599 6.111832 1.164195 1
-3.911385 6.115289 1.164082 1
-3.893478 6.122070 1.164116 1
-3.876443 6.128454 1.164148 1
-3.855723 6.127613 1.163883 1
-3.837772 6.134200 1.163915 1
-3.819799 6.140724 1.163946 1
-3.805836 6.158478 1.164424 1
-3.798428 6.195043 1.165646 0
-3.604145 5.750584 1.147682 3
-3.541098 5.725557 1.146120 111
-3.516608 5.704206 1.145100 111
-3.498898 5.705811 1.144975 111
-3.480372 5.707616 1.144851 111
-3.459039 5.697659 1.144278 111
-3.443792 5.706677 1.144450 111
-3.422570 5.696560 1.143875 111
-3.403781 5.693995 1.143599 111
-3.388170 5.698757 1.143619 111
-3.370573 5.699885 1.143490 111
-3.351030 5.697357 1.143213 111
-3.332347 5.694510 1.142934 111
-3.315627 5.695195 1.142803 111
-3.297276 5.696288 1.142673 111
-3.280835 5.700927 1.142691 111
-3.263068 5.697577 1.142409 111
-3.241359 5.682817 1.141679 109
-3.220808 5.671824 1.141099 103
-3.203427 5.672333 1.140965 102
-3.186252 5.676860 1.140981 105
-3.167702 5.669290 1.140548 104
-3.151188 5.669396 1.140412 103
-3.133052 5.669854 1.140277 104
-3.117522 5.673719 1.140290 104
-3.098454 5.670163 1.140005 104
-3.081174 5.670221 1.139868 104
-3.062073 5.662436 1.139431 105
-3.046656 5.670148 1.139592 105
-3.029417 5.670017 1.139454 105
-3.013887 5.673538 1.139464 105
-2.996664 5.673286 1.139324 50
-2.978605 5.669065 1.139035 106
-2.962261 5.672593 1.139044 105
-2.945905 5.676064 1.139052 106
-2.930356 5.679308 1.139060 107
-2.913953 5.686751 1.139217 108
-2.895984 5.682213 1.138925 108
-2.880363 5.689375 1.139081 110
-2.863194 5.688634 1.138938 108
-2.848346 5.695532 1.139093 110
-2.833366 5.706466 1.139397 110
-2.816892 5.709486 1.139401 111
-2.800532 5.708367 1.139256 111
-2.783228 5.711417 1.139260 111
-2.766737 5.714262 1.139263 111
-2.749578 5.713108 1.139116 111
-2.731791 5.707946 1.138819 111
-2.712156 5.690877 1.138073 102
-2.699651 5.713092 1.138822 111
-2.683760 5.719597 1.138973 111
-2.666059 5.714189 1.138674 111
-2.648406 5.708714 1.138375 111
-2.631926 5.711089 1.138374 111
-2.615438 5.713407 1.138373 111
-2.600303 5.719516 1.138521 111
-2.584611 5.721614 1.138519 111
-2.567068 5.715837 1.138217 111
-2.550233 5.721997 1.138364 111
-2.533570 5.715993 1.138061 111
-2.518468 5.729876 1.138506 111
-2.501008 5.723855 1.138202 111
-2.484475 5.725715 1.138197 111
-2.467937 5.727518 1.138192 111
-2.450568 5.721311 1.137887 111
-2.437232 5.754813 1.139077 114
-2.420977 5.760429 1.139219 114
-2.400612 5.722210 1.137717 111
-2.386939 5.755570 1.138905 114
-2.367754 5.737191 1.138149 111
-2.354637 5.770387 1.139336 114
-2.337628 5.767751 1.139177 114
-2.320643 5.765055 1.139018 114
-2.302848 5.762359 1.138858 114
-2.287835 5.775434 1.139296 114
-2.271124 5.776550 1.139285 114
-2.253574 5.777658 1.139272 114
-2.235840 5.746683 1.138066 111
-2.221588 5.775510 1.139099 114
-2.205081 5.780387 1.139235 114
-2.188354 5.781214 1.139222 114
-2.171623 5.781983 1.139208 114
-2.154891 5.782693 1.139193 114
-2.138155 5.783345 1.139178 114
-2.121552 5.787933 1.139312 114
-2.104919 5.792464 1.139445 114
-2.088257 5.796937 1.139578 114
-2.071287 5.789364 1.139262 114
-2.053222 5.765762 1.138348 111
-2.037963 5.802016 1.139674 114
-2.022002 5.802248 1.139657 114
-2.005161 5.798440 1.139488 114
-1.987509 5.794576 1.139319 114
-1.971592 5.802636 1.139598 114
-1.954779 5.810642 1.139876 114
-1.937125 5.806594 1.139705 114
-1.921116 5.810490 1.139834 114
-1.904331 5.806329 1.139663 114
-1.887455 5.810102 1.139789 114
-1.870477 5.817814 1.140065 114
-1.853533 5.821469 1.140190 114
-1.836664 5.821069 1.140166 114
-1.819912 5.816614 1.139993 114
-1.802801 5.824087 1.140266 114
-1.785779 5.827504 1.140390 114
-1.769420 5.834888 1.140663 114
-1.752504 5.834195 1.140637 114
-1.735592 5.833441 1.140610 114
-1.717437 5.840572 1.140879 114
-1.700289 5.843688 1.141000 114
-1.683737 5.850782 1.141271 114
-1.666767 5.849789 1.141242 114
-1.650309 5.840758 1.140915 114
-1.632837 5.847625 1.141182 114
-1.614748 5.862403 1.141747 114
-1.598588 5.861232 1.141718 114
-1.583668 5.844067 1.141093 112
-1.566076 5.850693 1.141359 113
-1.549444 5.845306 1.141178 112
-1.532493 5.843844 1.141145 112
-1.516277 5.834362 1.140815 111
-1.498987 5.836763 1.140930 111
-1.482067 5.835125 1.140896 111
-1.464746 5.837405 1.141010 111
-1.447404 5.839622 1.141123 111
-1.430908 5.833831 1.140939 111
-1.413551 5.835927 1.141051 111
-1.396172 5.837962 1.141163 111
-1.379248 5.835965 1.141126 111
-1.361842 5.837876 1.141237 111
-1.345765 5.835867 1.141201 111
-1.327816 5.841621 1.141459 111
-1.310350 5.843348 1.141568 111
-1.292561 5.840935 1.141526 111
-1.274510 5.846493 1.141783 111
-1.256985 5.848027 1.141890 111
-1.240289 5.849624 1.141999 111
-1.223325 5.847083 1.141958 111
-1.204531 5.856333 1.142360 111
-1.186917 5.857615 1.142465 111
-1.169286 5.858833 1.142570 111
-1.150981 5.863931 1.142822 111
-1.133968 5.861078 1.142778 111
-1.116283 5.862104 1.142881 111
-1.097885 5.867003 1.143131 111
-1.078733 5.875766 1.143529 111
-1.060956 5.876592 1.143631 111
-1.043900 5.873425 1.143584 111
-1.025353 5.878051 1.143832 111
-1.005998 5.886530 1.144227 111
-0.988984 5.887261 1.144328 111
-0.970308 5.891679 1.144575 111
-0.952395 5.892111 1.144673 111
-0.934466 5.892478 1.144770 111
-0.909034 5.927966 1.146194 114
-0.890107 5.932082 1.146437 114
-0.871139 5.936125 1.146680 114
-0.854749 5.928395 1.146480 114
-0.834853 5.936201 1.146869 113
-0.818490 5.928349 1.146668 113
-0.802168 5.920444 1.146467 111
-0.784959 5.916373 1.146412 111
-0.767766 5.912242 1.146358 111
-0.749632 5.911933 1.146449 111
-0.729549 5.919314 1.146834 111
-0.712224 5.919083 1.146928 111
-0.693033 5.922441 1.147164 111
-0.674810 5.921858 1.147254 111
-0.656576 5.921207 1.147343 111
-0.636261 5.928211 1.147724 111
-0.616067 5.931042 1.147956 111
-0.598623 5.930413 1.148045 111
-0.572779 5.956431 1.149158 49
-0.501867 6.006889 1.151464 0
-0.493391 5.971093 1.150229 0
-0.470026 5.989188 1.151047 0
-0.449115 5.995438 1.151422 1
-0.435152 5.978666 1.150918 0
-0.369688 6.004341 1.152329 111
-0.367717 5.953365 1.150512 106
-0.344591 5.962704 1.151026 106
-0.318124 5.987702 1.152129 110
-0.299812 5.981652 1.152057 110
-0.281119 5.979616 1.152134 110
-0.258555 5.988863 1.152648 110
-0.234605 6.001792 1.153306 111
-0.214487 6.003290 1.153527 111
-0.191683 6.012249 1.154038 111
-0.175034 6.006359 1.153969 111
-0.151239 6.014828 1.154475 110
-0.132338 6.012241 1.154547 109
-0.110673 6.017087 1.154909 110
-0.088438 6.025916 1.155420 110
-0.073677 6.011868 1.155054 107
-0.050480 6.020203 1.155560 107
-0.030618 6.016904 1.155625 106
-0.007296 6.025047 1.156129 105
0.016106 6.033089 1.156631 104
0.035174 6.029878 1.156698 103
0.056332 6.034370 1.157058 103
0.076926 6.034716 1.157269 103
0.100566 6.042381 1.157768 103
0.121879 6.046610 1.158126 104
0.145010 6.050019 1.158475 104
0.167310 6.053698 1.158827 104
0.194345 6.068322 1.159612 104
0.218359 6.075470 1.160107 104
0.242450 6.082512 1.160600 103
0.265016 6.085784 1.160949 103
0.290857 6.096277 1.161585 104
0.314281 6.103395 1.162080 102
0.339413 6.114061 1.162719 50
0.363133 6.116523 1.163059 50
0.385112 6.119699 1.163408 49
0.411382 6.129632 1.164039 49
0.438649 6.139024 1.164664 47
0.466817 6.152327 1.165437 40
0.496820 6.169107 1.166353 31
0.531239 6.196992 1.167703 13
22.715425 51.184631 2.969805 31
22.913748 51.167007 2.971513 31
23.152988 51.186340 2.974987 31
23.229338 50.924347 2.966926 31
21.922518 47.125626 2.821577 18
18.235325 39.671406 2.522891 10
24.855455 51.065838 2.991584 67
25.077625 51.059875 2.994173 34
25.288610 51.031910 2.995897 34
25.518969 51.038116 2.999041 34
21.610285 43.566105 2.697105 11
21.831240 43.630844 2.702138 12
22.595388 44.641533 2.746034 12
22.639194 44.364319 2.737306 12
22.796448 44.288609 2.736842 12
22.168346 42.514458 2.669178 11
22.583752 42.558441 2.676246 23
22.800303 42.592751 2.680336 23
23.842020 44.000671 2.741348 13
23.954813 43.848782 2.737870 12
26.492714 47.348705 2.888922 26
30.091213 52.784962 3.118798 44
26.940166 47.330494 2.894627 27
30.460646 52.573505 3.117077 44
27.314413 47.208679 2.895963 27
27.471315 47.099483 2.894643 27
27.699177 47.100704 2.897982 27
31.440710 52.541008 3.130159 44
5.091913 11.787055 1.415352 1
5.140584 11.620798 1.410671 20
5.188821 11.612533 1.411126 13
5.248303 11.620603 1.412283 4
34.106789 53.782539 3.210164 88
34.359047 53.735611 3.212497 44
34.921104 53.778854 3.222521 88
35.183437 53.760952 3.226010 88
35.501560 53.800545 3.232230 88
35.567322 53.523155 3.224405 88
35.570965 53.161545 3.212939 88
35.764336 53.026886 3.211715 44
36.075478 53.072456 3.218109 44
36.337646 53.048870 3.221551 44
30.568924 44.885426 2.870718 27
36.700268 52.780262 3.218905 44
36.892883 52.660988 3.218273 44
37.087555 52.544186 3.217775 44
32.738201 46.143211 2.945645 34
30.938236 43.477615 2.832535 24
31.071621 43.358841 2.831049 24
31.152704 43.158401 2.826164 23
31.178234 42.888935 2.818220 23
34.213184 46.415764 2.978777 37
34.496639 46.445156 2.984490 38
34.428726 46.053440 2.971236 37
40.719696 53.076988 3.295324 44
40.990368 53.035622 3.298727 44
41.307266 53.048336 3.304612 44
41.615685 53.067074 3.310556 44
41.940311 53.065964 3.316201 44
37.141392 47.046085 3.048677 44
37.330551 46.942749 3.048878 44
37.490772 46.805336 3.047555 44
36.694630 45.580799 2.996358 40
36.210983 44.698120 2.961082 37
36.666981 44.909840 2.975644 39
37.212616 45.233471 2.995204 41
36.834774 44.499718 2.966373 38
47.193398 54.968372 3.467821 44
47.384285 54.799431 3.466319 44
47.841812 54.938068 3.478883 44
48.055611 54.772755 3.477963 44
44.244911 50.345772 3.276409 44
44.049805 49.777664 3.256045 44
44.211628 49.608082 3.254107 44
44.397694 49.463966 3.253396 44
44.597179 49.333542 3.253362 44
38.994499 43.234577 2.969182 40
49.963161 54.175957 3.496454 44
39.678089 43.343918 2.985419 41
38.607906 41.968189 2.925054 36
41.271183 44.354553 3.045291 44
47.537281 50.294518 3.337597 44
41.098339 43.582214 3.019733 44
39.883583 42.092587 2.953375 39
48.265686 49.982899 3.342878 44
49.742958 51.072857 3.402961 44
49.384521 50.379379 3.376182 44
49.516205 50.161209 3.372602 44
49.328148 49.657291 3.354618 44
49.527126 49.522610 3.354783 44
49.375240 49.042095 3.338227 44
42.761196 42.559082 3.023622 44
42.715137 42.226490 3.013386 44
42.587730 41.821793 2.999516 88
42.540829 41.493839 2.989436 44
43.580647 42.150490 3.028811 44
43.153980 41.465389 3.001137 44
43.768509 41.743809 3.021405 44
44.181122 41.809048 3.031676 44
44.098122 41.449871 3.020104 44
59.726845 54.817554 3.709255 42
44.478306 41.227081 3.021885 44
44.658756 40.802910 3.014112 44
61.189098 54.558838 3.732692 41
47.076328 42.278961 3.104723 44
62.555264 54.947697 3.771915 40
63.198471 55.100185 3.789603 40
63.926807 55.317509 3.810859 40
64.307907 55.244228 3.817008 39
55.061485 47.359074 3.409984 44
54.983555 46.966385 3.397898 44
55.089359 46.707386 3.393317 44
55.259735 46.500492 3.391528 44
56.125648 46.875530 3.420078 44
56.104561 46.546947 3.411008 44
70.661057 57.539013 4.014256 35
70.741058 57.194721 4.007028 35
71.139572 57.116470 4.013696 35
72.047310 57.403870 4.041010 34
72.903755 57.644596 4.066027 33
73.823494 57.925652 4.093507 33
74.640350 58.122097 4.116580 32
54.678967 42.911743 3.285764 44
55.247055 43.023895 3.301233 44
55.295761 42.767994 3.295816 44
55.496349 42.607765 3.296235 44
79.995697 59.896736 4.280874 44
81.215683 60.356258 4.319808 44
76.460922 56.570930 4.117922 32
83.770454 60.834484 4.389382 44
84.248383 60.721592 4.397414 44
87.014458 61.723106 4.485103 44
88.016335 61.970531 4.514070 44
90.130371 62.911915 4.585537 44
91.343674 63.255863 4.621787 44
94.454407 63.906456 4.709318 44
69.720695 47.410175 3.738915 40
69.927429 47.170929 3.737980 39
69.793732 46.749588 3.724796 40
69.932831 46.486034 3.721766 40
70.700706 46.617516 3.742852 39
71.022476 46.465111 3.746794 39
71.374672 46.329933 3.751888 39
106.365036 67.415504 5.071136 44
74.841675 47.735439 3.866588 36
76.441833 48.335087 3.918425 35
80.521431 50.426117 4.063717 32
77.425644 48.194733 3.938531 34
81.691132 50.336651 4.089482 31
80.889915 49.474937 4.050577 32
81.235077 49.287834 4.054555 32
82.563858 49.665531 4.095013 31
82.601418 49.294861 4.087504 31
86.094925 50.883606 4.207514 44
85.958450 50.401627 4.193371 44
86.516228 50.289249 4.204335 44
86.866325 50.078754 4.208115 44
6.746557 5.607014 1.274080 0
6.668697 5.488825 1.269598 0
6.695012 5.464188 1.269713 0
6.689238 5.423010 1.268684 0
6.693974 5.387361 1.268036 0
6.634298 5.319356 1.265108 0
6.620752 5.275043 1.263830 0
6.617751 5.236199 1.262933 0
6.621761 5.200950 1.262290 0
6.628495 5.168972 1.261787 0
6.638713 5.138733 1.261410 0
6.631509 5.098347 1.260389 0
6.631355 5.061486 1.259621 0
6.634666 5.026375 1.258980 0
6.656661 4.998222 1.258955 0
6.659021 4.964606 1.258327 0
6.672851 4.934498 1.258063 0
6.617373 4.873014 1.255416 0
6.619939 4.838143 1.254778 0
6.633328 4.808173 1.254515 0
6.650270 4.779766 1.254378 0
6.645131 4.741701 1.253490 0
6.654511 4.710057 1.253103 0
6.660100 4.676822 1.252591 0
6.713421 4.663866 1.253699 0
6.696071 4.622708 1.252452 0
6.708707 4.592473 1.252188 0
6.721861 4.560678 1.251912 0
6.712063 4.521307 1.250902 0
6.742885 4.498491 1.251259 0
6.755086 4.468093 1.250995 0
6.766580 4.439176 1.250744 0
6.797789 4.414451 1.251085 0
6.801648 4.382505 1.250585 0
6.843311 4.363347 1.251308 0
6.821396 4.319842 1.249931 0
6.904415 4.280723 1.251370 0
6.975904 4.271816 1.253072 0
7.145140 4.297945 1.257967 0
7.344767 4.333750 1.263835 0
7.786581 4.415878 1.276885 0
7.953325 4.435656 1.281615 0
8.450355 4.527149 1.296304 0
39.443935 14.264480 2.283789 10
36.466808 12.720891 2.178646 210
36.511383 12.587849 2.177616 210
36.551666 12.453498 2.176465 210
36.599152 12.321261 2.175555 210
36.646183 12.188833 2.174644 210
36.708138 12.060616 2.174215 111
38.446960 11.957973 2.219191 9
38.486927 11.809811 2.217927 9
63.479916 13.469057 2.921309 44
63.367718 13.223296 2.914891 44
68.298050 12.616644 3.042134 124
150.611191 13.283333 5.329166 93
150.721069 12.755945 5.326684 129
150.845078 12.229113 5.324655 154
151.057114 11.734689 5.325459 124
151.179382 11.179395 5.323199 99
17.967705 -1.932202 1.497818 2
17.933672 -1.998176 1.496620 2
17.935526 -2.065947 1.496411 2
25.497028 -5.309556 1.694577 4
-50.228691 1.306553 2.426459 11
-49.301735 1.631018 2.401107 68
-49.263187 1.795655 2.401363 91
-49.248055 1.960523 2.402348 91
-49.244537 2.117331 2.403630 91
-49.252262 2.282706 2.405345 100
-49.267143 2.456652 2.407372 91
-49.309647 2.623431 2.410189 92
-50.026752 2.816176 2.433708 47
-176.690948 10.042604 6.340157 44
-71.277855 4.811804 3.096623 44
-70.773811 5.012949 3.083344 44
-186.941803 13.781774 6.687768 44
-176.203384 13.619920 6.361227 44
-176.520874 14.255637 6.377419 44
-127.463577 10.968310 4.859561 44
-123.981392 11.120214 4.755896 44
-127.524162 11.877877 4.871053 44
-126.987541 12.271202 4.859078 44
-122.970657 12.334753 4.738441 44
-125.158615 12.973854 4.811522 44
-127.677696 13.662046 4.895185 44
-124.787666 13.782340 4.809323 44
-124.618927 14.197742 4.808918 44
-124.401108 14.606822 4.807003 44
-126.436539 15.251239 4.875752 44
-125.934662 15.654305 4.865296 44
-126.553322 16.168680 4.889937 44
-126.462524 16.576797 4.892011 44
-127.669350 17.196087 4.935686 105
-127.675316 17.643198 4.941223 126
-127.671768 18.089470 4.946509 154
-127.638916 18.532053 4.950914 244
-127.607651 18.952684 4.955141 128
-127.670662 19.409718 4.962690 130
-127.637115 19.853167 4.967218 4
-15.774891 3.112846 1.401109 19
-15.593923 3.182579 1.396572 1
-15.637460 3.238588 1.398598 1
-15.621630 3.284993 1.398726 1
-15.440145 3.302919 1.393532 1
-15.345341 3.334784 1.391117 1
-15.290252 3.370723 1.389948 1
-15.109204 3.383414 1.384711 1
-15.037440 3.419906 1.383061 1
-14.938519 3.448426 1.380498 1
-14.930285 3.491452 1.380840 1
-15.203461 3.594520 1.390398 1
-15.198660 3.639207 1.390875 2
-15.278947 3.706085 1.394198 1
-14.517785 3.596557 1.370028 1
-14.409825 3.662675 1.367762 33
-14.335719 3.739556 1.366673 1
-14.497622 3.821490 1.372663 1
-14.511030 3.870603 1.373780 1
-14.512568 3.917121 1.374513 1
-14.494482 3.959077 1.374602 1
-14.456820 3.996267 1.374047 1
-15.561454 4.309756 1.411365 1
-14.385598 4.068761 1.373041 1
-14.472243 4.134308 1.376594 1
-14.557467 4.204862 1.380186 1
-14.352642 4.198711 1.374067 1
-14.438024 4.267340 1.377644 1
-14.427076 4.308701 1.377970 1
-14.414817 4.354373 1.378329 1
-14.402986 4.397828 1.378671 1
-14.776221 4.548191 1.391997 1
-15.052342 4.674126 1.402095 1
-14.847801 4.662737 1.395934 1
-14.958457 4.740925 1.400434 1
-14.894727 4.773949 1.399114 1
-14.938252 4.838380 1.401441 1
-14.947701 4.890559 1.402579 1
-119.294441 36.653366 4.965442 44
-116.917091 36.347668 4.891257 44
-116.206451 36.588001 4.874673 44
-116.153831 37.009430 4.880277 44
-116.372627 37.496071 4.894893 44
-108.666008 35.447983 4.636875 44
-107.436928 35.478535 4.601878 44
-107.872269 36.010105 4.623643 44
-108.153572 36.494236 4.640177 44
-107.771370 36.777607 4.634121 44
-106.805962 36.859455 4.607780 44
-106.458351 37.168945 4.603261 44
-105.191811 37.134518 4.566289 44
-105.434235 37.625404 4.582016 44
-104.594246 37.731712 4.559868 44
-105.254700 38.375473 4.590393 44
-100.361664 36.974072 4.425134 44
-105.763397 39.381367 4.623238 44
-105.571754 39.701599 4.623652 44
-105.615417 40.130825 4.632812 44
-94.269051 36.215065 4.237613 30
-94.312050 36.582802 4.245686 30
-93.470673 36.607552 4.222286 30
-94.760536 37.501850 4.275650 29
-92.887466 37.150352 4.216018 30
-92.723503 37.452629 4.217134 30
-91.676888 37.396435 4.186535 31
-91.577782 37.702843 4.189626 31
-91.569984 38.047188 4.196049 31
-91.694534 38.466064 4.207666 31
-91.773048 38.867622 4.217689 31
-91.574677 39.171478 4.218078 31
-91.947556 39.702080 4.238944 30
-92.192642 40.162663 4.254891 30
-90.191551 39.660561 4.189097 32
-83.594986 37.092606 3.954120 37
-83.378075 37.354076 3.953324 37
-83.068336 37.555908 3.948783 37
-82.629959 37.680679 3.939147 37
-82.508583 37.965385 3.941567 37
-82.698151 38.394211 3.955557 37
-82.447502 38.619942 3.953262 37
-82.279419 38.883610 3.954056 37
-81.868637 39.031437 3.945807 37
-81.663216 39.275520 3.945230 37
-105.369484 51.107914 4.842416 44
-81.824791 40.041752 3.965677 37
-78.639915 38.800060 3.852456 39
-77.895882 38.779846 3.831716 40
-78.210022 39.268887 3.850657 40
-76.024551 38.479797 3.774370 41
-75.515755 38.545410 3.761952 42
-71.646065 36.892303 3.621479 44
-71.689751 37.207958 3.629475 44
-70.869522 37.103291 3.605039 44
-70.749321 37.331608 3.606765 44
-69.806961 37.137291 3.577139 44
-69.515488 37.300552 3.572886 44
-55.496521 39.226318 4.020144 40
-10.237166 6.945385 1.434520 1
-10.067494 6.866376 1.426175 1
-10.014649 6.871079 1.424520 1
-9.956461 6.869356 1.422481 1
-9.928424 6.893868 1.422322 1
-9.904552 6.919259 1.422338 1
-9.871019 6.937351 1.421795 1
-9.681373 6.837086 1.412110 1
-9.692673 6.888237 1.414172 1
-9.526276 6.803214 1.405781 1
-9.572285 6.880944 1.409894 1
-9.485484 6.855896 1.406163 1
-9.465979 6.880820 1.406344 1
-9.420281 6.887164 1.405037 1
-9.333996 6.860907 1.401297 1
-9.216812 6.809124 1.395681 1
-9.244098 6.870806 1.398663 1
-9.118111 6.810491 1.392478 1
-9.096717 6.836689 1.392667 1
-9.077278 6.860323 1.392837 1
-9.010630 6.846836 1.390202 1
-8.959485 6.845774 1.388503 1
-9.015380 6.934535 1.393370 1
-8.948876 6.920351 1.390730 1
-8.867371 6.892796 1.387147 1
-8.801286 6.877776 1.384501 1
-8.856164 6.967045 1.389371 1
-8.759992 6.925395 1.384841 1
-8.712212 6.925355 1.383317 1
-8.700416 6.956835 1.384049 1
-8.757080 7.049457 1.389112 1
-8.596136 6.947694 1.380427 1
-7.888495 6.978256 1.359785 0
-7.901159 7.033105 1.362204 0
-7.885600 7.059525 1.362728 0
-7.842117 7.057225 1.361353 0
-7.831976 7.089234 1.362254 0
-7.702959 6.997063 1.354990 0
-7.705646 7.044156 1.356845 0
-7.739274 7.122330 1.360784 0
-7.717822 7.142467 1.360923 0
-7.732743 7.199569 1.363527 0
-7.729093 7.931210 1.391832 1
-7.743778 8.048579 1.396884 1
-7.782129 8.146208 1.401803 1
-7.757102 8.166489 1.401939 1
-7.914489 8.414208 1.416050 1
-7.950747 8.513086 1.420976 1
-30.611675 37.490524 3.185591 32
-30.429998 37.520988 3.182036 32
-30.226456 37.522194 3.176749 32
-30.042723 37.547768 3.172990 32
-29.888229 37.610634 3.171525 32
-29.672503 37.578838 3.164650 32
-29.522141 37.632225 3.162951 32
-29.489632 37.856270 3.171262 16
-28.795732 37.455479 3.137165 31
-28.670580 37.552162 3.137968 31
-28.465328 37.538448 3.132231 31
-28.416897 37.740997 3.139370 31
-28.214058 37.729111 3.133814 31
-28.111025 37.856384 3.136523 31
-38.020176 52.203819 3.976936 35
-28.358442 38.747368 3.179632 16
-28.017029 38.818882 3.174266 32
-27.891529 38.919510 3.175426 32
-27.740967 38.983353 3.174463 32
-9.933136 13.009070 1.656170 29
-35.222965 52.290699 3.913331 32
-34.967945 52.288910 3.907305 32
-34.687542 52.245556 3.898954 32
-9.602746 13.240581 1.658317 98
-9.665064 13.437042 1.668146 113
-33.584118 53.293175 3.918738 32
-33.584190 53.708179 3.936635 33
-33.591026 54.118301 3.954500 33
-27.220274 43.756851 3.366050 18
-33.619125 55.020382 3.994175 35
-26.655935 43.476219 3.341564 17
-31.830015 52.793068 3.858594 30
-31.555698 52.734024 3.850121 30
-31.400452 52.882202 3.853264 30
-26.301075 44.245186 3.367467 18
-30.562195 52.235249 3.807201 29
-30.266966 52.125057 3.796166 28
-24.644857 42.308861 3.247788 16
-24.492788 42.373764 3.247483 16
-24.054214 42.251827 3.233083 16
-23.883469 42.261364 3.230022 16
-24.692530 44.147511 3.329854 17
-23.774099 42.756939 3.249748 16
-29.091990 53.384014 3.827693 29
-28.874187 53.410881 3.824553 29
-28.651093 53.426186 3.820824 29
-23.799433 44.646320 3.334320 17
-27.179346 52.295033 3.741681 27
-26.781288 51.933807 3.717877 26
-26.566751 51.944595 3.714284 26
-26.319672 51.886036 3.706989 26
-26.134941 51.956326 3.706688 26
-25.890532 51.899399 3.699572 26
-25.675943 51.880707 3.694760 25
-25.547199 52.046127 3.699868 26
-25.431313 52.288464 3.708716 26
-25.071627 52.425190 3.708421 52
-24.852877 52.417961 3.704187 52
-20.038633 41.987686 3.144593 15
-24.432980 52.463310 3.698835 25
-24.221380 52.468109 3.695359 51
-24.017885 52.490425 3.692851 25
-19.600012 42.556099 3.162886 15
-23.578451 52.429447 3.682532 25
-19.008339 42.361782 3.143960 15
-22.849730 52.190639 3.659328 24
-22.557156 52.007538 3.646071 24
-3.989767 6.120500 1.229441 0
-3.944673 6.108123 1.228145 2
-3.924462 6.111634 1.227986 2
-3.903206 6.106916 1.227433 2
-3.886220 6.113333 1.227465 2
-3.866925 6.116282 1.227303 2
-3.846736 6.119488 1.227141 2
-3.824714 6.114780 1.226587 2
-3.808160 6.125018 1.226814 2
-3.789774 6.127356 1.226648 2
-3.781115 6.160090 1.228046 1
-3.766992 6.177735 1.228662 0
-3.583909 5.759080 1.206440 2
-3.515964 5.718626 1.203583 107
-3.492441 5.705300 1.202631 107
-3.487790 5.744589 1.204413 113
-3.455461 5.700391 1.201894 107
-3.434595 5.694405 1.201331 107
-3.416977 5.695708 1.201157 107
-3.399020 5.692873 1.200786 107
-3.379122 5.686396 1.200220 107
-3.362714 5.691321 1.200241 107
-3.345159 5.692358 1.200065 107
-3.327615 5.693328 1.199889 107
-3.308696 5.686319 1.199320 107
-3.290110 5.683311 1.198947 107
-3.273712 5.687926 1.198964 107
-3.256237 5.688633 1.198786 107
-3.237952 5.689498 1.198608 107
-3.220284 5.685994 1.198232 107
-3.202856 5.686502 1.198052 107
-3.187456 5.694679 1.198263 107
-3.170025 5.695066 1.198082 107
-3.153588 5.699263 1.198097 107
-3.134232 5.691772 1.197523 107
-3.117806 5.695844 1.197536 107
-3.101367 5.699857 1.197549 107
-3.084913 5.703814 1.197561 108
-3.068445 5.707713 1.197573 108
-3.054591 5.719148 1.197976 110
-3.039784 5.726648 1.198182 110
-3.024112 5.734287 1.198388 111
-3.010121 5.749678 1.198986 113
-2.993508 5.757400 1.199192 113
-2.976022 5.757072 1.199005 113
-2.957731 5.752770 1.198622 113
-2.941093 5.756225 1.198630 113
-2.925277 5.759452 1.198637 113
-2.907837 5.758875 1.198448 113
-2.889648 5.754313 1.198063 113
-2.872924 5.761613 1.198265 113
-2.857090 5.764616 1.198270 113
-2.840412 5.767719 1.198275 113
-2.821469 5.763051 1.197888 113
-2.803405 5.758162 1.197500 113
-2.787582 5.760933 1.197504 113
-2.771586 5.767733 1.197703 113
-2.754242 5.766596 1.197510 113
-2.731784 5.733850 1.195748 107
-2.712504 5.724811 1.195162 107
-2.702933 5.766759 1.197123 113
-2.688284 5.777096 1.197515 113
-2.664518 5.732189 1.195164 107
-2.647381 5.730666 1.194967 107
-2.629995 5.733154 1.194967 107
-2.612883 5.731507 1.194769 107
-2.596853 5.737718 1.194964 107
-2.584926 5.775567 1.196725 113
-2.564510 5.741945 1.194959 107
-2.546441 5.732132 1.194368 107
-2.530832 5.742085 1.194756 107
-2.515159 5.751986 1.195144 107
-2.498079 5.749925 1.194943 107
-2.481850 5.747713 1.194742 106
-2.463546 5.733615 1.193953 67
-2.446150 5.735430 1.193946 68
-2.431936 5.760953 1.195115 107
-2.415652 5.766550 1.195304 107
-2.399804 5.768035 1.195297 107
-2.382412 5.761583 1.194897 107
-2.365409 5.759049 1.194693 107
-2.349587 5.760368 1.194684 107
-2.331059 5.737802 1.193500 71
-2.313945 5.743114 1.193685 71
-2.297062 5.740337 1.193479 73
-2.282354 5.769389 1.194839 107
-2.264898 5.758524 1.194240 107
-2.251737 5.803377 1.196383 113
-2.235155 5.808355 1.196567 113
-2.215761 5.761414 1.194204 107
-2.201097 5.802181 1.196149 113
-2.184478 5.806985 1.196331 113
-2.167656 5.807740 1.196316 113
-2.151832 5.812395 1.196498 113
-2.135833 5.813005 1.196483 113
-2.118859 5.809598 1.196272 113
-2.102146 5.814117 1.196451 113
-2.085299 5.814585 1.196435 113
-2.068631 5.822983 1.196809 113
-2.051527 5.811350 1.196204 113
-2.034814 5.819631 1.196577 113
-2.017949 5.819863 1.196558 113
-2.001083 5.820037 1.196539 113
-1.984236 5.824147 1.196715 113
-1.967350 5.820208 1.196499 113
-1.950483 5.820205 1.196479 113
-1.933616 5.820144 1.196458 113
-1.916678 5.828013 1.196827 113
-1.899784 5.827834 1.196805 113
-1.882955 5.823600 1.196587 113
-1.865999 5.827297 1.196759 113
-1.848925 5.834929 1.197127 113
-1.831162 5.834490 1.197102 113
-1.815092 5.834037 1.197078 113
-1.798178 5.833503 1.197053 113
-1.780420 5.832879 1.197026 113
-1.764355 5.832257 1.197002 113
-1.747944 5.839566 1.197367 113
-1.730822 5.842788 1.197536 113
-1.714081 5.837969 1.197313 113
-1.696937 5.841072 1.197480 113
-1.679538 5.848102 1.197842 113
-1.662088 5.855070 1.198204 113
-1.645617 5.846028 1.197784 113
-1.628662 5.844902 1.197754 113
-1.611139 5.851687 1.198114 113
-1.594165 5.850441 1.198083 113
-1.580332 5.809306 1.196100 105
-1.562058 5.835894 1.197436 113
-1.544798 5.838457 1.197598 113
-1.528935 5.825041 1.196980 113
-1.511685 5.827486 1.197142 113
-1.494030 5.833847 1.197499 113
-1.477119 5.832191 1.197464 113
-1.460213 5.830478 1.197430 113
-1.442465 5.836650 1.197784 113
-1.427734 5.814959 1.196774 109
-1.411793 5.805134 1.196348 108
-1.394516 5.807160 1.196507 107
-1.377219 5.809124 1.196665 107
-1.359408 5.814991 1.197017 107
-1.342563 5.812866 1.196979 107
-1.324683 5.818604 1.197330 107
-1.307600 5.824391 1.197682 107
-1.291270 5.818128 1.197448 107
-1.273291 5.823677 1.197797 107
-1.255265 5.829158 1.198145 107
-1.236346 5.834446 1.198491 107
-1.219676 5.835971 1.198646 107
-1.203376 5.829411 1.198410 107
-1.184589 5.838577 1.198951 107
-1.167018 5.839785 1.199102 107
-1.140869 5.892157 1.201779 113
-1.122411 5.897146 1.202123 113
-1.106822 5.890406 1.201886 113
-1.088476 5.899352 1.202425 113
-1.070626 5.900213 1.202574 113
-1.052759 5.901008 1.202721 113
-1.033397 5.909591 1.203256 113
-1.014717 5.914175 1.203597 113
-0.996761 5.914768 1.203743 113
-0.977228 5.923131 1.204276 113
-0.958420 5.927503 1.204614 113
-0.937952 5.939629 1.205340 113
-0.920675 5.936032 1.205290 113
-0.902575 5.936283 1.205432 113
-0.885309 5.932562 1.205381 113
-0.865469 5.940485 1.205910 113
-0.849052 5.936830 1.205860 113
-0.834452 5.921237 1.205226 111
-0.819947 5.905603 1.204591 109
-0.803705 5.897707 1.204344 107
-0.783858 5.901207 1.204674 107
-0.765771 5.900956 1.204813 107
-0.749486 5.896969 1.204760 107
-0.730418 5.900466 1.205091 107
-0.710326 5.907763 1.205615 107
-0.691166 5.911109 1.205945 107
-0.671967 5.914382 1.206274 107
-0.654779 5.909857 1.206216 107
-0.634493 5.916847 1.206737 107
-0.615194 5.919900 1.207064 107
-0.594793 5.926729 1.207583 107
-0.574327 5.933476 1.208102 107
-0.511431 5.957054 1.209847 0
-0.488435 5.971127 1.210749 0
-0.467340 5.981532 1.211460 0
-0.447603 5.983940 1.211781 0
-0.437201 5.955713 1.210559 0
-0.361868 5.952987 1.211259 79
-0.340834 5.958776 1.211770 81
-0.319739 5.964478 1.212279 79
-0.298585 5.970094 1.212788 80
-0.274817 5.983193 1.213680 78
-0.257391 5.977282 1.213611 77
-0.234770 5.986416 1.214309 78
-0.212064 5.995452 1.215007 78
-0.189274 6.004391 1.215704 74
-0.167278 6.013545 1.216403 72
-0.145678 6.018533 1.216906 72
-0.124022 6.023430 1.217409 69
-0.099546 6.035736 1.218294 69
-0.079147 6.036700 1.218603 66
-0.060127 6.033844 1.218719 65
-0.036840 6.042119 1.219409 60
-0.014906 6.046564 1.219908 56
0.007082 6.050916 1.220405 56
0.033505 6.066334 1.221476 51
0.055640 6.070487 1.221972 48
0.077828 6.074548 1.222466 47
0.099180 6.078875 1.222964 41
0.126008 6.093847 1.224031 42
0.148391 6.097616 1.224523 37
0.172364 6.104978 1.225206 30
0.196413 6.112234 1.225887 29
0.217413 6.112031 1.226186 25
0.245421 6.130486 1.227443 22
0.272886 6.144755 1.228503 17
0.298878 6.155234 1.229372 14
0.323356 6.161940 1.230048 11
0.352067 6.175432 1.231101 7
0.379999 6.189192 1.232156 4
0.409708 6.206458 1.233402 2
17.641014 43.349796 3.185775 16
17.843958 43.418533 3.192115 16
21.591156 50.990360 3.593883 24
21.836100 51.033619 3.599801 25
18.258427 43.129677 3.185820 16
22.459032 51.008579 3.608930 50
22.679451 51.016243 3.612957 50
22.898443 51.019398 3.616786 51
23.124701 51.013683 3.620371 25
23.344318 51.014961 3.624184 51
23.562437 51.011761 3.627800 25
23.773933 51.015686 3.631644 26
23.999992 51.024872 3.636003 26
24.230133 51.040169 3.640732 52
24.904179 51.044849 3.652974 26
25.120649 51.028095 3.656154 26
21.333261 43.673264 3.263380 17
21.210575 43.098129 3.235852 17
27.075090 52.894295 3.774104 29
21.876152 43.253441 3.255039 35
27.530525 52.876122 3.781865 30
22.076611 42.955765 3.245839 17
28.009033 52.892204 3.791671 30
28.234318 52.863262 3.794741 30
28.227230 52.437073 3.776110 30
28.701181 52.398216 3.783679 30
24.037212 44.251518 3.340050 19
29.497656 52.926544 3.822213 31
29.735044 52.908512 3.826171 32
24.445032 43.905487 3.333293 18
24.516827 43.687428 3.325392 18
30.287802 52.590752 3.823704 32
30.465672 52.474506 3.822370 32
30.664534 52.391384 3.822910 32
30.912729 52.384914 3.827765 32
31.117983 52.310173 3.828855 32
31.407991 52.365307 3.837257 32
31.690037 52.405666 3.844897 33
5.157904 11.621106 1.559910 25
5.192751 11.592886 1.559473 22
5.256688 11.607512 1.561469 19
34.416054 53.732075 3.959267 74
34.679817 53.719639 3.964542 37
34.976017 53.751827 3.972423 38
35.242947 53.740143 3.977863 76
35.538017 53.766323 3.985533 38
35.663952 53.553898 3.979566 38
35.690712 53.205116 3.965762 37
35.767155 52.927917 3.956067 37
36.050751 52.557163 3.947306 37
30.544767 44.766640 3.501439 23
30.848936 44.569279 3.500426 23
37.109268 52.509384 3.969883 38
37.387684 52.483330 3.975354 38
37.616009 52.409012 3.977722 38
37.900604 52.406357 3.984355 39
38.256977 52.493671 3.996360 39
39.245918 53.007229 4.040724 41
39.507957 52.982773 4.046065 41
34.277039 46.084095 3.643165 27
40.180763 53.057453 4.065396 42
40.431519 53.013466 4.069777 42
40.737148 53.016541 4.077408 42
41.040768 53.015034 4.084840 43
41.347450 53.015110 4.092445 43
41.659794 53.019806 4.100407 43
41.997250 53.033596 4.109389 44
42.352188 53.083778 4.120277 44
42.589752 53.012440 4.123472 44
42.893806 52.998852 4.130643 45
43.228355 53.000019 4.139199 45
56.782108 65.375656 4.968152 57
47.558216 54.886456 4.324269 52
56.937046 64.669289 4.945233 57
39.694057 45.711979 3.766530 32
44.029976 50.005730 4.044941 42
44.099339 49.737453 4.036631 42
43.960812 49.252178 4.014582 41
44.369587 49.342621 4.028991 42
39.020557 43.477016 3.664019 29
39.310673 43.479908 3.671993 29
38.849712 42.712875 3.630766 28
40.863453 44.482159 3.751756 32
40.649338 43.963558 3.726595 31
53.398014 56.413357 4.539227 60
39.989628 42.696899 3.661484 29
40.727646 43.150032 3.698657 30
41.590675 43.703064 3.743011 32
41.589542 43.389862 3.731487 32
41.809174 43.307041 3.734610 32
49.955437 50.833538 4.238266 50
50.036667 50.581146 4.231374 50
41.938198 42.565636 3.711273 31
53.351135 52.991432 4.412699 57
48.964729 48.550289 4.127441 46
48.928360 48.184772 4.113252 46
48.964172 47.904774 4.104235 45
43.879780 42.925766 3.779757 34
52.135616 50.115425 4.274653 52
59.378429 56.303265 4.704600 61
59.472324 56.019592 4.697273 61
44.078964 41.941788 3.750599 33
59.651546 55.409542 4.680977 61
44.006393 41.305866 3.726094 32
44.211189 41.186989 3.727962 32
44.369434 41.041275 3.727551 32
60.060360 54.228691 4.651739 62
45.495548 41.453564 3.775314 34
61.348606 54.590282 4.702633 61
47.128975 42.257858 3.851889 37
47.257465 42.073467 3.849405 37
64.247955 55.476124 4.820179 58
64.453323 55.257351 4.818947 58
64.909317 55.241730 4.832266 58
65.723885 55.511864 4.866216 57
68.741142 56.352303 4.986991 55
70.776047 57.557579 5.089976 53
70.834000 57.195908 5.079773 53
71.007668 56.924477 5.076195 53
72.010269 57.284138 5.119280 52
74.079964 58.025230 5.208319 50
74.721001 58.088829 5.230529 49
75.498375 58.248409 5.260199 49
78.622475 59.692146 5.405657 46
79.021812 59.529873 5.413120 63
79.910301 59.759712 5.448766 63
81.221550 60.262039 5.506649 63
82.162117 60.490551 5.544012 63
83.187042 60.770618 5.585766 63
83.798576 60.754089 5.604912 63
84.604935 60.868137 5.634498 63
85.824913 61.260006 5.686213 63
86.850540 61.509064 5.727222 63
88.051094 61.868103 5.777389 63
90.147743 62.818600 5.875114 63
90.279236 62.464092 5.868463 63
90.476730 62.130753 5.864673 63
93.221931 63.469963 5.995734 63
94.354584 63.709492 6.040280 63
96.722145 64.737335 6.149545 63
97.817818 64.977119 6.192999 63
100.887718 65.936913 6.323644 63
101.174896 65.615746 6.323590 63
102.335495 65.862282 6.369625 63
104.302574 66.572433 6.456419 63
106.425812 67.361450 6.550833 63
74.803421 47.629383 4.908842 55
109.518677 68.189728 6.679069 63
112.920395 69.151299 6.821861 63
113.846550 69.155334 6.853330 63
117.376122 70.673096 7.016812 63
149.267273 88.553307 8.614137 63
149.709473 88.138985 8.617362 63
150.039490 87.659355 8.614979 63
150.497833 87.216827 8.618115 63
150.854889 86.680969 8.615238 63
151.299957 86.228661 8.617823 63
151.659760 85.727951 8.616207 63
7.425293 5.586034 1.412048 1
7.344223 5.506133 1.407096 1
7.223096 5.407796 1.400249 1
7.224074 5.331530 1.398320 2
7.184902 5.274018 1.395453 2
7.185313 5.235343 1.394484 2
7.181935 5.195046 1.393343 2
7.152933 5.143225 1.391000 2
7.160102 5.108103 1.390377 2
7.152545 5.066454 1.389068 2
7.155770 5.029767 1.388274 2
7.166169 4.996318 1.387824 2
7.166143 4.956474 1.386846 2
7.175587 4.924610 1.386411 2
7.174574 4.886428 1.385447 2
7.180768 4.851411 1.384827 2
7.186830 4.816399 1.384206 2
7.203835 4.785980 1.384099 2
7.228133 4.758521 1.384333 2
7.233838 4.723422 1.383712 2
7.250534 4.692800 1.383603 2
7.274554 4.665062 1.383835 2
7.287338 4.632808 1.383555 2
7.314902 4.606317 1.383955 2
7.349851 4.582555 1.384694 2
7.388481 4.560019 1.385602 2
7.415851 4.533018 1.385998 2
7.465606 4.514268 1.387412 2
7.503487 4.492705 1.388329 2
7.522567 4.464056 1.388396 2
7.609793 4.458171 1.391498 1
7.764810 4.475993 1.397643 1
28.377037 11.745373 2.322635 7
28.229637 11.574631 2.313435 7
28.980091 11.716610 2.344459 8
29.009823 11.605962 2.343189 8
29.932421 11.797951 2.381740 8
36.417393 13.105710 2.652245 13
36.570843 12.719231 2.650190 113
36.567692 12.564144 2.646968 207
36.604073 12.428462 2.645647 207
36.655319 12.297159 2.644996 219
36.696487 12.170166 2.644067 219
63.579048 13.422151 3.699784 41
63.378513 13.147990 3.687685 41
63.609352 12.954297 3.693630 41
-50.112263 1.334815 2.983655 17
-50.130688 1.503112 2.985873 17
-50.112560 1.671032 2.986577 17
-50.113831 1.839185 2.988120 17
-50.186428 2.008875 2.992695 17
-50.186516 2.177311 2.994240 17
-50.182259 2.337232 2.995546 17
-50.185459 2.497388 2.997190 17
-50.215496 2.675392 3.000152 17
-50.205265 2.843674 3.001357 17
-50.194096 3.020324 3.002630 17
-70.748619 5.077243 3.885332 45
-70.738594 5.305586 3.887356 45
-186.807251 13.884636 8.841614 63
-180.092529 15.292227 8.576442 63
-138.861206 12.486949 6.819344 63
-137.948196 12.888475 6.785861 63
-137.048096 13.736888 6.758340 63
-132.532089 13.770776 6.570074 63
-137.949478 14.780478 6.808711 63
-138.390686 15.330623 6.833954 63
-116.533409 14.247658 5.908311 63
-136.593170 17.045311 6.780853 63
-81.669563 13.572945 4.448729 63
-24.467262 4.623568 1.946278 3
-24.169882 4.659140 1.934482 3
-24.011763 4.708188 1.928666 3
-23.762325 4.744450 1.918889 3
-23.656860 4.882456 1.916636 3
-22.774374 4.799184 1.878888 3
-23.098078 4.938555 1.894431 3
-22.924791 5.057867 1.889173 6
-22.871235 5.123276 1.888015 6
-22.826046 5.186296 1.887174 6
-22.795586 5.255901 1.887057 6
-22.792278 5.331052 1.888158 6
-22.809019 5.406737 1.890102 6
-22.832514 5.487906 1.892425 6
-22.862701 5.574653 1.895127 6
-22.886362 5.652636 1.897424 3
-22.951780 5.744193 1.901675 3
-23.086061 5.856082 1.909107 3
-22.913279 5.893376 1.902689 3
-22.857130 5.957246 1.901516 3
-181.159515 44.214100 9.044921 63
-178.436874 44.863461 8.945476 63
-178.607910 45.561348 8.965088 63
-178.683304 46.237175 8.980494 63
-178.837341 46.935169 8.999598 63
-178.907516 47.613411 9.015017 63
-179.090256 48.986618 9.048162 63
-179.156464 49.669212 9.063775 63
-179.297058 50.374294 9.082921 63
-32.088463 9.595827 2.344193 21
-119.106865 35.782604 6.368187 63
-119.244766 36.269596 6.383423 63
-145.531097 45.849060 7.632662 63
-121.018669 38.623970 6.502279 63
-142.386581 45.918106 7.508075 63
-141.673355 46.255150 7.486520 63
-142.102890 46.935535 7.517866 63
-142.150070 47.493656 7.531457 63
-142.172348 48.045036 7.543987 63
-142.158401 48.585575 7.554917 63
-120.747124 41.779762 6.557634 63
-119.346405 41.734501 6.501002 63
-120.937729 42.752823 6.586204 63
-119.514206 42.691574 6.528435 63
-118.043762 42.626778 6.468789 63
-93.308296 34.133125 5.303302 48
-142.266891 52.451374 7.643428 63
-118.121742 44.056171 6.503570 63
-115.276306 43.429256 6.377384 63
-114.656448 43.668819 6.358400 63
-113.360909 43.623478 6.306455 63
-99.097076 38.553978 5.630787 63
-98.816353 38.834656 5.626233 63
-98.716217 39.165909 5.629968 63
-98.770866 39.559029 5.641238 63
-98.854828 40.004654 5.654929 63
-111.313850 45.487820 6.269583 63
-109.634972 45.243439 6.198440 63
-113.407242 47.226467 6.392246 63
-142.129517 60.841984 7.833077 63
-108.010315 46.711586 6.170721 63
-107.967171 47.132538 6.179331 63
-107.512650 47.373692 6.167727 63
-109.016556 48.458820 6.252394 63
-107.485985 48.221699 6.187678 63
-105.943832 47.967899 6.122160 63
-105.560928 48.231121 6.114082 63
-110.239777 50.844910 6.358950 63
-111.028427 52.134037 6.421782 63
-111.990463 53.054535 6.481964 63
-112.152435 53.579193 6.501609 63
-106.124901 51.149807 6.210035 63
-105.471016 51.280869 6.188654 63
-104.688316 51.344662 6.160703 63
-80.051361 39.607018 4.922317 57
-79.694290 39.768787 4.913112 57
-79.558029 40.022766 4.914703 57
-80.069527 40.605221 4.949416 57
-79.941475 40.900349 4.952495 57
-72.878456 37.614239 4.599707 63
-73.086754 38.036934 4.618898 63
-72.277084 37.912224 4.585296 62
-97.938408 51.793331 5.919374 63
-72.193146 38.480328 4.597670 63
