# .PCD v.7 - Point Cloud Data file format
VERSION .7
FIELDS x y z intensity
SIZE 4 4 4 1
TYPE F F F U
COUNT 1 1 1 1
WIDTH 1470
HEIGHT 1
VIEWPOINT 0 0 0 1 0 0 0
POINTS 1470
DATA ascii
-216.091202 24.299208 13.958965 63
-206.134018 24.658871 13.375782 63
-200.700455 25.436399 13.066676 63
-197.123184 26.380836 12.870280 63
-195.469818 26.853027 12.780272 63
-190.682465 27.522078 12.508973 63
-189.505585 28.024622 12.447935 63
-62.549976 9.940048 4.674980 32
-184.973068 28.676962 12.192162 63
-167.346436 27.784977 11.140957 63
-179.352158 30.365986 11.891234 63
-13.904598 3.053802 1.697588 1
-13.763616 3.071906 1.689657 1
-13.555853 3.077029 1.677585 1
-13.607381 3.128309 1.681557 1
-13.560581 3.161608 1.679447 1
-13.521921 3.194085 1.677806 1
-13.525895 3.236716 1.678858 1
-13.263381 3.226701 1.663338 1
-13.173293 3.249582 1.658532 1
-13.110562 3.277479 1.655428 1
-12.953976 3.285382 1.646464 1
-12.875204 3.348588 1.643166 1
-12.675811 3.344690 1.631494 1
-12.644128 3.376859 1.630324 1
-12.651286 3.417677 1.631598 1
-12.467665 3.414589 1.620883 1
-12.459549 3.449422 1.621159 1
-12.416360 3.475916 1.619230 1
-12.376112 3.506724 1.617573 1
-12.239287 3.511679 1.609772 1
-12.130118 3.520688 1.603666 1
-12.086367 3.547376 1.601738 1
-12.023214 3.568835 1.598581 1
-11.994814 3.598925 1.597631 1
-11.950884 3.624776 1.595696 1
-14.105318 4.238332 1.733830 1
-14.027805 4.265050 1.730001 1
-14.000880 4.302920 1.729348 1
-13.939812 4.328898 1.726463 1
-14.024115 4.397830 1.732946 1
-14.030710 4.447523 1.734525 1
-11.356163 3.750782 1.564607 1
-11.334484 3.781785 1.564137 1
-11.321336 3.811706 1.564134 1
-11.204495 3.811732 1.557480 1
-11.171189 3.838521 1.556263 1
-11.138815 3.861899 1.555020 1
-13.374905 4.603144 1.701046 1
-13.346356 4.640085 1.700383 1
-11.256290 4.005911 1.565415 1
-11.265189 4.042947 1.566893 1
-11.212242 4.063190 1.564436 1
-11.148460 4.077665 1.561221 1
-11.232107 4.141844 1.567663 1
-11.247459 4.183278 1.569650 1
-12.337321 4.598565 1.642297 1
-12.170855 4.578685 1.632395 1
-12.162009 4.615644 1.632920 1
-12.171815 4.659336 1.634686 1
-11.370331 4.410348 1.582826 1
-11.460105 4.478694 1.589775 1
-11.489640 4.525455 1.592753 1
-11.315871 4.500060 1.582332 1
-11.304163 4.531067 1.582573 1
-11.291728 4.563664 1.582825 1
-11.320135 4.612067 1.585815 1
-11.407807 4.683970 1.592791 1
-11.417115 4.725729 1.594540 1
-11.452865 4.776298 1.598022 1
-11.624040 4.885697 1.610757 1
-11.561614 4.901513 1.607787 1
-11.736874 5.010772 1.620758 1
-11.730134 5.047940 1.621520 1
-11.745343 5.094374 1.623780 1
-11.723586 5.125394 1.623543 1
-11.665852 5.179103 1.622052 1
-95.303215 41.664688 7.339255 63
-94.246933 41.588402 7.279198 63
-92.710732 41.291359 7.186045 46
-94.204918 42.321766 7.300279 63
-94.307251 42.755390 7.319776 63
-94.015373 43.030579 7.312839 63
-113.173981 52.250126 8.650280 63
-94.182602 43.887760 7.349843 63
-93.992683 44.171318 7.348914 63
-111.367775 52.767113 8.569754 63
-91.805000 43.893646 7.221867 46
-90.881287 43.834457 7.170251 47
-92.525673 45.036594 7.298869 63
-92.601166 45.445686 7.316736 63
-110.589539 54.739563 8.594286 63
-127.567055 63.714268 9.807051 63
-127.582405 64.270889 9.826985 63
-127.638100 64.850090 9.849944 63
-127.712601 65.441368 9.874421 63
-89.073631 46.022682 7.148783 47
-88.494492 46.106880 7.121091 48
-88.231163 46.334175 7.115192 48
-87.346443 46.231270 7.064894 48
-86.951035 46.421616 7.050855 49
-84.075645 45.996788 6.884783 51
-82.344429 46.519245 6.813696 52
-82.174454 46.793640 6.815042 52
-70.057106 44.874886 8.019983 62
-69.626915 44.916054 7.992131 62
-69.168495 44.969601 7.963043 63
-68.734924 45.019691 7.935585 63
-68.268639 45.045246 7.904631 63
-67.879150 45.119068 7.881652 63
-67.543938 45.210464 7.863441 63
-66.316681 44.727100 7.752850 61
-48.430603 32.797527 5.877230 34
-65.168571 44.905525 7.683911 2
-64.933090 45.068790 7.676826 2
-64.736320 45.258507 7.673911 2
-64.526001 45.438156 7.669594 2
-64.120766 45.477730 7.644363 60
-63.926125 45.666496 7.641768 60
-63.951580 45.998177 7.662095 60
-63.908207 46.314518 7.677005 2
-63.534519 46.372105 7.655214 60
-63.122791 46.399136 7.629221 60
-62.733967 46.440552 7.605652 60
-62.304230 46.448639 7.577528 59
-61.168808 45.901989 7.470762 58
-60.842152 45.995312 7.454529 58
-59.926739 45.617203 7.372196 57
-59.227131 45.381977 7.312455 56
-58.914608 45.459015 7.296432 56
-12.533210 9.364877 2.143332 3
-12.466514 9.492695 2.146577 7
-57.158726 46.286713 7.231426 55
-56.818886 46.329365 7.212158 55
-57.105293 47.218132 7.284241 56
-54.593842 46.363686 7.072698 53
-54.332664 46.458340 7.062090 53
-53.666718 46.517448 7.024006 53
-53.334396 46.544353 7.004944 53
-53.067905 46.627884 6.993587 52
-52.866642 46.768723 6.989940 52
-52.272209 46.552982 6.939600 52
-52.259899 46.862595 6.958398 52
-51.825569 46.770470 6.925867 52
-51.568745 46.855011 6.915506 52
-51.262367 46.892162 6.899163 51
-50.889481 46.865051 6.874725 51
-50.810005 47.112179 6.885769 51
-50.538223 47.161388 6.872496 51
-50.114651 47.079983 6.841693 51
-49.658390 46.979626 6.807765 50
-49.448803 47.098679 6.802953 50
-48.680000 46.654339 6.728067 49
-48.020153 46.642838 6.688111 49
-47.767292 46.710472 6.677616 49
-47.587589 46.850338 6.676266 49
-47.393467 46.975334 6.673148 49
-47.196236 47.096691 6.669672 49
-46.403847 47.232616 6.632715 48
-46.334515 47.810749 6.667642 98
-46.288074 48.090145 6.683872 3
-45.981766 48.093239 6.666599 98
-45.703083 48.123974 6.652841 97
-45.419323 48.147480 6.638366 97
-45.130554 48.163700 6.623175 97
-44.850243 48.187332 6.609031 96
-44.591892 48.216930 6.596590 96
-43.639420 47.487270 6.493102 47
-43.529686 47.692017 6.501157 47
-43.313488 47.777149 6.495082 47
-42.913223 47.651718 6.464272 46
-41.198521 47.288578 6.345284 45
-41.092960 47.492352 6.353987 45
-40.927692 47.625629 6.354552 45
-40.764519 47.761383 6.355467 45
-40.553318 47.822178 6.348547 45
-40.475899 48.045498 6.360374 45
-39.875229 47.994320 6.325046 45
-39.601185 47.989567 6.310351 44
-39.332600 47.989712 6.296355 44
-38.841900 48.026703 6.273602 44
-38.581886 48.032562 6.260639 43
-38.319847 48.034031 6.247312 43
-38.052452 48.043705 6.234371 42
-37.815426 48.074329 6.224568 42
-37.573818 48.097515 6.214048 42
-37.345505 48.119785 6.204188 41
-37.115055 48.137871 6.193965 41
-36.867153 48.148232 6.182356 41
-36.626686 48.167072 6.171802 81
-36.395908 48.197681 6.162658 80
-36.154755 48.230003 6.153190 79
-36.045303 48.426750 6.162481 40
-36.071392 48.814682 6.192709 41
-36.117424 49.216923 6.225032 42
-36.155624 49.648228 6.259211 43
-36.180901 50.029293 6.289056 44
-35.954418 50.050827 6.279843 44
-35.708763 50.079899 6.270343 87
-35.530315 50.187550 6.270031 43
-35.306850 50.228577 6.262609 43
-35.083221 50.249638 6.253721 43
-34.844578 50.265560 6.243796 42
-34.615025 50.293701 6.235284 42
-34.376926 50.307526 6.225343 42
-34.145660 50.330303 6.216459 41
-33.899517 50.347610 6.206537 41
-33.645081 50.331425 6.193725 40
-33.410419 50.344303 6.184105 40
-33.184677 50.350700 6.174444 40
-32.961208 50.378426 6.166586 39
-32.737926 50.405193 6.158722 39
-32.445717 50.319164 6.139108 39
-32.173504 50.243408 6.121229 38
-31.887323 50.161407 6.102306 37
-31.552660 49.996159 6.074830 36
-31.250233 49.880440 6.052681 36
-31.079256 49.982403 6.053308 36
-30.849237 49.984241 6.043604 35
-30.641691 50.022903 6.037809 35
-30.260637 50.156372 6.032254 35
-30.080801 50.241039 6.031427 35
-29.917192 50.334038 6.031991 35
-29.764158 50.466076 6.036141 35
-29.466963 50.727432 6.044757 35
-29.256636 50.756798 6.038557 35
-29.025499 50.746799 6.028429 35
-28.898947 51.349110 6.071620 36
-28.581678 51.602982 6.079499 73
-28.369699 51.628502 6.073266 72
-20.138933 36.145618 4.503810 17
-27.945948 51.654694 6.058967 100
-27.747128 51.702496 6.055211 100
-27.524975 51.703281 6.046809 100
-27.312038 51.720951 6.040184 70
-27.099291 51.737755 6.033553 69
-26.709375 51.392502 5.990863 100
-26.074604 50.536465 5.897467 30
-25.852905 50.519882 5.887947 30
-25.339094 50.332680 5.853887 57
-25.198753 50.482525 5.861129 29
-25.151766 50.834274 5.888367 30
-24.900770 50.748512 5.872386 29
-24.687487 50.719250 5.862446 29
-24.441317 50.638611 5.847163 28
-24.043734 50.681522 5.836940 28
-23.853958 50.721859 5.833784 28
-23.513865 50.891819 5.836390 28
-23.370749 51.040028 5.843941 28
-23.212873 51.154831 5.848269 28
-23.100695 51.379353 5.863318 29
-22.719051 51.430016 5.855131 28
-22.324408 51.470295 5.845866 28
-22.127254 51.489292 5.841225 28
-21.939007 51.529762 5.838723 28
-21.529310 51.523155 5.825475 27
-21.344110 51.568855 5.823671 27
-21.146114 51.580349 5.818641 27
-20.953875 51.606003 5.815036 27
-20.763077 51.634666 5.811784 27
-20.555828 51.617737 5.804231 27
-20.378183 51.652931 5.802025 26
-20.199162 51.683758 5.799455 26
-20.002419 51.720257 5.796910 26
-19.784513 51.695862 5.788633 26
-19.398539 51.699257 5.778100 52
-19.204620 51.710804 5.773726 51
-19.013372 51.729168 5.770063 51
-18.823465 51.750599 5.766752 51
-18.638586 51.786461 5.764868 51
-18.625805 52.352173 5.813106 27
-18.690767 53.172592 5.885334 29
-18.794712 54.134605 5.970815 32
-18.876671 55.048542 6.051642 35
-18.970093 56.020782 6.137845 37
-19.069721 57.036236 6.227989 40
-19.186605 58.133148 6.325658 44
-19.285805 59.197186 6.420106 45
-19.405855 60.358154 6.523511 46
-19.525244 61.506115 6.625833 47
-27.759661 91.049438 9.383705 50
-27.431902 91.092972 9.379756 50
-27.089169 91.081596 9.370782 50
-26.762680 91.126549 9.367171 50
-26.437229 91.174156 9.363910 50
-26.113808 91.228294 9.361355 50
-25.783695 91.192375 9.350893 50
-25.465445 91.263451 9.350111 50
-25.139065 91.302536 9.346453 50
-24.800976 91.294098 9.338485 50
-24.475754 91.334648 9.335165 50
-24.148626 91.366295 9.331120 50
-23.827171 91.419998 9.329214 50
-23.490849 91.410553 9.321566 51
-23.166677 91.450279 9.318566 51
-22.845181 91.500496 9.316632 51
-22.521826 91.541801 9.313972 51
-22.197744 91.504547 9.304483 51
-21.873737 91.539650 9.301446 51
-21.549732 91.573601 9.298400 51
-21.219933 91.579109 9.292834 51
-20.900114 91.630226 9.291561 51
-12.517386 52.364574 5.679137 45
-12.328094 52.399040 5.678863 45
-12.141486 52.399765 5.675712 44
-11.958800 52.419365 5.674347 44
-11.776849 52.442234 5.673336 44
-11.559677 52.276497 5.655112 21
-11.353853 52.164730 5.641901 21
-11.183978 52.195618 5.641947 21
-11.010594 52.258907 5.644858 21
-10.828733 52.274502 5.643462 21
-10.646874 52.289455 5.642061 21
-10.489774 52.453114 5.654277 21
-10.286997 52.341022 5.641393 21
-10.115918 52.364437 5.641051 21
-9.960846 52.550083 5.655403 21
-9.799202 52.699821 5.666523 22
-9.441172 52.776985 5.668672 22
-9.262450 52.818581 5.670097 22
-9.079736 52.831936 5.669006 22
-8.895432 52.832798 5.666836 22
-8.527070 52.832561 5.662478 22
-8.356459 52.865936 5.663520 22
-7.769122 52.626312 5.635776 21
-7.577495 52.543324 5.626398 20
-7.393833 52.442829 5.615585 20
-7.031506 52.451794 5.612938 20
-6.845683 52.405746 5.607126 20
-6.667867 52.442345 5.608836 20
-6.488807 52.466419 5.609466 20
-6.311984 52.517662 5.612599 20
-6.142900 52.555653 5.614657 20
-5.945797 52.351501 5.594841 19
-5.767538 52.381012 5.596167 19
-5.599219 52.552971 5.610391 20
-4.908565 53.131824 5.657908 21
-4.769038 53.945438 5.730157 72
-4.594282 53.974377 5.731808 73
-4.408634 53.971329 5.730580 72
-4.224059 53.991516 5.731496 73
-4.039530 54.015038 5.732766 73
-3.855290 54.049862 5.735105 73
-3.670320 54.068123 5.736005 73
-3.485016 54.077770 5.736183 49
-3.299968 54.098721 5.737431 49
-3.114964 54.126991 5.739389 73
-2.929562 54.142670 5.740268 49
-2.744123 54.161686 5.741499 49
-2.558518 54.176067 5.742367 49
-2.381956 54.169811 5.741449 49
-2.192705 53.386154 5.670671 44
-1.642880 53.509277 5.681099 45
-1.459426 53.507870 5.680863 22
-1.277691 53.374363 5.668806 22
-1.094580 53.379650 5.669277 22
-0.735339 53.085606 5.642992 21
-0.554339 53.045193 5.639510 21
-0.372756 53.032024 5.638529 21
-0.025324 53.076126 5.643023 21
0.158386 53.112862 5.646680 21
0.353073 53.184372 5.653538 21
0.538805 53.247627 5.659688 22
0.721159 53.414139 5.675152 22
0.914483 53.591450 5.691668 23
1.300038 53.864395 5.717520 48
1.818085 53.330711 5.671826 45
2.008412 53.416542 5.680434 22
2.182051 53.399139 5.679754 22
2.561346 53.415833 5.683333 46
2.770488 53.793411 5.718396 48
2.977448 53.918541 5.730886 24
3.166142 53.940662 5.734092 49
3.345402 53.959068 5.736953 49
3.535327 53.987801 5.740863 50
3.724669 54.007927 5.744051 50
3.912463 54.011543 5.745804 50
4.102614 54.034283 5.749339 25
4.291131 54.040512 5.751438 25
4.482165 54.065849 5.755318 25
4.673452 54.090500 5.759192 25
4.852163 54.087990 5.760580 25
5.053648 54.114033 5.764779 25
5.147645 53.414158 5.703268 23
5.225064 52.695805 5.639997 21
5.540619 52.332993 5.610924 41
5.738329 52.368217 5.616179 42
5.922586 52.372559 5.618593 42
6.110056 52.395916 5.622787 42
6.287541 52.412163 5.626283 43
6.476141 52.438122 5.630822 43
6.664364 52.459461 5.634998 43
6.840488 52.462017 5.637408 43
7.031196 52.493797 5.642643 44
7.220834 52.517033 5.647159 44
7.409320 52.531731 5.650955 44
7.595841 52.533989 5.653675 45
7.787672 52.562977 5.658885 45
7.978315 52.583427 5.663377 45
8.169219 52.603176 5.667862 46
8.358820 52.614407 5.671628 46
8.552596 52.644463 5.677171 46
8.741051 52.646484 5.680212 46
8.933756 52.667313 5.685030 47
9.128559 52.740002 5.694501 24
9.314641 52.769146 5.700046 24
9.697979 52.786388 5.707855 48
9.856631 52.648304 5.698392 24
10.018068 52.525269 5.690351 23
7.168583 39.652527 4.511257 8
10.376575 52.395664 5.685269 23
10.571161 52.414246 5.690392 24
10.730270 52.326015 5.685568 23
10.918245 52.316208 5.688187 23
11.128917 52.394512 5.698987 24
11.320361 52.394821 5.702661 24
11.536207 52.486916 5.714870 24
11.830324 52.149132 5.691235 24
12.020503 52.142979 5.694532 48
12.258218 52.342098 5.716705 25
12.518646 52.546661 5.739872 25
12.862244 53.070629 5.792571 55
13.496942 53.928520 5.880525 91
13.700982 53.939213 5.885897 92
13.914433 53.979664 5.894104 93
14.120260 53.992577 5.899817 62
14.331050 54.019932 5.906944 94
14.538678 54.035049 5.912999 95
14.746610 54.049366 5.919046 96
14.960892 54.081852 5.926862 96
15.163880 54.108894 5.933996 97
15.374045 54.124577 5.940377 98
15.474625 53.806496 5.915513 31
15.541956 53.364384 5.879257 61
15.752875 53.386032 5.886338 31
15.962735 53.432590 5.895576 31
16.176168 52.869953 5.852945 30
16.344007 52.768787 5.848656 29
16.703957 52.636040 5.846802 59
16.910231 52.641701 5.852780 30
17.236858 52.971722 5.889588 31
17.436440 52.952942 5.893421 31
17.873655 53.039421 5.912799 32
18.114056 53.122341 5.926530 32
18.368280 53.237633 5.943439 33
18.684776 53.507523 5.975209 34
18.976933 53.709179 6.000591 35
19.198055 53.728245 6.008614 35
19.422560 53.753792 6.017337 35
19.635424 53.748917 6.023221 36
19.860693 53.772652 6.031928 72
20.081787 53.784428 6.039566 73
20.307871 53.806316 6.048256 74
20.532818 53.823605 6.056586 37
20.755215 53.858570 6.066365 37
21.020630 53.965401 6.083516 38
21.301453 54.103867 6.103837 38
21.432074 53.898472 6.090926 38
22.175364 55.068142 6.211575 42
22.036818 54.257038 6.139997 40
22.179871 54.078674 6.129896 39
22.589491 54.018032 6.138337 40
22.827698 54.021572 6.146537 40
23.063797 54.042858 6.156188 40
23.294498 54.074745 6.166582 41
23.534964 54.101234 6.176920 41
23.792152 54.136543 6.188613 42
24.058153 54.211014 6.203870 42
24.277401 54.187790 6.209596 42
24.542517 54.278893 6.226293 43
24.808527 54.368824 6.242979 44
26.221817 55.280758 6.367529 45
26.060173 54.511387 6.299576 45
26.325161 54.538712 6.311519 45
26.605721 54.615509 6.328080 45
26.807966 54.543579 6.329846 45
27.099255 54.635551 6.348146 45
27.525255 54.525661 6.355512 45
27.696623 54.394569 6.351623 45
27.881062 54.287273 6.350192 45
28.059235 54.168930 6.347702 45
28.301983 54.164272 6.356805 45
30.264887 56.280334 6.601547 48
29.886974 54.764980 6.467202 47
30.351116 55.138138 6.515261 47
30.442698 54.841839 6.495794 47
31.474852 55.688694 6.604328 97
31.757696 55.720947 6.618568 97
32.029507 55.754440 6.632506 98
32.305141 55.770615 6.645320 98
32.583427 55.788906 6.658475 98
32.875076 55.826096 6.673721 99
33.092213 55.744465 6.676692 99
33.140724 55.400814 6.652332 49
33.211151 55.094242 6.631830 49
33.871479 55.276436 6.674504 49
34.052086 55.137787 6.671844 49
34.306995 55.130653 6.682540 49
34.511524 55.026878 6.683717 49
34.700081 54.899269 6.682440 49
34.978283 54.902485 6.695145 49
35.189041 54.806042 6.697351 49
35.900276 55.025158 6.746123 50
36.428913 55.374496 6.796513 51
37.083881 55.510471 6.836861 51
37.432648 55.593624 6.859249 51
37.745159 55.603611 6.874571 51
38.067432 55.664585 6.894206 52
8.401586 14.641654 2.459171 16
8.766261 15.020108 2.504466 8
8.790907 14.945984 2.500248 5
8.812729 14.873748 2.496048 9
8.856261 14.829788 2.494984 6
8.874970 14.754382 2.490437 12
8.913091 14.703996 2.488675 11
43.847607 57.944450 7.340998 57
44.204330 57.979313 7.361353 57
44.521671 57.983437 7.377598 57
45.015301 57.774284 7.387647 100
45.251667 57.655922 7.391269 100
45.518517 57.573231 7.399052 58
45.818798 57.528934 7.411341 100
46.130138 57.515900 7.426476 58
46.537350 57.592834 7.452973 58
0.546982 3.895384 1.294197 0
0.582567 3.874956 1.294637 41
0.452707 3.670467 1.273590 1
0.432618 3.629553 1.269699 1
0.439139 3.618243 1.269273 1
0.424036 3.583451 1.266077 0
0.433083 3.575114 1.265997 0
0.433948 3.558002 1.264879 0
0.421086 3.526389 1.262032 0
0.413508 3.500689 1.259878 0
0.408527 3.477958 1.258070 0
0.411690 3.463924 1.257300 0
0.423087 3.458498 1.257567 0
0.417809 3.435880 1.255761 0
0.414765 3.416590 1.254304 0
0.420010 3.405864 1.253884 0
0.423243 3.391469 1.253111 0
0.428802 3.380318 1.252688 0
0.406044 3.341069 1.248813 0
0.416672 3.336011 1.249084 0
0.416317 3.319333 1.247971 0
0.424441 3.311025 1.247893 0
0.444403 3.313349 1.249190 0
0.432379 3.285629 1.246699 0
0.428845 3.266269 1.245243 0
0.427705 3.250118 1.244135 0
0.444299 3.249959 1.245090 0
0.443441 3.233396 1.243979 0
0.448342 3.222286 1.243556 0
0.464534 3.222386 1.244514 0
0.457228 3.200887 1.242719 0
0.461163 3.172862 1.241182 0
0.450584 3.148871 1.239045 0
0.461091 3.143093 1.239311 0
0.471587 3.137268 1.239576 0
0.476452 3.125716 1.239149 0
0.480894 3.114583 1.238727 0
0.460801 3.083020 1.235564 0
0.486242 3.090134 1.237544 0
0.493931 3.081156 1.237461 0
0.497818 3.070433 1.237042 0
0.510811 3.067402 1.237653 0
0.502759 3.045996 1.235860 0
0.519492 3.044586 1.236804 0
0.514346 3.025791 1.235354 0
0.518005 3.015054 1.234936 0
0.528161 3.008905 1.235199 0
0.532448 2.997273 1.234773 0
0.536334 2.986074 1.234351 0
0.540173 2.974871 1.233928 0
0.556484 2.973535 1.234874 0
0.553984 2.957371 1.233768 0
0.557355 2.946579 1.233350 0
0.529805 2.910565 1.229508 0
0.549158 2.911556 1.230794 0
0.546340 2.895551 1.229690 0
0.552653 2.887231 1.229614 0
0.552560 2.874108 1.228856 0
0.594295 2.891506 1.232527 0
0.607334 2.887317 1.233128 0
0.597882 2.866558 1.231342 0
0.588316 2.845888 1.229557 0
0.594787 2.836982 1.229476 0
0.610940 2.835026 1.230417 0
0.614126 2.823730 1.229995 0
0.620518 2.814734 1.229913 0
0.636666 2.812586 1.230852 0
0.639750 2.801234 1.230430 0
0.639822 2.787162 1.229663 0
0.652659 2.782587 1.230261 0
0.661891 2.776159 1.230522 0
0.658212 2.760300 1.229420 0
0.671310 2.755134 1.230013 0
0.684098 2.750357 1.230609 0
0.693254 2.743779 1.230869 0
0.709364 2.741066 1.231804 0
0.715468 2.731739 1.231720 0
0.721539 2.722391 1.231636 0
0.734288 2.717324 1.232229 0
0.810927 2.752836 1.239262 0
0.817071 2.743155 1.239175 0
0.829632 2.738170 1.239770 0
0.839414 2.730040 1.240017 0
0.852263 2.724443 1.240606 0
0.861708 2.716698 1.240856 0
0.877946 2.713045 1.241783 0
0.907548 2.718026 1.244066 0
0.964123 2.724401 1.248280 6
0.973602 2.716206 1.248527 3
1.014040 2.726050 1.251813 2
1.082175 2.751611 1.257798 2
1.147068 2.774732 1.263441 1
1.485398 2.953902 1.295743 1
1.870645 3.139075 1.331616 1
2.056151 3.223831 1.348684 1
23.790230 14.614312 3.419156 13
55.528374 18.480011 5.939358 44
-51.082737 2.243008 5.042353 14
-51.065994 2.414136 5.042760 14
-62.573498 9.975268 6.111200 45
-185.628906 28.839714 16.581671 63
-179.547836 29.187529 16.090843 63
-177.661682 29.517282 15.943481 63
-176.046738 29.879242 15.819172 63
-174.513962 30.244270 15.701823 63
-172.965073 30.596233 15.583046 63
-171.317734 30.920401 15.455783 63
-170.011505 31.294975 15.357666 63
-168.485214 31.620419 15.240651 63
-166.833359 31.912067 15.112790 63
-165.549545 32.262913 15.016459 63
-164.065353 33.124660 14.916264 63
-163.463425 33.591774 14.878675 63
-161.435181 33.762230 14.718117 63
-161.455978 34.347301 14.734333 63
-161.669540 34.974392 14.767403 63
-13.155849 3.413240 1.928955 0
-13.011055 3.422323 1.917462 0
-12.948016 3.448701 1.913044 1
-12.857723 3.468482 1.906261 2
-12.798494 3.494843 1.902174 2
-12.696533 3.510799 1.894369 2
-12.637241 3.536245 1.890274 2
-12.562408 3.557555 1.884825 3
-12.507364 3.581291 1.881047 7
-12.424750 3.599771 1.874913 4
-12.361458 3.622595 1.870467 3
-12.294273 3.644018 1.865678 3
-12.234780 3.667014 1.861563 3
-12.190667 3.693701 1.858799 1
-12.111846 3.710827 1.852985 0
-12.033031 3.727435 1.847166 0
-11.935013 3.738234 1.839649 0
-11.875431 3.759102 1.835517 0
-11.861845 3.792614 1.835449 0
-11.798835 3.810062 1.830959 0
-172.646683 57.751087 16.323561 63
-171.355392 57.979321 16.229795 63
-170.641876 58.395691 16.188074 63
-170.732834 59.052025 16.217979 63
-170.999207 59.804554 16.265163 63
-171.064011 60.523022 16.295546 63
-166.550903 59.548538 15.908073 63
-75.392136 27.405077 7.639417 62
-164.201767 60.024448 15.741817 63
-28.747936 12.132849 3.453551 13
-131.490402 61.326187 13.283228 63
-131.029800 61.661022 13.262955 63
-131.547867 62.985390 13.359074 63
-127.766510 61.717133 13.020859 63
-127.166481 61.967495 12.987029 63
-127.378159 62.613342 13.031317 63
-127.622726 63.251865 13.077863 63
-127.618164 63.797070 13.101857 63
-127.714523 64.395035 13.135847 63
-127.726532 64.952881 13.161919 63
-127.792908 65.540688 13.193510 63
-88.948006 45.998135 9.434546 46
-88.401505 46.098728 9.398901 46
-86.122948 46.378555 9.244791 48
-85.462204 46.418224 9.198419 49
-84.055580 46.025211 9.077284 50
-82.412521 46.597229 8.985582 51
-81.726715 46.577251 8.935109 52
-81.554245 47.219124 8.954159 51
-81.364655 47.480595 8.953468 51
-80.832291 47.520943 8.917348 52
-80.323227 47.590282 8.884422 52
-78.614937 46.937519 8.729868 54
-77.246445 46.475361 8.609189 55
-76.746643 46.530647 8.576485 56
-76.386627 46.668465 8.557973 56
-76.082024 46.820736 8.544204 56
-75.840210 47.028633 8.537803 56
-74.756325 46.724644 8.445783 57
-74.262711 46.767460 8.413309 58
-74.119072 47.030304 8.416917 58
-81.151672 46.661694 12.663762 53
-80.625565 46.706791 12.610353 53
-78.930450 46.100109 12.385882 55
-78.738037 46.348370 12.382809 55
-77.027855 45.692490 12.153529 56
-76.683945 45.841988 12.127523 57
-76.422470 46.021816 12.112592 57
-76.087219 46.191193 12.089196 57
-75.862244 46.391106 12.079837 57
-75.665894 46.625858 12.076160 57
-75.021141 46.580448 12.004801 57
-74.511955 46.615582 11.953768 58
-70.914192 45.028259 11.458607 2
-70.522888 45.116272 11.424238 61
-70.071892 45.163239 11.380686 62
-69.615852 45.187103 11.334988 62
-68.498810 44.806404 11.190102 63
-68.090614 44.869534 11.152583 63
-67.771851 44.989887 11.128806 63
-67.791969 45.336857 11.157515 63
-67.373863 45.388176 11.118425 63
-66.367889 45.018288 10.986438 61
-65.787613 44.965981 10.922901 60
-65.428108 45.046021 10.892406 60
-65.144836 45.160809 10.872527 59
-64.941330 45.346863 10.866492 59
-64.759949 45.548107 10.864021 59
-64.054016 45.702682 10.804953 58
-63.826286 46.198353 10.821903 100
-63.813168 46.504398 10.845360 100
-63.430538 46.554691 10.811180 100
-63.029243 46.588631 10.773919 100
-62.634804 46.625092 10.737661 100
-62.228214 46.649780 10.699343 57
-60.045380 45.638187 10.399781 53
-59.185814 45.600868 10.312138 52
-58.889069 45.690136 10.290570 100
-12.468534 9.420703 2.697528 33
-12.451336 9.467313 2.699839 22
-12.446247 9.523921 2.704198 20
-57.004097 46.428947 10.170992 50
-56.743034 46.519978 10.153870 50
-56.297558 46.471611 10.107104 49
-56.159443 46.678936 10.112049 49
-55.781628 46.683025 10.076522 49
-55.485863 46.754642 10.054811 48
-55.081009 46.714527 10.013037 48
-54.543133 46.572300 9.949789 47
-54.181225 46.595142 9.917847 47
-53.869545 46.643570 9.893002 46
-53.554272 46.670853 9.866028 46
-53.225479 46.700218 9.838079 46
-52.967953 46.791458 9.822426 45
-52.819286 46.979904 9.825741 45
-52.517406 47.028980 9.802375 45
-52.031612 46.907600 9.746674 44
-51.786263 47.004086 9.733027 44
-51.508236 47.052948 9.712127 44
-51.126808 47.019608 9.674337 43
-50.835705 47.068527 9.652446 43
-50.646973 47.864044 9.709440 44
-49.577118 47.155655 9.547299 42
-49.387054 47.293907 9.543326 42
-48.557320 46.802872 9.423236 40
-47.081924 47.235626 9.334797 39
-46.190632 47.607998 9.293863 77
-46.212376 47.958466 9.329914 78
-46.186268 48.243999 9.355624 100
-45.877689 48.244122 9.329412 78
-45.599251 48.274734 9.308847 77
-45.318451 48.301056 9.287758 77
-45.048946 48.321407 9.267120 76
-44.774467 48.334610 9.245444 76
-44.497398 48.359844 9.224837 75
-43.541973 47.638985 9.073459 71
-43.389172 47.795757 9.076509 71
-43.073429 47.767307 9.047614 35
-42.575809 47.528027 8.982644 34
-42.036495 47.218899 8.907300 33
-41.753033 47.217247 8.884028 33
-41.271927 47.325439 8.856053 66
-41.073948 47.419937 8.849762 65
-40.875790 47.513622 8.843463 32
-40.698273 47.614983 8.839690 65
-40.404724 47.908321 8.846613 65
-40.220467 48.017647 8.843385 65
-39.559841 47.536900 8.741623 31
-39.299435 47.563015 8.723969 31
-38.744221 47.533195 8.677709 62
-38.768261 47.882717 8.716192 31
-38.439560 48.138599 8.717890 62
-38.193378 48.142963 8.699588 62
-37.940708 48.171394 8.683425 62
-37.708542 48.208183 8.669793 62
-37.459877 48.221733 8.652538 62
-37.226925 48.237507 8.636784 93
-36.990726 48.264744 8.622093 62
-36.750069 48.284519 8.606361 62
-36.509701 48.303192 8.590621 93
-36.274284 48.327190 8.575906 93
-36.040112 48.368950 8.563288 93
-35.950371 48.594177 8.581113 62
-35.983326 48.994102 8.626845 93
-36.020073 49.385647 8.672027 62
-36.057423 49.800171 8.719835 62
-36.058388 50.166649 8.759892 94
-35.818844 50.187382 8.745145 93
-35.608311 50.230644 8.735004 93
-35.369217 50.249348 8.720242 62
-35.141476 50.283440 8.708055 62
-34.902889 50.300049 8.693275 93
-34.668980 50.322208 8.679522 62
-34.433132 50.340023 8.665242 62
-34.201904 50.363434 8.651989 93
-33.966591 50.379181 8.637693 62
-33.735855 50.400558 8.624425 93
-33.509628 50.427612 8.612183 62
-33.290123 50.444878 8.599381 62
-33.064320 50.470016 8.587125 62
-32.830322 50.480721 8.572789 62
-32.644955 50.549126 8.568249 62
-32.415504 50.564713 8.554935 31
-32.182194 50.572533 8.540576 62
-31.862995 50.436783 8.504460 31
-31.526751 50.268799 8.463672 31
-31.248852 50.194508 8.437373 31
-30.977886 50.129124 8.412619 31
-30.540045 50.169388 8.389502 31
-30.342920 50.205509 8.381269 31
-30.153021 50.273327 8.377207 31
-29.788784 50.033401 8.327019 31
-29.412445 50.167667 8.319373 62
-29.226963 50.238934 8.316319 62
-29.048954 50.323410 8.315331 93
-29.088827 50.807823 8.373954 31
-20.184692 35.308449 6.039769 9
-28.447355 51.720345 8.442567 62
-28.238655 51.730446 8.431670 93
-28.026749 51.754856 8.422349 62
-27.818590 51.785477 8.414059 93
-27.603390 51.801102 8.403687 62
-27.391945 51.822941 8.394345 62
-27.171850 51.826153 8.382402 93
-26.917048 51.757267 8.360076 62
-26.581383 51.519646 8.313355 93
-26.164892 51.108871 8.241714 62
-26.003294 51.221706 8.246343 62
-25.576025 50.775002 8.170008 62
-25.312710 50.644901 8.140344 62
-25.063648 50.564369 8.117441 62
-24.935158 50.741962 8.131904 31
-24.754551 50.807457 8.130270 31
-24.532825 50.781994 8.115653 31
-24.327808 50.791771 8.106220 31
-23.926399 50.827000 8.089931 31
-23.756865 50.914307 8.091904 31
-23.579115 50.982834 8.091273 31
-23.404278 51.058022 8.091677 31
-23.243118 51.165459 8.096748 31
-23.090254 51.268696 8.101796 31
-22.975052 51.463005 8.119824 62
-22.777620 51.510380 8.116072 62
-22.572638 51.538628 8.109715 31
-22.364687 51.533070 8.099178 62
-22.184998 51.571018 8.095370 31
-21.970165 51.545456 8.082223 62
-21.789034 51.603947 8.081019 31
-21.594833 51.628506 8.075133 62
-21.393600 51.633816 8.066644 62
-21.212280 51.690247 8.065423 62
-21.014065 51.701481 8.057961 62
-20.821533 51.726814 8.052570 62
-20.624950 51.740261 8.045615 62
-20.429861 51.756680 8.039174 93
-20.234884 51.772358 8.032727 62
-20.038694 51.783554 8.025755 62
-19.842649 51.794006 8.018776 62
-19.650663 51.814941 8.013350 62
-19.465052 51.824604 8.006866 4
-19.259184 51.802830 7.995711 93
-19.060007 51.799030 7.987149 93
-18.866076 51.809517 7.980660 93
-18.680952 51.845642 7.977806 93
-18.498234 51.888638 7.975985 62
-18.521528 52.572933 8.062551 62
-18.602167 53.421440 8.171984 62
-18.698895 54.372353 8.294951 62
-18.795044 55.343513 8.420522 62
-18.890408 56.334949 8.548695 62
-18.979044 57.327702 8.676870 62
-19.076817 58.374947 8.812329 63
-19.169716 59.431160 8.948831 33
-19.290865 60.610580 9.101976 70
-19.395227 61.761051 9.250965 37
-23.121870 98.667488 14.071979 63
-21.930252 94.749321 13.536749 49
-21.613201 94.787903 13.533266 49
-21.278118 94.821030 13.528741 49
-12.182900 52.462894 7.845256 93
-11.997660 52.471043 7.841685 93
-11.814724 52.490215 7.839668 93
-11.634704 52.524326 7.839728 93
-11.449538 52.530510 7.836140 62
-11.268676 52.559444 7.835669 62
-11.084963 52.572124 7.833111 62
-10.911645 52.590405 7.831587 62
-10.728624 52.605724 7.829539 62
-10.535285 52.614071 7.826447 62
-10.355476 52.647633 7.826990 62
-10.173671 52.668819 7.825966 62
-10.000243 52.684040 7.824417 62
-9.817771 52.700058 7.822863 62
-9.636449 52.723278 7.822344 62
-9.455060 52.745861 7.821820 62
-9.271389 52.752102 7.819210 62
-9.091012 52.781261 7.819716 62
-8.907884 52.790146 7.817615 62
-8.734861 52.805061 7.816551 62
-8.557264 52.855961 7.820164 93
-8.371608 52.843281 7.815446 62
-8.190377 52.865372 7.815405 62
-7.998509 52.796227 7.803391 93
-7.800075 52.663322 7.783047 93
-7.605664 52.557262 7.766339 93
-7.415410 52.482029 7.753790 93
-7.228982 52.437660 7.745398 93
-7.052303 52.395676 7.737525 93
-6.869627 52.381584 7.733287 93
-6.689656 52.394485 7.732685 93
-6.510704 52.418613 7.733639 93
-6.336341 52.497440 7.741873 93
-6.157298 52.524288 7.743337 93
-5.981510 52.594009 7.750519 93
-5.807935 52.698730 7.762378 93
-5.636201 52.838470 7.778914 93
-5.465939 53.013252 7.800128 62
-5.291971 53.147900 7.816132 93
-5.108978 53.147362 7.814442 93
-4.936498 53.169426 7.815874 93
-4.754362 53.183487 7.816255 93
-4.613585 54.024776 7.925358 93
-4.428066 54.029781 7.924685 93
-4.242885 54.042065 7.925046 93
-4.057805 54.057667 7.925923 93
-3.872929 54.080547 7.927835 93
-3.687662 54.094860 7.928701 93
-3.502088 54.100597 7.928522 93
-3.317001 54.125507 7.930937 93
-3.131758 54.149776 7.933348 93
-2.946143 54.161503 7.934192 93
-2.769752 54.172440 7.935041 93
-2.593487 54.198654 7.937966 93
-2.407824 54.232300 7.941915 93
-2.208996 53.499901 7.845478 31
-1.851246 53.476639 7.841925 93
-1.668152 53.420444 7.834415 93
-1.484264 53.494488 7.844060 62
-1.302644 53.345806 7.824581 93
-1.121293 53.244080 7.811338 93
-0.940490 53.149662 7.799130 93
-0.759606 53.086338 7.791077 93
-0.578415 53.050144 7.786659 93
-0.406316 53.021519 7.783289 93
-0.215157 53.023430 7.784046 93
-0.032614 53.036869 7.786371 93
0.141429 53.061924 7.790264 93
0.335258 53.117298 7.798281 93
0.521535 53.196152 7.809425 93
0.699860 53.286690 7.822137 93
0.892272 53.455326 7.845223 62
1.092081 53.730160 7.882333 62
1.284613 53.853809 7.899687 93
1.470342 53.858021 7.901444 62
1.655328 53.849712 7.901638 62
1.839444 53.828888 7.900267 93
2.026144 53.843018 7.903567 62
2.203440 53.853260 7.906359 62
2.401604 53.889061 7.912748 62
2.589140 53.905155 7.916551 62
2.767241 53.917461 7.919847 62
2.954724 53.928310 7.923120 62
3.143480 53.950340 7.927945 62
3.341707 53.970776 7.932745 62
3.530893 53.991428 7.937558 62
3.720287 54.011406 7.942366 62
3.899314 54.019901 7.945629 62
4.088625 54.034618 7.949906 62
4.279963 54.064419 7.956254 62
4.460876 54.082840 7.961059 62
4.649299 54.083748 7.963761 93
4.839318 54.095791 7.968015 93
5.031054 54.118950 7.973821 93
5.217192 54.098186 7.973911 62
5.271403 53.126053 7.848384 62
5.355779 52.413361 7.757123 93
5.718494 52.384628 7.759369 93
5.903434 52.392826 7.763597 93
6.091593 52.419952 7.770415 93
6.278782 52.438560 7.776189 93
6.455287 52.446213 7.780424 93
6.635853 52.476734 7.787766 93
6.824380 52.497272 7.794041 93
7.013837 52.521027 7.800830 93
7.200790 52.528469 7.805537 93
7.389320 52.543037 7.811276 93
7.580948 52.572521 7.819084 93
7.778236 52.580109 7.824267 93
7.968940 52.600361 7.831026 93
8.150884 52.621670 7.837803 93
8.342103 52.640549 7.844549 93
8.532787 52.654831 7.850771 93
8.723698 52.668415 7.856987 93
8.918097 52.696819 7.865269 93
9.111164 52.716740 7.872509 93
9.302815 52.728191 7.878706 93
9.498112 52.754425 7.886971 93
9.685549 52.785828 7.895774 62
9.856945 52.661633 7.884308 93
10.022171 52.554424 7.874940 93
10.182354 52.468109 7.868186 93
10.355696 52.398441 7.863990 93
10.533386 52.347462 7.862380 93
10.717527 52.322823 7.864390 93
10.903578 52.305218 7.867431 93
11.091616 52.294628 7.871502 93
7.514407 37.172829 5.842310 9
7.640786 37.139557 5.841883 9
12.236017 53.010571 7.996875 31
12.661882 53.098663 8.021452 62
12.885110 53.192314 8.040473 93
13.031981 53.051350 8.027437 62
13.489319 53.943031 8.155091 93
13.698997 53.972496 8.165802 62
13.903382 53.982143 8.173919 62
14.114930 54.013783 8.185132 62
14.319909 54.021839 8.193235 62
14.528671 54.040474 8.202883 62
14.742524 54.073433 8.214592 62
14.953197 54.094208 8.224742 62
15.156154 54.120918 8.235438 62
15.371219 54.151390 8.247126 62
15.551913 54.075531 8.244332 62
15.599179 53.600246 8.186751 62
16.163988 53.454819 8.190230 31
16.370762 53.458672 8.198785 93
16.528896 53.323338 8.188219 31
16.692982 53.206219 8.180233 31
16.865906 53.114708 8.175858 31
17.054743 53.067337 8.177676 31
17.243479 53.019287 8.179489 31
17.421642 52.970215 8.180819 31
17.646530 53.017342 8.196043 31
17.860691 53.033875 8.207129 31
18.095152 53.101372 8.225433 31
18.334639 53.178959 8.245277 31
18.614075 53.355186 8.279044 31
19.198044 53.755226 8.353761 31
19.630894 53.764160 8.374268 31
19.854568 53.783821 8.386830 31
20.083158 53.839355 8.404069 31
20.306204 53.853516 8.416101 31
20.521770 53.822685 8.422409 31
20.768896 53.889698 8.442157 31
20.991507 53.897408 8.453648 31
21.206793 53.911884 8.465691 31
21.682766 53.988018 8.497909 31
21.901514 53.955292 8.504684 31
22.136311 54.005909 8.522363 31
22.581987 54.024330 8.546832 31
22.825119 54.038280 8.560786 62
23.062794 54.062702 8.575809 62
23.297531 54.078945 8.589792 62
23.534405 54.097771 8.604282 31
23.776905 54.126305 8.620308 31
24.035591 54.185863 8.640955 62
24.286234 54.226475 8.659019 31
24.516281 54.223362 8.670899 31
24.766193 54.258293 8.688431 31
25.014881 54.288589 8.705438 31
25.252985 54.319012 8.721972 31
25.491835 54.326015 8.735874 31
25.911789 54.224510 8.747203 31
26.277647 54.040638 8.746222 63
26.528427 54.041668 8.760550 64
26.979992 54.433784 8.831951 33
27.255939 54.496113 8.855038 33
27.513542 54.522415 8.872976 33
27.700733 54.441761 8.874523 33
27.879606 54.324089 8.871389 33
28.050224 54.192001 8.866198 33
28.269308 54.145580 8.873837 33
28.452919 54.036331 8.872229 33
28.689732 54.019184 8.884473 33
29.230406 54.094742 8.925869 34
29.912970 54.825317 9.050952 36
30.239159 54.945412 9.084688 36
30.479445 54.940365 9.098978 36
31.436834 55.663952 9.240730 76
31.723377 55.702477 9.263121 77
32.000137 55.722809 9.282937 78
32.283760 55.751968 9.304279 78
32.563770 55.773102 9.324585 79
32.848598 55.799644 9.345904 79
33.120174 55.824303 9.366250 100
33.206276 55.538177 9.339911 79
33.251907 55.192242 9.304355 78
33.424496 55.023037 9.296906 39
33.852718 55.282955 9.354089 40
34.277702 55.100914 9.362314 40
34.471039 54.980705 9.362066 40
34.733116 54.961514 9.377676 40
34.939011 54.878857 9.382597 40
35.832283 54.941235 9.450753 41
36.359154 55.288742 9.525109 42
36.918797 55.675259 9.606083 43
37.130478 55.568283 9.609334 43
37.402241 55.544140 9.625867 43
37.699970 55.554070 9.648009 44
38.021683 55.594589 9.675248 44
38.299297 55.592663 9.694880 44
38.567879 55.576756 9.712459 44
39.005592 55.745552 9.762058 45
8.393029 14.628407 3.163255 30
8.464732 14.623712 3.168004 20
40.471897 55.706963 9.865249 93
40.804531 55.739899 9.893388 94
42.693153 57.748032 10.244899 51
43.044025 57.784649 10.274996 52
43.395702 57.819508 10.305077 52
43.735737 57.837139 10.332593 53
44.111401 57.896259 10.367230 53
44.470482 57.931927 10.398284 53
44.837929 57.974976 10.430851 54
45.054520 57.832718 10.432832 54
45.285927 57.707935 10.437862 54
45.539986 57.609585 10.447471 54
45.847702 57.573795 10.467763 54
46.186604 57.572803 10.494153 55
46.629345 57.690643 10.540891 55
47.107193 57.845123 10.594223 56
47.841770 58.290421 10.697403 57
48.135826 58.223755 10.714046 58
49.343010 59.191483 10.907707 60
49.725601 59.234749 10.942695 61
50.106396 59.273155 10.977157 61
50.534939 59.320862 11.016511 62
50.671906 59.063816 11.002048 62
50.716778 58.706890 10.970304 61
50.910831 58.534859 10.969142 61
51.297585 58.550949 11.002439 62
51.255043 58.103489 10.954946 61
51.559345 58.009365 10.970864 61
51.788315 57.853966 10.974672 61
52.372463 58.071270 11.044477 62
52.833477 58.174446 11.093022 63
53.366398 58.328362 11.152621 63
54.348984 58.940235 11.294400 62
54.709385 58.905025 11.321459 62
55.151993 58.971237 11.365335 62
55.601246 59.040779 11.410207 61
56.021431 59.037205 11.445739 61
56.516628 59.125439 11.496556 61
57.056610 59.274181 11.557078 60
57.455463 59.259567 11.590109 60
58.316528 59.263241 11.665135 59
71.294205 71.316284 13.923841 63
71.426865 70.977196 13.903834 63
71.550079 70.606071 13.880165 63
71.689484 70.227539 13.857389 63
71.852325 69.920700 13.843461 63
71.938301 69.543381 13.816374 63
72.089958 69.204422 13.798782 63
72.287148 68.884422 13.787142 63
72.371300 68.486198 13.758423 63
72.595062 68.239395 13.756124 63
72.661232 67.827904 13.724881 63
72.757812 67.422195 13.697061 63
72.861702 67.048111 13.672902 63
73.071304 66.768288 13.666939 63
73.172119 66.394012 13.642783 63
73.367302 66.102875 13.634793 63
73.405525 65.700272 13.602682 63
73.579147 65.369621 13.589520 63
73.691689 65.010773 13.568401 46
73.845184 64.687653 13.554351 46
73.937523 64.336823 13.532348 46
74.049751 64.003807 13.513880 47
74.199142 63.680161 13.499829 47
74.310318 63.326107 13.479727 47
74.466179 63.009548 13.467190 47
74.571312 62.652828 13.446586 47
74.736862 62.345711 13.436064 47
74.839058 61.988827 13.415462 47
75.054977 61.722897 13.413504 47
76.363533 62.312386 13.587852 63
77.388908 62.669426 13.715789 63
78.389450 62.998226 13.839137 63
78.588211 62.681667 13.831909 63
79.997444 63.308083 14.019599 63
80.511162 63.267982 14.065929 63
82.506462 64.312752 14.345059 63
83.572533 64.623390 14.474029 63
85.524605 65.602280 14.743896 63
85.642761 65.241470 14.726166 63
88.272934 66.687157 15.100432 63
89.605263 67.169167 15.269969 63
92.932968 68.570343 15.709805 63
95.009254 69.539902 15.992119 63
96.300850 69.939598 16.151768 63
97.834999 70.523163 16.350164 63
98.249588 70.267586 16.371449 63
102.211700 71.936554 16.897532 63
104.316742 72.828217 17.177708 63
107.495964 73.896271 17.579893 63
112.416336 76.025719 18.239716 63
114.424065 76.762856 18.499245 63
115.958328 77.176758 18.686501 63
117.643883 77.675110 18.895714 63
121.008202 79.257759 19.357470 63
123.136269 80.030357 19.632742 63
162.933151 101.941162 25.336403 63
163.437241 101.496964 25.356518 63
23.784075 14.733000 4.625828 5
55.552429 18.488052 8.415885 31
-51.030766 2.379467 7.060192 29
-28.733904 12.211152 4.651268 17
-130.675934 61.889580 19.111538 63
-129.838943 62.013672 19.025246 63
-128.906082 62.141071 18.928627 63
-128.159607 62.325451 18.856592 63
-128.143738 62.863483 18.888285 63
-128.211014 63.444378 18.932133 63
-128.314804 64.045982 18.981556 63
-128.337952 64.609825 19.019846 63
-128.394089 65.192558 19.063208 63
-128.422974 65.763802 19.103029 63
-128.495224 66.359703 19.149443 63
-88.929581 46.305119 13.486893 47
-88.307800 46.346066 13.421144 48
-87.710327 46.415073 13.360044 48
-87.053947 46.448685 13.290294 49
-86.429817 46.495205 13.225076 49
-85.208107 46.590199 13.098102 50
-83.697975 46.116245 12.901758 51
-83.262283 46.246948 12.863298 51
-82.846413 46.404816 12.828986 52
-82.517868 46.591156 12.806226 52
-82.282059 46.828854 12.797163 52
-70.331551 45.007874 16.246113 45
-69.850563 45.034508 16.174711 45
-69.405281 45.098064 16.112984 45
-68.889404 45.095337 16.033407 45
-68.541397 45.200455 15.991511 45
-68.044380 45.187222 15.914022 45
-67.612183 45.230957 15.852866 45
-66.476845 44.810940 15.633501 45
-65.609840 44.858784 15.507272 90
-65.336441 44.997795 15.481530 90
-65.101501 45.162472 15.464657 90
-64.904747 45.353222 15.456654 90
-64.710640 45.545414 15.449383 90
-64.301743 45.583565 15.392513 45
-64.063828 45.725773 15.373300 90
-64.081863 46.069313 15.415603 90
-64.068100 46.408131 15.452805 90
-63.684067 46.459175 15.401812 45
-63.276833 46.473969 15.343318 90
-62.882599 46.529007 15.291628 90
-62.479618 46.541725 15.233840 45
-61.308102 45.985687 14.996095 45
-60.958076 46.062172 14.953962 45
-61.388664 47.035797 15.133240 45
-58.912670 45.741756 14.618067 45
-12.493113 9.449737 3.508314 24
-12.489385 9.504400 3.514498 21
-57.252552 46.344128 14.453803 45
-56.902611 46.379196 14.408461 45
-56.591267 46.427979 14.370453 45
-55.948540 46.551670 14.295344 45
-55.557163 46.526901 14.237263 45
-55.218319 46.560440 14.194074 45
-54.826302 46.545982 14.137511 45
-54.426136 46.521622 14.078706 45
-54.094860 46.554516 14.036956 45
-53.790550 46.609024 14.001873 45
-53.471794 46.648933 13.963066 45
-53.144600 46.679321 13.922018 45
-52.823669 46.713238 13.882442 45
-52.514786 46.756027 13.845823 45
-52.202618 46.777859 13.806158 45
-51.894436 46.817471 13.769514 45
-51.162289 46.463341 13.623650 45
-50.797943 46.428181 13.569821 45
-50.544674 46.526291 13.548791 45
-50.510834 46.814354 13.582683 45
-50.355419 46.972443 13.583073 45
-50.120426 47.070492 13.564935 45
-49.551830 46.862164 13.461364 45
-48.979309 46.628395 13.353992 45
-48.622162 46.583595 13.300810 45
-48.325104 46.611172 13.265515 45
-48.067513 46.675964 13.240620 45
-47.837856 46.767277 13.223151 45
-47.654972 46.888565 13.216030 45
-47.469498 47.039013 13.212732 45
-47.294373 47.183613 13.210117 45
-46.822399 47.330257 13.169846 45
-46.461826 47.605461 13.162335 90
-46.468838 47.940250 13.210293 90
-46.374374 48.169781 13.230716 3
-46.085613 48.192505 13.197544 90
-45.813519 48.214779 13.166542 90
-45.525234 48.250984 13.135634 90
-45.245548 48.278160 13.104663 90
-44.974483 48.296448 13.073629 90
-44.706032 48.332592 13.045615 90
-43.753391 47.587639 12.820938 90
-43.485279 47.631947 12.794426 90
-43.217758 47.658882 12.765620 90
-42.865372 47.571053 12.709939 45
-42.394470 47.377064 12.624542 45
-42.141956 47.413963 12.599424 45
-41.805145 47.351315 12.549708 45
-41.335548 47.441669 12.506826 45
-41.172836 47.578876 12.507753 45
-40.989483 47.691391 12.502712 45
-40.818375 47.818314 12.501391 45
-40.652565 47.934830 12.499275 45
-40.508816 48.078125 12.503862 45
-40.212513 48.050816 12.465248 45
-39.953064 48.083698 12.440089 45
-39.732491 48.129734 12.421542 45
-39.451492 48.132568 12.389652 45
-39.272728 48.228924 12.383766 45
-38.993305 48.213585 12.349577 45
-38.728935 48.215477 12.319852 45
-38.623627 48.421310 12.339349 45
-38.210007 48.243614 12.265636 45
-37.878597 48.495621 12.267299 45
-37.484596 48.300259 12.193464 45
-37.214451 48.266632 12.158419 45
-36.729324 48.302685 12.110766 3
-36.482586 48.312691 12.085435 3
-36.255577 48.365738 12.069090 3
-36.208931 48.651150 12.108685 88
-36.235283 49.023605 12.169889 3
-36.278332 49.441231 12.240095 90
-36.326145 49.888241 12.315571 90
-36.038528 50.170082 12.329729 3
-35.817635 50.236416 12.317088 3
-35.674000 50.396542 12.327554 45
-35.694824 50.781387 12.391006 45
-35.871338 51.420635 12.511266 45
-35.672958 51.506062 12.504549 45
-33.993458 50.493176 12.171313 45
-33.560093 50.561043 12.139052 44
-33.327732 50.578106 12.118819 44
-33.131153 50.650730 12.111282 44
-32.874203 50.625858 12.082064 43
-32.686409 50.691372 12.074479 43
-32.430233 50.664387 12.045245 43
-32.182796 50.649643 12.018991 42
-31.842402 50.479046 11.958342 42
-31.459146 50.232521 11.881231 41
-31.371891 52.092106 12.181227 45
-29.978909 50.854252 11.847213 40
-29.766115 50.883148 11.832840 40
-29.236319 50.726807 11.759160 39
-29.065191 51.668175 11.902998 3
-28.867567 51.724339 11.895325 3
-28.651592 51.744965 11.880162 3
-28.430353 51.754250 11.862748 3
-28.232693 51.785946 11.851287 3
-28.015471 51.800465 11.835356 3
-27.800249 51.817593 11.820166 3
-27.595839 51.854893 11.809460 100
-27.379190 51.866779 11.793508 100
-26.976175 51.501011 11.697457 77
-26.794210 51.577488 11.695709 100
-26.072422 51.437836 11.613322 37
-25.837008 51.397453 11.587590 37
-25.623877 51.402283 11.571585 37
-24.963696 50.877171 11.428711 35
-24.497606 50.778900 11.375675 70
-24.304087 50.814285 11.367119 69
-24.105810 50.838154 11.356310 34
-23.932964 50.918793 11.357477 69
-23.756683 50.991627 11.357142 69
-23.581720 51.067448 11.357551 69
-23.243265 51.246201 11.364344 100
-23.076534 51.341972 11.369230 100
-22.915197 51.426273 11.372595 100
-22.743208 51.510056 11.375224 100
-22.545691 51.531391 11.365113 69
-22.345339 51.544674 11.353498 100
-22.149519 51.568127 11.344123 100
-21.955227 51.594482 11.335491 100
-21.760998 51.620102 11.326855 100
-21.555487 51.615665 11.312217 100
-21.364305 51.647110 11.305066 68
-21.175930 51.685181 11.299409 100
-20.982006 51.707844 11.290748 100
-20.784058 51.718719 11.279833 100
-20.586267 51.728832 11.268911 100
-20.406900 51.760815 11.263214 100
-20.222208 51.777378 11.254515 100
-20.018530 51.795887 11.245090 100
-19.817566 51.820999 11.237158 99
-19.446285 51.841789 11.218220 99
-19.241789 51.853497 11.208021 98
-19.052589 51.880032 11.201550 98
-18.873556 51.906639 11.195809 98
-18.717146 52.061665 11.214828 66
-18.820850 52.990742 11.389753 100
-18.900278 53.865028 11.553437 74
-18.991579 54.796684 11.728369 78
-19.084780 55.755867 11.908551 82
-19.183073 56.753887 12.096233 87
-19.275740 57.757011 12.284668 90
-19.353666 58.735115 12.467857 45
-19.508074 59.956181 12.699770 90
-19.616911 61.128521 12.920465 45
-19.704882 62.179249 13.117894 45
-12.710411 52.469852 10.999175 30
-12.340405 52.541695 10.998594 91
-12.155539 52.554527 10.994169 4
-11.973704 52.582130 10.992739 90
-11.800089 52.603516 10.990549 90
-11.610555 52.639275 10.990611 60
-11.436124 52.655575 10.987661 60
-11.251267 52.665176 10.983210 60
-11.069186 52.689598 10.981752 60
-10.887048 52.713375 10.980289 60
-10.705510 52.740391 10.979572 60
-10.521327 52.751263 10.975849 60
-10.347483 52.767773 10.973619 60
-10.173622 52.783699 10.971385 60
-9.911303 52.347565 10.881387 57
-9.728179 52.351738 10.876892 86
-9.546846 52.366920 10.874642 57
-9.376168 52.391838 10.874639 86
-9.184149 52.395370 10.870128 57
-9.065172 52.864082 10.955623 59
-8.895447 52.906872 10.959353 89
-8.710893 52.978741 10.968328 60
-8.533527 53.037113 10.975047 30
-8.349126 52.965073 10.957011 29
-8.161791 52.940285 10.947969 29
-7.952540 52.802685 10.917167 29
-7.756918 52.694477 10.892363 29
-7.562975 52.593349 10.869054 28
-7.385801 52.556980 10.858494 28
-7.203501 52.556103 10.854676 28
-7.023193 52.574131 10.854605 28
-6.839861 52.560242 10.848526 28
-6.669630 52.587917 10.850698 28
-6.483962 52.647930 10.858856 28
-6.305970 52.694771 10.864762 28
-6.144022 52.830341 10.887919 29
-5.975160 53.005287 10.918566 29
-5.799063 53.097397 10.933456 29
-5.625947 53.239861 10.958091 29
-5.449790 53.350391 10.976720 30
-5.089710 53.322025 10.966720 90
-4.939418 54.078537 11.109067 63
-4.766398 54.150944 11.120930 95
-4.580917 54.168308 11.122280 95
-4.395528 54.188950 11.124375 95
-4.209862 54.205021 11.125715 95
