# .PCD v.7 - Point Cloud Data file format
VERSION .7
FIELDS x y z intensity
SIZE 4 4 4 1
TYPE F F F U
COUNT 1 1 1 1
WIDTH 1532
HEIGHT 1
VIEWPOINT 0 0 0 1 0 0 0
POINTS 1532
DATA ascii
-4.397777 -7.136034 -0.105899 0
-4.411852 -7.109265 -0.102710 0
-4.434575 -7.104479 -0.103294 0
-4.451792 -7.089048 -0.101993 0
-4.485980 -7.109281 -0.106976 0
-4.505111 -7.101443 -0.106934 0
-4.516773 -7.066694 -0.102484 0
-4.534818 -7.050591 -0.101180 0
-4.560987 -7.056699 -0.103651 0
-4.575330 -7.029120 -0.100458 0
-4.596824 -7.024175 -0.101042 0
-4.620410 -7.018238 -0.101620 0
-4.640300 -7.009518 -0.101575 0
-4.663857 -7.003411 -0.102153 0
-4.679883 -6.983268 -0.100219 0
-4.700697 -6.973879 -0.100171 0
-4.718796 -6.961301 -0.099496 0
-4.749471 -6.973294 -0.103217 0
-4.760236 -6.942179 -0.099397 0
-4.785950 -6.943234 -0.101233 0
-4.808317 -6.937044 -0.101811 0
-4.818731 -6.905830 -0.097991 0
-4.847867 -6.913741 -0.101082 0
-4.857027 -6.882960 -0.097264 0
-4.881999 -6.879540 -0.098467 0
-4.896162 -6.859336 -0.096534 0
-4.928169 -6.869879 -0.100249 0
-4.936121 -6.834940 -0.095800 0
-4.965380 -6.842258 -0.098889 0
-4.985700 -6.831873 -0.098836 0
-5.004166 -6.817910 -0.098156 0
-5.019732 -6.800915 -0.096849 0
-5.039907 -6.790341 -0.096796 0
-5.060045 -6.779696 -0.096743 0
-5.065220 -6.741125 -0.091666 0
-5.103964 -6.765148 -0.097892 0
-5.114565 -6.736936 -0.094698 0
-5.145928 -6.746805 -0.098411 0
-5.162085 -6.728879 -0.097101 0
-5.180082 -6.714360 -0.096418 0
-5.199954 -6.703227 -0.096363 0
-5.210036 -6.674846 -0.093169 0
-5.233694 -6.670466 -0.094369 0
-5.247490 -6.648880 -0.092430 0
-5.271105 -6.644342 -0.093630 0
-5.295744 -6.643691 -0.095459 0
-5.297285 -6.601542 -0.089755 0
-5.331954 -6.617736 -0.094721 0
-5.346364 -6.595327 -0.092779 0
-5.361730 -6.576854 -0.091467 0
-5.381121 -6.565087 -0.091409 0
-5.392197 -6.539790 -0.088842 0
-5.418815 -6.541948 -0.091297 0
-4.936173 -5.725605 0.059307 0
-4.961005 -5.728706 0.056848 0
-4.965565 -5.697804 0.060664 0
-4.970441 -5.671299 0.063848 0
-4.986671 -5.660903 0.063898 0
-4.986473 -5.623414 0.068968 0
-4.998212 -5.606349 0.070272 0
-5.010445 -5.593609 0.070945 1
-5.056973 -5.629166 0.062217 2
-5.046715 -5.579053 0.069792 2
-5.075861 -5.588054 0.066082 2
-5.113364 -5.605628 0.060497 6
-5.143371 -5.618656 0.056156 2
-5.190787 -5.653208 0.047433 9
-5.197944 -5.629061 0.049993 1
-5.225343 -5.634061 0.046913 0
-5.274911 -5.666854 0.038199 0
-5.328366 -5.711319 0.027594 4
-5.335545 -5.686818 0.030156 7
-5.361876 -5.687385 0.027708 7
-5.384306 -5.685807 0.025881 6
-5.409908 -5.686726 0.023431 4
-5.448085 -5.702830 0.017853 5
-5.458177 -5.680645 0.019792 1
-5.859960 -6.184349 -0.082251 0
-5.879454 -6.174678 -0.082817 0
-5.890277 -6.151662 -0.080874 0
-5.920169 -6.153753 -0.083941 0
-5.918810 -6.114987 -0.078867 0
-5.948683 -6.116895 -0.081934 0
-5.963147 -6.100659 -0.081246 0
-5.984198 -6.089208 -0.081804 0
-6.001883 -6.075271 -0.081739 0
-6.007910 -6.050316 -0.079176 0
-6.027931 -6.039379 -0.079736 0
-6.056252 -6.036872 -0.082171 0
-6.072132 -6.018911 -0.081476 0
-6.077042 -5.989397 -0.078280 0
-6.104444 -5.987319 -0.080717 0
-6.109937 -5.962251 -0.078154 0
-6.117889 -5.935043 -0.075581 0
-6.141821 -5.930422 -0.077395 0
-6.161508 -5.918947 -0.077953 0
-6.170893 -5.895387 -0.076009 0
-6.187900 -5.880800 -0.075942 0
-6.215212 -5.878090 -0.078376 0
-6.217404 -5.844763 -0.074552 0
-6.226402 -5.821117 -0.072607 0
-6.237073 -5.801164 -0.071292 0
-6.278263 -5.812129 -0.076848 0
-6.287055 -5.788354 -0.074904 0
-6.298384 -5.767505 -0.073584 0
-6.324762 -5.764906 -0.076020 0
-6.346656 -5.755604 -0.077201 0
-6.349766 -5.725898 -0.074005 0
-6.376126 -5.723019 -0.076439 0
-6.387127 -5.701951 -0.075119 0
-6.403457 -5.686611 -0.075049 0
-6.400683 -5.651165 -0.070604 0
-6.419568 -5.638632 -0.071159 0
-6.436481 -5.622405 -0.071085 0
-6.466293 -5.621067 -0.074138 0
-6.481540 -5.606233 -0.074071 0
-6.472595 -5.565218 -0.068376 0
-6.499571 -5.560806 -0.070804 0
-6.521781 -5.549878 -0.071979 0
-6.533991 -5.532073 -0.071286 0
-6.558158 -5.524552 -0.073088 0
-6.571048 -5.505849 -0.072391 0
-6.586693 -5.489867 -0.072319 0
-6.593764 -5.465589 -0.070373 0
-6.609268 -5.449529 -0.070300 0
-6.607566 -5.417048 -0.066481 0
-6.642976 -5.419963 -0.070779 0
-6.658320 -5.403732 -0.070706 0
-6.664948 -5.379354 -0.068759 0
-6.685943 -5.368420 -0.069934 0
-6.701107 -5.352039 -0.069861 0
-6.698725 -5.319601 -0.066042 0
-6.725415 -5.313803 -0.068465 0
-6.722788 -5.281403 -0.064646 0
-6.733223 -5.263909 -0.063956 0
-6.762777 -5.260500 -0.067001 0
-6.750923 -5.220298 -0.061312 0
-6.780416 -5.216724 -0.064357 0
-6.806963 -5.210399 -0.066777 0
-6.811080 -5.181573 -0.064200 0
-6.798616 -5.141586 -0.058511 0
-6.834032 -5.142760 -0.062802 0
-6.840944 -5.122446 -0.061487 0
-6.884654 -5.101221 -0.064453 10
-6.892803 -5.079102 -0.063130 11
-6.906956 -5.062000 -0.063054 11
-6.924108 -5.047350 -0.063602 11
-6.935082 -5.027648 -0.062902 8
-6.949055 -5.010399 -0.062825 6
-6.975306 -5.002979 -0.065241 2
-6.983007 -4.980672 -0.063918 1
-6.978206 -4.948570 -0.060102 0
-6.995013 -4.933608 -0.060648 0
-6.996182 -4.906446 -0.058079 0
-7.012859 -4.891399 -0.058625 0
-7.026356 -4.873880 -0.058547 0
-7.030360 -4.849133 -0.056601 0
-7.033588 -4.825284 -0.054659 0
-7.059495 -4.817180 -0.057072 0
-7.085406 -4.808940 -0.059485 0
-7.082732 -4.779420 -0.056294 0
-7.114947 -4.775688 -0.059951 0
-7.121653 -4.753158 -0.058628 0
-7.125063 -4.728311 -0.056681 0
-7.137990 -4.710400 -0.056603 0
-7.154072 -4.694738 -0.057146 0
-7.160431 -4.672162 -0.055823 0
-7.153763 -4.640500 -0.052009 0
-7.166383 -4.622490 -0.051931 0
-7.201684 -4.620177 -0.056207 0
-7.194692 -4.588575 -0.052394 0
-7.184278 -4.554841 -0.047960 0
-7.226051 -4.556656 -0.053480 0
-7.218697 -4.525175 -0.049668 0
-7.207900 -4.491598 -0.045234 0
-7.226591 -4.477760 -0.046399 0
-7.241946 -4.461665 -0.046941 0
-7.273805 -4.456291 -0.050592 0
-7.273700 -4.427440 -0.048017 0
-7.304345 -4.423661 -0.051675 0
-7.282876 -4.383904 -0.045378 0
-7.297941 -4.367555 -0.045919 0
-7.312955 -4.351142 -0.046460 0
-7.331275 -4.336753 -0.047623 0
-7.336109 -4.313973 -0.046299 0
-7.320631 -4.278818 -0.041246 0
-7.345495 -4.268436 -0.043651 0
-7.374301 -4.259022 -0.046673 0
-7.364679 -4.229014 -0.042868 0
-7.348677 -4.194137 -0.037817 0
-7.369953 -4.181464 -0.039600 0
-7.380970 -4.162702 -0.039519 0
-7.405597 -4.151825 -0.041922 0
-7.402806 -4.125063 -0.039356 0
-7.413625 -4.106187 -0.039275 0
-7.410620 -4.079493 -0.036710 0
-7.427641 -4.065403 -0.037874 0
-7.445158 -4.050283 -0.039034 0
-7.448797 -4.027441 -0.037711 0
-7.459275 -4.008404 -0.037629 0
-7.476633 -3.993102 -0.038788 0
-7.463149 -3.959903 -0.034357 0
-7.472881 -3.941772 -0.034279 0
-7.479568 -3.920804 -0.033577 0
-7.500170 -3.907171 -0.035356 0
-7.510228 -3.887956 -0.035274 0
-7.506173 -3.861457 -0.032710 0
-7.512554 -3.840422 -0.032007 0
-7.532951 -3.826527 -0.033785 0
-7.521545 -3.796547 -0.029982 0
-7.534753 -3.779021 -0.030519 0
-7.562078 -3.768439 -0.033537 0
-7.553907 -3.740318 -0.030354 0
-7.566937 -3.722642 -0.030891 0
-7.579912 -3.704909 -0.031428 0
-7.574996 -3.678613 -0.028865 0
-7.598547 -3.665892 -0.031261 0
-7.604184 -3.644660 -0.030558 0
-7.627663 -3.631737 -0.032954 0
-7.608037 -3.598871 -0.027913 0
-7.602633 -3.572728 -0.025351 0
-7.647541 -3.569416 -0.031463 0
-7.630727 -3.539378 -0.027047 0
-7.639501 -3.519710 -0.026964 0
-7.648205 -3.500011 -0.026880 0
-7.653217 -3.478706 -0.026177 0
-7.647686 -3.451720 -0.023612 0
-7.674329 -3.439744 -0.026624 0
-7.686395 -3.421461 -0.027160 0
-7.683819 -3.397025 -0.025218 0
-7.688033 -3.376653 -0.024519 0
-7.685269 -3.352286 -0.022578 0
-7.704373 -3.336890 -0.024351 0
-7.716106 -3.318440 -0.024886 0
-7.716764 -3.295552 -0.023564 0
-7.721009 -3.274136 -0.022861 0
-7.710447 -3.246975 -0.019683 0
-7.747694 -3.238414 -0.024548 0
-7.733265 -3.209878 -0.020752 0
-7.737191 -3.188457 -0.020049 0
-7.737336 -3.165651 -0.018727 0
-7.737391 -3.142870 -0.017406 0
-7.770758 -3.132340 -0.021651 0
-7.781826 -3.113531 -0.022184 0
-7.755627 -3.081346 -0.016534 0
-7.781426 -3.067842 -0.019541 0
-7.796012 -3.050263 -0.020693 0
-7.776937 -3.020967 -0.016281 0
-7.810071 -3.009754 -0.020523 0
-7.820738 -2.990730 -0.021056 0
-7.801362 -2.961622 -0.016645 0
-7.815621 -2.943844 -0.017796 0
-7.826071 -2.924762 -0.018329 0
-7.855262 -2.911705 -0.021950 0
-7.827959 -2.880440 -0.016305 0
-7.830662 -2.858899 -0.015602 0
-7.814420 -2.831483 -0.011811 0
-7.850939 -2.820477 -0.016667 0
-7.857202 -2.800044 -0.016582 0
-7.843853 -2.775950 -0.013418 0
-7.838896 -2.751151 -0.011476 0
-7.867674 -2.737422 -0.015095 0
-7.839476 -2.707059 -0.009454 0
-7.872239 -2.693228 -0.013686 0
-7.870448 -2.670582 -0.012366 0
-7.890848 -2.656364 -0.014758 0
-7.873668 -2.629526 -0.010969 0
-7.905971 -2.616234 -0.015204 0
-7.884788 -2.588485 -0.010799 0
-7.898157 -2.568916 -0.011943 0
-7.876492 -2.542412 -0.007544 0
-7.893535 -2.523797 -0.009305 0
-7.891096 -2.501289 -0.007986 0
-7.884735 -2.477867 -0.006050 0
-7.904907 -2.462097 -0.008436 0
-7.871492 -2.432236 -0.002185 0
-7.891783 -2.415377 -0.004566 0
-7.900480 -2.395702 -0.005097 0
-7.901644 -2.373185 -0.004391 0
-7.898634 -2.350838 -0.003074 0
-7.872162 -2.324416 0.001938 0
-7.900085 -2.307944 -0.001671 0
-7.908200 -2.289203 -0.002206 0
-7.916474 -2.269391 -0.002737 0
-7.909204 -2.246323 -0.000804 0
-7.913461 -2.225691 -0.000719 0
-7.913772 -2.204267 -0.000018 0
-7.933190 -2.187705 -0.002401 0
-7.910279 -2.160709 0.002000 0
-7.922201 -2.140511 0.000858 0
-7.933861 -2.121276 -0.000289 0
-7.906575 -2.094897 0.004722 0
-7.945323 -2.080521 -0.000734 0
-7.933064 -2.059113 0.001805 0
-7.925338 -2.034325 0.003745 0
-7.928855 -2.013638 0.003830 0
-7.928401 -1.992298 0.004530 0
-7.951284 -1.974730 0.001538 0
-7.938975 -1.951503 0.004085 0
-7.937977 -1.932242 0.004777 0
-7.933633 -1.908267 0.006100 0
-7.916852 -1.886759 0.009253 0
-7.951454 -1.868498 0.004425 0
-7.973967 -1.850441 0.001434 0
-7.969009 -1.828524 0.002750 0
-7.944103 -1.806142 0.007131 0
-7.954799 -1.785360 0.005990 0
-7.945681 -1.763101 0.007919 0
-7.959896 -1.744813 0.006155 0
-7.978227 -1.724817 0.003786 0
-7.955529 -1.680021 0.008258 9
-7.957585 -1.661309 0.008334 10
-7.959909 -1.639471 0.008423 13
-7.962153 -1.617625 0.008512 12
-7.956347 -1.596050 0.009825 9
-7.958238 -1.576297 0.009906 9
-7.968123 -1.555163 0.008766 7
-7.942402 -1.531954 0.013150 1
-8.022861 -1.518772 0.000947 0
-7.953738 -1.491083 0.012090 0
-7.959301 -1.470598 0.011560 0
-7.952814 -1.451305 0.012864 0
-7.962255 -1.430028 0.011725 0
-7.979440 -1.410245 0.009353 0
-7.949153 -1.388461 0.014344 0
-8.045179 -1.372173 -0.000298 1
-8.018759 -1.349558 0.004083 5
-7.988306 -1.326930 0.009078 6
-7.989353 -1.306027 0.009162 5
-7.994277 -1.285295 0.008633 3
-7.991230 -1.264210 0.009331 3
-7.992059 -1.243297 0.009415 2
-7.988829 -1.223293 0.010109 3
-7.973744 -1.200865 0.012651 0
-8.001982 -1.181802 0.008437 0
-7.848410 -1.157236 0.032437 0
-7.896289 -1.137769 0.025162 0
-7.944103 -1.117970 0.017887 0
-7.936532 -1.096084 0.019201 0
-7.948631 -1.075473 0.017445 0
-7.889504 -1.055392 0.026719 0
-7.925180 -1.034925 0.021285 0
4.792736 -1.017700 0.071761 0
4.768884 -1.041338 0.074709 0
4.828279 -1.064170 0.067010 0
4.816156 -1.089078 0.068431 0
4.831747 -1.111895 0.066311 0
4.799656 -1.134019 0.070280 0
4.731743 -1.157563 0.078807 0
4.782804 -1.181112 0.072120 0
4.770257 -1.205646 0.073543 0
4.749726 -1.228666 0.075987 0
4.733083 -1.251681 0.077924 0
4.716362 -1.274583 0.079861 0
4.790741 -1.301146 0.070119 0
4.817452 -1.326095 0.066469 0
4.796515 -1.348933 0.068914 0
4.807200 -1.373274 0.067295 0
4.784880 -1.417256 0.069656 0
4.791285 -1.442615 0.068540 0
4.805671 -1.466173 0.066418 0
4.803977 -1.491116 0.066319 0
4.754794 -1.511410 0.072324 0
4.764894 -1.535892 0.070705 0
4.786864 -1.560212 0.067566 0
4.804695 -1.585544 0.064929 0
4.794658 -1.609796 0.065847 0
4.741283 -1.627695 0.072369 0
4.790462 -1.656034 0.065664 0
4.792137 -1.680119 0.065061 0
4.797674 -1.704620 0.063950 0
4.803123 -1.729169 0.062838 0
4.808612 -1.752575 0.061731 0
4.809944 -1.776776 0.061128 0
4.815132 -1.801448 0.060016 0
4.804470 -1.824303 0.060940 0
4.789794 -1.846613 0.062374 0
4.778981 -1.869324 0.063298 0
4.787921 -1.893319 0.061682 0
4.800552 -1.919089 0.059552 0
4.813247 -1.943769 0.057426 0
4.813899 -1.968094 0.056823 0
4.794825 -1.989633 0.058767 0
4.787286 -2.013958 0.059178 0
4.811407 -2.040576 0.055523 0
4.803869 -2.063746 0.055939 0
4.816037 -2.088762 0.053812 0
4.808143 -2.113110 0.054223 0
4.777063 -2.131188 0.057703 0
4.800321 -2.160615 0.054037 0
4.749564 -2.175130 0.060066 0
4.765018 -2.202099 0.057424 0
4.780156 -2.230374 0.054777 0
4.787587 -2.256167 0.053155 0
4.775416 -2.278406 0.054082 0
4.778991 -2.302343 0.052974 0
4.793939 -2.329755 0.050331 0
4.762295 -2.346931 0.053814 0
4.777061 -2.374416 0.051170 0
4.772280 -2.398066 0.051078 0
4.755761 -2.419285 0.052517 0
4.777748 -2.449770 0.048847 0
4.757441 -2.468912 0.050801 0
4.756206 -2.493338 0.050199 0
4.743001 -2.516373 0.051123 0
4.760944 -2.545141 0.047968 0
4.744236 -2.564897 0.049413 0
4.738790 -2.588431 0.049321 0
4.725818 -2.608946 0.050256 0
4.739507 -2.637043 0.047610 0
4.718105 -2.657976 0.049558 0
4.701071 -2.677389 0.051004 0
4.718319 -2.706567 0.047847 0
4.727756 -2.733927 0.045712 0
4.706356 -2.753431 0.047666 0
4.719440 -2.781862 0.045019 0
4.694066 -2.800210 0.047484 0
4.680138 -2.821502 0.048416 0
4.708237 -2.854227 0.043724 0
4.671197 -2.869156 0.047724 0
4.676475 -2.894487 0.046105 0
4.674026 -2.917703 0.045508 0
4.652100 -2.936596 0.047464 0
4.679631 -2.969811 0.042770 0
4.665163 -2.990867 0.043704 0
4.643029 -3.009569 0.045660 0
4.662606 -3.040807 0.041989 0
4.648271 -3.060563 0.042928 0
4.629730 -3.080227 0.044374 0
4.644825 -3.111661 0.041209 0
4.626501 -3.130075 0.042660 0
4.626634 -3.155628 0.041547 0
4.615355 -3.177518 0.041970 0
4.615305 -3.203084 0.040857 0
4.607632 -3.226164 0.040769 0
4.603637 -3.250486 0.040168 0
4.622076 -3.282504 0.036494 0
4.599127 -3.300424 0.038455 0
4.595263 -3.323604 0.037859 0
4.598390 -3.350577 0.036234 0
4.593938 -3.374931 0.035633 0
4.563278 -3.389852 0.038620 0
4.562406 -3.415469 0.037507 0
4.546548 -3.435617 0.038445 0
4.571516 -3.470932 0.033744 0
4.548059 -3.488260 0.035707 0
4.539391 -3.511103 0.035620 0
4.545452 -3.539617 0.033482 0
4.536604 -3.562451 0.033395 0
4.527677 -3.585254 0.033308 0
4.518670 -3.608026 0.033222 0
4.510040 -3.629629 0.033139 0
4.500878 -3.652339 0.033053 0
4.502653 -3.679522 0.031428 0
4.474985 -3.694633 0.033907 0
4.516853 -3.738603 0.026637 0
4.499999 -3.758255 0.027577 0
4.483088 -3.777824 0.028518 0
4.473409 -3.800439 0.028432 0
4.463651 -3.823020 0.028347 0
4.461577 -3.847620 0.027239 0
4.473926 -3.878648 0.024077 0
4.471141 -3.904460 0.022965 0
4.420722 -3.910249 0.028524 0
4.432762 -3.941368 0.025362 0
4.443633 -3.974848 0.022192 0
4.451788 -4.004529 0.019543 0
4.419751 -4.016965 0.022540 0
4.423593 -4.046119 0.020401 0
4.405280 -4.066237 0.021340 0
4.387442 -4.085146 0.022284 0
4.405796 -4.120136 0.018093 0
4.402597 -4.144843 0.016985 0
4.380961 -4.161918 0.018443 0
4.390704 -4.195878 0.015271 0
4.386658 -4.221723 0.014160 0
4.379534 -4.244675 0.013566 0
4.349990 -4.259025 0.016049 0
4.363324 -4.293876 0.012367 0
4.362407 -4.321551 0.010741 0
4.333258 -4.334544 0.013230 0
4.332745 -4.361083 0.011608 0
4.307023 -4.375716 0.013583 0
4.306335 -4.402238 0.011962 0
4.308434 -4.431781 0.009822 0
4.292991 -4.451883 0.010254 0
4.290783 -4.480662 0.008625 0
4.279261 -4.501505 0.008547 0
4.253207 -4.515662 0.010524 0
4.241568 -4.536381 0.010447 0
4.243040 -4.565984 0.008307 0
4.237495 -4.591699 0.007197 0
4.221541 -4.611468 0.007631 0
4.222668 -4.641146 0.005491 0
4.206555 -4.660839 0.005925 0
4.190381 -4.680464 0.006360 0
4.176910 -4.703130 0.006276 0
4.177602 -4.732844 0.004136 0
4.161850 -4.751256 0.004575 0
4.158933 -4.778944 0.002951 0
4.139004 -4.796264 0.003902 0
4.149372 -4.832303 0.000216 0
4.129955 -4.848473 0.001171 0
4.123254 -4.874074 0.000062 0
4.100378 -4.887988 0.001533 0
4.099515 -4.918868 -0.000610 0
4.106551 -4.951959 -0.003777 0
4.075449 -4.963518 -0.001282 0
4.064952 -4.986874 -0.001876 0
4.048440 -5.004783 -0.001434 0
4.058316 -5.040173 -0.005116 0
4.029634 -5.054583 -0.003139 0
4.015501 -5.075607 -0.003216 0
4.021696 -5.108904 -0.006383 0
4.011365 -5.131091 -0.006972 0
3.989711 -5.148596 -0.006021 0
3.982491 -5.172961 -0.007125 0
3.967216 -5.194861 -0.007205 0
3.972047 -5.229379 -0.010376 0
3.958042 -5.249161 -0.010449 0
3.949683 -5.274549 -0.011556 0
3.951624 -5.305846 -0.014208 0
3.929441 -5.322973 -0.013255 0
3.904765 -5.336624 -0.011782 0
3.912005 -5.373675 -0.015470 0
3.875220 -5.376719 -0.011927 0
3.868731 -5.405348 -0.013554 0
3.859713 -5.430579 -0.014661 0
3.848203 -5.452384 -0.015247 0
3.825599 -5.468976 -0.014292 0
3.822597 -5.498959 -0.016431 0
3.807699 -5.518244 -0.016501 0
3.777099 -5.525284 -0.013988 0
3.773009 -5.556232 -0.016130 0
3.770365 -5.585196 -0.018265 0
3.757483 -5.607784 -0.018854 0
3.729046 -5.617925 -0.016860 0
3.722203 -5.645377 -0.018482 0
3.721389 -5.677845 -0.021137 0
3.693628 -5.686737 -0.019138 0
3.668931 -5.698020 -0.017655 0
3.663933 -5.728910 -0.019797 0
3.642191 -5.742577 -0.018830 0
3.634756 -5.769914 -0.020451 0
3.632412 -5.803373 -0.023109 0
3.621696 -5.828163 -0.024214 0
3.586833 -5.832227 -0.021181 0
3.576825 -5.855926 -0.022281 0
3.568860 -5.883192 -0.023902 0
3.564605 -5.912109 -0.026036 0
3.553421 -5.936763 -0.027139 0
3.556934 -5.974597 -0.030828 0
3.521884 -5.978066 -0.027793 0
3.491027 -5.988589 -0.025799 0
3.500898 -6.030811 -0.030520 0
3.466698 -6.032943 -0.027480 0
3.466637 -6.068141 -0.030652 0
3.448969 -6.087194 -0.030719 0
3.442815 -6.117030 -0.032856 0
3.405667 -6.116007 -0.029297 0
3.396462 -6.143040 -0.030915 0
3.395735 -6.178292 -0.034087 0
3.369111 -6.188845 -0.032600 0
3.370956 -6.226882 -0.036289 0
3.349897 -6.242829 -0.035837 0
3.342016 -6.273529 -0.037977 0
3.327371 -6.294007 -0.038556 0
3.317342 -6.320973 -0.040175 0
3.307189 -6.347934 -0.041793 0
3.280178 -6.357969 -0.040304 0
3.247602 -6.362221 -0.037778 0
3.252005 -6.402306 -0.041982 0
3.222131 -6.409214 -0.039974 0
3.222525 -6.447417 -0.043663 0
3.216281 -6.480865 -0.046319 0
3.187210 -6.486625 -0.044307 0
3.173523 -6.510474 -0.045406 0
3.162442 -6.537189 -0.047022 0
3.156638 -6.569705 -0.049675 0
3.121083 -6.570183 -0.046628 0
3.098984 -6.585103 -0.046171 0
3.087522 -6.611670 -0.047787 0
3.076916 -6.637340 -0.049400 0
3.055598 -6.651195 -0.048939 0
3.041176 -6.674730 -0.050036 0
3.016135 -6.686355 -0.049060 0
3.009404 -6.718727 -0.051712 0
2.986859 -6.733191 -0.051253 0
2.961677 -6.744571 -0.050275 0
2.951999 -6.773882 -0.052408 0
2.937024 -6.797165 -0.053504 0
2.916814 -6.814365 -0.053562 0
2.886322 -6.819362 -0.051546 0
2.869596 -6.838577 -0.052119 0
2.869521 -6.879945 -0.056326 0
2.854071 -6.903027 -0.057421 0
2.836006 -6.923005 -0.057997 0
2.817860 -6.942928 -0.058572 0
2.782190 -6.941198 -0.055516 0
2.786290 -6.988799 -0.060760 0
2.770353 -7.011677 -0.061854 0
2.749395 -7.028294 -0.061910 0
2.726983 -7.040893 -0.061443 0
2.703485 -7.054230 -0.060979 0
2.694516 -7.086296 -0.063629 0
2.680547 -7.112083 -0.065240 0
2.652023 -7.118925 -0.063738 0
2.633086 -7.138290 -0.064310 0
2.609304 -7.151257 -0.063845 0
2.606838 -7.192739 -0.068051 0
2.575804 -7.196037 -0.066028 0
2.554204 -7.211973 -0.066080 0
2.547668 -7.246260 -0.069245 0
2.528221 -7.265309 -0.069816 0
2.511013 -7.287517 -0.070907 0
2.500622 -7.319363 -0.073554 0
2.471709 -7.325331 -0.072048 0
2.445092 -7.334417 -0.071060 0
2.432096 -7.362901 -0.073188 0
2.421216 -7.394629 -0.075835 0
2.392177 -7.400225 -0.074327 0
2.369865 -7.415519 -0.074377 0
2.350846 -7.433259 -0.074943 0
2.336189 -7.457521 -0.076548 0
2.309268 -7.466026 -0.075558 0
2.287791 -7.485084 -0.076128 0
2.278267 -7.519891 -0.079294 0
2.243658 -7.514123 -0.076222 0
2.230599 -7.546275 -0.078870 0
2.209924 -7.564340 -0.079436 0
2.188186 -7.578267 -0.079481 0
2.175869 -7.609598 -0.082126 0
2.159161 -7.634209 -0.083731 0
2.120183 -7.625854 -0.080141 0
2.110768 -7.659715 -0.083303 0
2.093780 -7.684164 -0.084907 0
2.073709 -7.701090 -0.085470 0
2.040084 -7.698304 -0.082916 0
2.017606 -7.716470 -0.083482 0
2.006363 -7.750903 -0.086645 0
1.990896 -7.778509 -0.088768 0
1.962075 -7.786248 -0.087773 0
1.944394 -7.810327 -0.089376 0
1.909957 -7.802755 -0.086297 0
1.900024 -7.840464 -0.089979 0
1.877371 -7.853362 -0.090019 0
1.860063 -7.881355 -0.092142 0
1.843075 -7.904509 -0.093742 0
1.813243 -7.907474 -0.092223 0
1.803735 -7.944416 -0.095902 0
1.772625 -7.947863 -0.094384 0
1.755943 -7.974950 -0.096504 0
1.729100 -7.980377 -0.095502 0
1.717791 -8.017871 -0.099182 0
1.684711 -8.017415 -0.097143 0
1.670654 -8.047174 -0.099780 0
1.637565 -8.046494 -0.097740 0
1.620246 -8.073264 -0.099858 0
1.586027 -8.064026 -0.096773 0
1.570338 -8.094205 -0.099411 0
1.556255 -8.127908 -0.102570 0
1.529126 -8.132558 -0.101564 0
1.511264 -8.159071 -0.103681 0
1.491522 -8.181980 -0.105278 0
1.464761 -8.190556 -0.104793 0
1.443578 -8.213940 -0.106391 0
1.423090 -8.232488 -0.107465 0
1.389868 -8.230630 -0.105420 0
1.369275 -8.249023 -0.106493 0
1.342343 -8.257141 -0.106007 0
1.321997 -8.279585 -0.107601 0
1.299897 -8.298363 -0.108675 0
1.277706 -8.317075 -0.109749 0
1.256702 -8.335152 -0.110821 0
1.234334 -8.353734 -0.111894 0
1.202349 -8.350444 -0.109844 0
1.181452 -8.372499 -0.111436 0
1.155753 -8.383561 -0.111467 0
1.134665 -8.405486 -0.113060 0
1.116535 -8.434666 -0.115693 0
1.090619 -8.445501 -0.115723 0
1.061643 -8.448913 -0.114711 0
1.039976 -8.466370 -0.115780 0
1.015252 -8.476412 -0.115807 0
0.986583 -8.487936 -0.115838 0
0.969091 -8.516237 -0.118468 0
0.942754 -8.522351 -0.117974 0
0.919525 -8.544181 -0.119565 0
0.891807 -8.550626 -0.119071 0
0.866896 -8.564383 -0.119618 0
0.844717 -8.585483 -0.121206 0
0.825191 -8.613954 -0.123836 0
0.795867 -8.612118 -0.122298 0
0.768007 -8.622315 -0.122324 0
0.745456 -8.638917 -0.123389 0
0.718830 -8.648456 -0.123414 0
0.697461 -8.668653 -0.124999 0
0.669394 -8.678490 -0.125024 0
0.643922 -8.691512 -0.125568 0
0.620950 -8.711958 -0.127153 0
0.594070 -8.721062 -0.127175 0
0.568410 -8.733835 -0.127718 0
0.547764 -8.757380 -0.129822 0
0.519498 -8.762456 -0.129323 0
0.490013 -8.763655 -0.128302 0
0.465355 -8.779860 -0.129364 0
0.442988 -8.803556 -0.131468 0
0.419312 -8.823402 -0.133050 0
0.388560 -8.820425 -0.131507 0
0.360154 -8.824922 -0.131005 0
0.336516 -8.840306 -0.132065 0
0.305823 -8.837005 -0.130520 0
0.287378 -8.875470 -0.134706 0
0.261024 -8.887220 -0.135244 0
0.232451 -8.891252 -0.134740 0
0.207084 -8.906636 -0.135799 0
0.183749 -8.929586 -0.137899 0
0.148816 -8.910377 -0.134268 0
0.125360 -8.933152 -0.136368 0
0.097711 -8.940524 -0.136383 0
0.069033 -8.943963 -0.135876 0
0.039369 -8.943458 -0.134849 0
0.019899 -8.977086 -0.138509 0
-0.006513 -8.983743 -0.138522 0
-0.034339 -8.990655 -0.138535 0
-0.058904 -9.017077 -0.141154 0
-0.084525 -9.027329 -0.141687 0
-0.115719 -9.026577 -0.140657 0
-0.142799 -9.036971 -0.141190 0
-0.166762 -9.054688 -0.142763 0
-0.194502 -9.069095 -0.143817 0
-0.222073 -9.071166 -0.143306 0
-0.253008 -9.057643 -0.140710 0
-0.272802 -9.102477 -0.145930 0
-0.308155 -9.081586 -0.142292 0
-0.332507 -9.098806 -0.143864 0
-0.362144 -9.104865 -0.143873 0
-0.385879 -9.125813 -0.145965 0
-0.415721 -9.123614 -0.144930 0
-0.438128 -9.152194 -0.148064 0
-0.467274 -9.153701 -0.147549 0
-0.497831 -9.155366 -0.147035 0
-0.527675 -9.160819 -0.147041 0
-0.552655 -9.185436 -0.149652 0
-0.581181 -9.190440 -0.149657 0
-0.612384 -9.179706 -0.147578 0
-0.636205 -9.203824 -0.150187 0
-0.665921 -9.192647 -0.148107 0
-0.690721 -9.220754 -0.151237 0
-0.720593 -9.217440 -0.150198 0
-0.750663 -9.222075 -0.150201 0
-0.776982 -9.242080 -0.152288 0
-0.804839 -9.242167 -0.151768 0
-0.832448 -9.254144 -0.152812 0
-0.862652 -9.258370 -0.152813 0
-0.888933 -9.269959 -0.153856 0
-0.916721 -9.281653 -0.154899 0
-0.949597 -9.253915 -0.150729 0
-0.980800 -9.237854 -0.148123 0
-1.001421 -9.296313 -0.155418 0
-1.032638 -9.280056 -0.152811 0
-1.061594 -9.295370 -0.154373 0
-1.087321 -9.314206 -0.156455 0
-1.117554 -9.305512 -0.154889 0
-1.143653 -9.336160 -0.158534 0
-1.173879 -9.327261 -0.156967 0
-1.201004 -9.349835 -0.159569 0
-1.232654 -9.324932 -0.155917 0
-1.260260 -9.343363 -0.157997 0
-1.290008 -9.337994 -0.156950 0
-1.319386 -9.336471 -0.156423 0
-1.345120 -9.362406 -0.159544 0
-1.373100 -9.360579 -0.159017 0
-1.401950 -9.366673 -0.159532 0
-1.429756 -9.388496 -0.162130 0
-1.459242 -9.386480 -0.161601 0
-1.488706 -9.384360 -0.161072 0
-1.518834 -9.370258 -0.158980 0
-1.548643 -9.360009 -0.157408 0
-1.576370 -9.389261 -0.161046 0
-1.605415 -9.394652 -0.161558 0
-1.634493 -9.399943 -0.162069 0
-1.663735 -9.365447 -0.157369 0
-1.692009 -9.390351 -0.160485 0
-1.720452 -9.415159 -0.163600 0
-1.750364 -9.396265 -0.160983 0
-1.779306 -9.408981 -0.162534 0
-1.808787 -9.401772 -0.161480 0
-1.837908 -9.410321 -0.162509 0
-1.867086 -9.418769 -0.163538 0
-1.896664 -9.399356 -0.160919 0
-1.925789 -9.415530 -0.162989 0
-1.955089 -9.419706 -0.163495 0
-1.984381 -9.443609 -0.166607 0
-2.013735 -9.403955 -0.161381 0
-2.043179 -9.435585 -0.165533 0
-2.071100 -9.435398 -0.165518 0
-2.100490 -9.435101 -0.165501 0
-2.129879 -9.434700 -0.165484 0
-2.159116 -9.426267 -0.164425 0
-2.188652 -9.433593 -0.165449 0
-2.217829 -9.424955 -0.164389 0
-2.247415 -9.432075 -0.165412 0
-2.277314 -9.447017 -0.167477 0
-2.306599 -9.442036 -0.166937 0
-2.337481 -9.440858 -0.166916 0
-2.365075 -9.431769 -0.165855 0
-2.393336 -9.406676 -0.162709 0
-2.423422 -9.421098 -0.164771 0
-2.452760 -9.419571 -0.164750 0
-2.483456 -9.441698 -0.167853 0
-2.511901 -9.424127 -0.165747 0
-2.542524 -9.442080 -0.168328 0
-2.569392 -9.424408 -0.166223 0
-2.599304 -9.430284 -0.167241 0
-2.628673 -9.428143 -0.167217 0
-2.658344 -9.429852 -0.167714 0
-2.687388 -9.423553 -0.167168 0
-2.717070 -9.425056 -0.167664 0
-2.747473 -9.434355 -0.169200 0
-2.775386 -9.431831 -0.169176 0
-2.803668 -9.433164 -0.169671 0
-2.832557 -9.410431 -0.167039 0
-2.864287 -9.431147 -0.170136 0
-2.892819 -9.420193 -0.169067 0
-2.920685 -9.417188 -0.169041 0
-2.950898 -9.421806 -0.170054 0
-2.978856 -9.406621 -0.168463 0
-3.011027 -9.414791 -0.169994 0
-3.038874 -9.411394 -0.169966 0
-3.069678 -9.419521 -0.171497 0
-3.097977 -9.407874 -0.170426 0
-3.128728 -9.403795 -0.170393 0
-3.158002 -9.399806 -0.170362 0
-3.188022 -9.411630 -0.172414 0
-3.214474 -9.387809 -0.169779 0
-3.245144 -9.403353 -0.172351 0
-3.276146 -9.390671 -0.171273 0
-3.302316 -9.366574 -0.168638 0
-3.333958 -9.377645 -0.170686 0
-3.367611 -9.400339 -0.174295 0
-3.391497 -9.372288 -0.171139 0
-3.421196 -9.379358 -0.172667 0
-3.451162 -9.370189 -0.172110 0
-3.479551 -9.369237 -0.172596 0
-3.507333 -9.348150 -0.170477 0
-3.541450 -9.370141 -0.174083 0
-3.566947 -9.353292 -0.172486 0
-3.591518 -9.316335 -0.168285 0
-3.634178 -9.380794 -0.177612 0
-3.654945 -9.340322 -0.172893 0
-3.684115 -9.342565 -0.173897 0
-3.707570 -9.309446 -0.170216 0
-3.740401 -9.314778 -0.171736 0
-3.768531 -9.304776 -0.171176 0
-3.796850 -9.302744 -0.171658 0
-3.827212 -9.296104 -0.171615 0
-3.857842 -9.297418 -0.172615 0
-3.886177 -9.295080 -0.173096 0
-3.918302 -9.295841 -0.174092 0
-3.941739 -9.265934 -0.170929 0
-3.971853 -9.271024 -0.172449 0
-4.005334 -9.283363 -0.175007 0
-4.030387 -9.260911 -0.172883 0
-4.068297 -9.284196 -0.176997 0
-4.093754 -9.269605 -0.175915 0
-4.120033 -9.246515 -0.173788 0
-4.146314 -9.235604 -0.173226 0
-4.180074 -9.247233 -0.175780 0
-4.205301 -9.232300 -0.174697 0
-4.238530 -9.235644 -0.176208 0
-4.262986 -9.212490 -0.174082 0
-4.293362 -9.216401 -0.175597 0
-4.331712 -9.242689 -0.180228 0
-4.346176 -9.184948 -0.173423 0
-4.378005 -9.188134 -0.174934 0
-4.402030 -9.164570 -0.172807 0
-4.439542 -9.186539 -0.176916 0
-4.463455 -9.162790 -0.174788 0
-4.491879 -9.154144 -0.174738 0
-4.522623 -9.152974 -0.175728 0
-4.548636 -9.136554 -0.174638 0
-4.574565 -9.120050 -0.173548 0
-4.604053 -9.114792 -0.174016 0
-4.634765 -9.113197 -0.175004 0
-4.663014 -9.103952 -0.174952 0
-4.683555 -9.076265 -0.172305 0
-4.706472 -9.056047 -0.170697 0
-4.748591 -9.087851 -0.176358 0
-4.774281 -9.066476 -0.174743 0
-4.799756 -9.049254 -0.173651 0
-4.829100 -9.043175 -0.174116 0
-4.837124 -8.977216 -0.166271 0
-4.123791 -6.911424 0.119946 0
-4.136539 -6.885717 0.122581 1
-4.120012 -6.777735 0.136643 1
-4.105918 -6.681459 0.149144 1
-4.096369 -6.596113 0.160088 1
-4.083431 -6.503489 0.172070 0
-4.091197 -6.466564 0.176263 0
-4.102056 -6.432615 0.179940 0
-4.106460 -6.388325 0.185171 0
-4.115494 -6.359188 0.188323 0
-4.130251 -6.344780 0.189399 0
-4.137307 -6.303472 0.194114 0
-4.151247 -6.284966 0.195711 0
-4.162654 -6.263139 0.197825 0
-4.166318 -6.222986 0.202534 0
-4.173081 -6.185766 0.206727 0
-4.200414 -6.200053 0.203654 1
-4.185661 -6.115796 0.214591 0
-4.213585 -6.134000 0.210997 2
-4.213963 -6.086266 0.216744 0
-4.226121 -6.063604 0.218862 0
-4.234037 -6.034067 0.222015 0
-4.245029 -6.011771 0.224131 0
-4.250973 -5.978624 0.227803 0
-4.263322 -5.959921 0.229399 0
-4.279700 -5.952390 0.229438 1
-4.300267 -5.951592 0.228442 2
-4.294667 -5.897283 0.235223 2
-4.305731 -5.874511 0.237341 1
-4.314101 -5.848550 0.239975 0
-4.330110 -5.840851 0.240014 0
-4.344296 -5.825150 0.241094 0
-4.356724 -5.810234 0.242171 0
-4.368984 -5.790908 0.243770 1
-4.377698 -5.768841 0.245884 1
-4.389731 -5.749475 0.247483 1
-4.420644 -5.769376 0.243379 2
-4.420897 -5.729152 0.248086 2
-4.423733 -5.696450 0.251754 1
-4.438214 -5.684447 0.252315 2
-4.450791 -5.668892 0.253394 2
-4.468875 -5.663812 0.252919 2
-4.490702 -5.665654 0.251408 4
-4.493709 -5.632509 0.255078 3
-4.507905 -5.620296 0.255640 3
-4.521245 -5.608479 0.256199 4
-4.541902 -5.606147 0.255209 6
-4.555171 -5.594231 0.255769 5
-4.569982 -5.581381 0.256333 3
-4.583939 -5.568934 0.256896 2
-4.601782 -5.563330 0.256422 2
-4.617635 -5.554222 0.256467 1
-4.633456 -5.545059 0.256512 1
-4.662501 -5.560252 0.252931 1
-4.676324 -5.547517 0.253494 1
-4.696182 -5.544964 0.252505 1
-4.714012 -5.538927 0.252033 0
-4.740049 -5.546392 0.249492 0
-4.764105 -5.550345 0.247468 0
-4.781990 -5.544049 0.246998 0
-4.806132 -5.547797 0.244975 0
-4.819829 -5.534612 0.245540 0
-4.886291 -5.605304 0.233169 0
-4.910787 -5.608600 0.231149 0
-4.946023 -5.628490 0.226542 1
-4.932030 -5.571497 0.233834 1
-4.954389 -5.571217 0.232332 2
-4.967303 -5.558077 0.232896 2
-4.989683 -5.557629 0.231395 2
-5.037621 -5.597264 0.223684 7
-5.065414 -5.602586 0.221152 0
-5.094703 -5.611594 0.218101 0
-5.130776 -5.630297 0.213499 0
-5.193895 -5.688086 0.202693 2
-5.222871 -5.697067 0.199642 3
-5.216568 -5.653208 0.204866 1
-5.260012 -5.680957 0.198716 2
-5.288510 -5.685188 0.196189 2
-5.308564 -5.680728 0.195207 1
-5.343282 -5.694963 0.191127 0
-5.369681 -5.695550 0.189118 1
-5.401485 -5.706823 0.185554 0
-5.435742 -5.721138 0.181474 0
-5.475658 -5.741060 0.176364 1
-5.515675 -5.726217 0.174930 3
-5.554381 -5.741822 0.170342 2
-5.663473 -5.853293 0.150253 0
-5.685147 -5.846782 0.149281 0
-7.077836 -7.622986 -0.144509 0
-7.098440 -7.602087 -0.143909 0
-7.127427 -7.589612 -0.144854 0
-7.146748 -7.569456 -0.144258 0
-7.162208 -7.542122 -0.142625 0
-7.173728 -7.507654 -0.139955 0
-7.212612 -7.512114 -0.143489 0
-7.230268 -7.487713 -0.142371 0
-7.243933 -7.456201 -0.140217 0
-7.277570 -7.449204 -0.142192 0
-7.292412 -7.421573 -0.140558 0
-7.303476 -7.391795 -0.138412 0
-7.340989 -7.391485 -0.141422 0
-7.368330 -7.378866 -0.142367 0
-7.380231 -7.348003 -0.140217 0
-7.397142 -7.323160 -0.139098 0
-7.420619 -7.308234 -0.139531 0
-7.451448 -7.297311 -0.140986 0
-7.456584 -7.261283 -0.137808 0
-7.485127 -7.252089 -0.139272 0
-7.501601 -7.226970 -0.138152 0
-7.529613 -7.212684 -0.139090 0
-7.536372 -7.174683 -0.135904 0
-7.568490 -7.167081 -0.137876 0
-7.578166 -7.136859 -0.135730 0
-7.568926 -7.086187 -0.129975 0
-7.599217 -7.074474 -0.131428 0
-7.611170 -7.047166 -0.129797 0
-7.634902 -7.030438 -0.130222 0
-7.653140 -7.007850 -0.129617 0
-7.665822 -6.979458 -0.127981 0
-7.694834 -6.968242 -0.129436 0
-7.708352 -6.938766 -0.127795 0
-7.728992 -6.918807 -0.127704 0
-7.740217 -6.891269 -0.126073 0
-7.764497 -6.873019 -0.126492 0
-7.639656 -6.706408 -0.099624 0
-7.558573 -6.585649 -0.080999 0
-7.557326 -6.547606 -0.077312 0
-7.565312 -6.517025 -0.075164 0
-7.578817 -6.492012 -0.074047 0
-7.579899 -6.456874 -0.070875 0
-7.615962 -6.453915 -0.073874 0
-7.692116 -6.489248 -0.084078 0
-7.699708 -6.458394 -0.081930 1
-7.747465 -6.465751 -0.086985 1
-7.819412 -6.493570 -0.096151 1
-7.960253 -6.586947 -0.117665 0
-7.987419 -6.575248 -0.119119 0
-8.027210 -6.573131 -0.122625 0
-8.023158 -6.530639 -0.118416 0
-8.055077 -6.519196 -0.120374 0
-8.061512 -6.488460 -0.118227 0
-8.080578 -6.467270 -0.118132 0
-8.105498 -6.451287 -0.119065 0
-8.115516 -6.422065 -0.117427 0
-8.140314 -6.405919 -0.118359 0
-8.141144 -6.368822 -0.115179 0
-8.159792 -6.347355 -0.115083 0
-8.175355 -6.323238 -0.114473 0
-8.190825 -6.299078 -0.113863 0
-8.215284 -6.282565 -0.114794 0
-8.230595 -6.258286 -0.114184 0
-8.242766 -6.231424 -0.113059 0
-8.257880 -6.207071 -0.112449 0
-8.282088 -6.190239 -0.113378 0
-8.286928 -6.159338 -0.111232 0
-8.319347 -6.150966 -0.113706 0
-8.334146 -6.126389 -0.113095 0
-8.317880 -6.076981 -0.107349 0
-8.347930 -6.064771 -0.109305 0
-8.368630 -6.045041 -0.109720 0
-8.391018 -6.022998 -0.110125 0
-8.389664 -5.986055 -0.106947 0
-8.418672 -5.974536 -0.108906 0
-8.435080 -5.953226 -0.108811 0
-8.449119 -5.928333 -0.108199 0
-8.469393 -5.908185 -0.108613 0
-8.480083 -5.880814 -0.107487 0
-8.500208 -5.860536 -0.107900 0
-8.507509 -5.830744 -0.106261 0
-8.524277 -5.808002 -0.106161 0
-8.540965 -5.785200 -0.106061 0
-8.557573 -5.762341 -0.105961 0
-8.577324 -5.741737 -0.106373 0
-8.584088 -5.711845 -0.104734 0
-8.597202 -5.686545 -0.104120 0
-8.590739 -5.647533 -0.100432 0
-8.597102 -5.617696 -0.098793 0
-8.652276 -5.621724 -0.104842 0
-8.632339 -5.573778 -0.099104 0
-8.627750 -5.538353 -0.095933 0
-8.686209 -5.544094 -0.102492 0
-8.645988 -5.483130 -0.093682 0
-8.694551 -5.481908 -0.098702 0
-8.690248 -5.445383 -0.095527 0
-8.715618 -5.428536 -0.096962 0
-8.730980 -5.405069 -0.096860 0
-8.722939 -5.366472 -0.093173 0
-8.744763 -5.347265 -0.094095 0
-8.763187 -5.325827 -0.094504 0
-8.781545 -5.304314 -0.094913 0
-8.769583 -5.263761 -0.090716 0
-8.791106 -5.244298 -0.091637 0
-8.795697 -5.214318 -0.089999 0
-8.813695 -5.192645 -0.090408 0
-8.824842 -5.166777 -0.089793 0
-8.846085 -5.147027 -0.090713 0
-8.836631 -5.108853 -0.087029 0
-8.854288 -5.086990 -0.087437 0
-8.854781 -5.054991 -0.085288 0
-8.882543 -5.039043 -0.087230 0
-8.897242 -5.013793 -0.087121 0
-8.917340 -4.994853 -0.088044 0
-8.924294 -4.966756 -0.086918 0
-8.920775 -4.932802 -0.084258 0
-8.927485 -4.904741 -0.083131 0
-8.965287 -4.894036 -0.086604 0
-8.954466 -4.856288 -0.082923 0
-8.953907 -4.824375 -0.080775 0
-8.981107 -4.807647 -0.082714 0
-8.984475 -4.776400 -0.081071 0
-9.003907 -4.756955 -0.081993 0
-9.002896 -4.725064 -0.079845 0
-9.022827 -4.704286 -0.080762 0
-9.035659 -4.679751 -0.080656 0
-9.027249 -4.644260 -0.077488 0
-9.032807 -4.616098 -0.076362 0
-9.055947 -4.596911 -0.077788 0
-9.075494 -4.575824 -0.078703 0
-9.065955 -4.541725 -0.075541 0
-9.046207 -4.501225 -0.070843 0
-9.069019 -4.481845 -0.072268 0
-9.098920 -4.465813 -0.074714 0
-9.085894 -4.428974 -0.071037 0
-9.087611 -4.397861 -0.069396 0
-9.102374 -4.376037 -0.069806 0
-9.106874 -4.347861 -0.068680 0
-9.125658 -4.326375 -0.069594 0
-9.129961 -4.298169 -0.068469 0
-9.134153 -4.269974 -0.067343 0
-9.138236 -4.241789 -0.066218 0
-9.163940 -4.223332 -0.068150 0
-9.149700 -4.187060 -0.064477 0
-9.167992 -4.165274 -0.065390 0
-9.171664 -4.137073 -0.064265 0
-9.167938 -4.105747 -0.062120 0
-9.189629 -4.085378 -0.063543 0
-9.192580 -4.027462 -0.060783 4
-9.192051 -3.997785 -0.059149 5
-9.198745 -3.971159 -0.058534 5
-9.201664 -3.943031 -0.057409 4
-9.215519 -3.919356 -0.057812 6
-9.225609 -3.894153 -0.057705 3
-9.235612 -3.868916 -0.057599 3
-9.222854 -3.836260 -0.054444 4
-9.240057 -3.813889 -0.055355 3
-9.246073 -3.787186 -0.054740 3
-9.255702 -3.761878 -0.054633 3
-9.250852 -3.729712 -0.052486 3
-9.260280 -3.704388 -0.052380 3
-9.262167 -3.676305 -0.051256 2
-9.260217 -3.646891 -0.049624 1
-9.265165 -3.621465 -0.049014 1
-9.311616 -3.609336 -0.053992 4
-9.290667 -3.573308 -0.049817 3
-9.303298 -3.549144 -0.050219 3
-9.304588 -3.521067 -0.049095 3
-9.317046 -3.496828 -0.049496 3
-9.321898 -3.470015 -0.048881 2
-9.315352 -3.439460 -0.046742 2
-9.323767 -3.413912 -0.046635 2
-9.335868 -3.389554 -0.047036 2
-9.344109 -3.363935 -0.046928 3
-9.337123 -3.333514 -0.044790 6
-9.341380 -3.306711 -0.044175 5
-9.345539 -3.279906 -0.043560 2
-9.360989 -3.256560 -0.044468 3
-9.357364 -3.227433 -0.042838 2
-9.365038 -3.201740 -0.042731 3
-9.353581 -3.170452 -0.040086 3
-9.341997 -3.139270 -0.037441 0
-9.356996 -3.115805 -0.038350 0
-9.368099 -3.091187 -0.038750 0
-9.360004 -3.061215 -0.036614 0
-9.390060 -3.041796 -0.039550 0
-9.389425 -3.013922 -0.038429 0
-9.384851 -2.985057 -0.036800 0
-9.399355 -2.961283 -0.037707 0
-9.398417 -2.933458 -0.036586 0
-9.393531 -2.904682 -0.034958 0
-9.411297 -2.883058 -0.036377 0
-9.405893 -2.855609 -0.034754 0
-9.416441 -2.829396 -0.035148 0
-9.422725 -2.803498 -0.035041 0
-9.405752 -2.772098 -0.031893 0
-9.419868 -2.746744 -0.032794 0
-9.417830 -2.720358 -0.031679 0
-9.427311 -2.696626 -0.032084 0
-9.406018 -2.664670 -0.028432 0
-9.423357 -2.641350 -0.029844 0
-9.428985 -2.615430 -0.029737 0
-9.438679 -2.589011 -0.030131 0
-9.432199 -2.561919 -0.028511 0
-9.422262 -2.531503 -0.026373 0
-9.446960 -2.509479 -0.028797 0
-9.436554 -2.480418 -0.026666 0
-9.445265 -2.456503 -0.027070 0
-9.473639 -2.434936 -0.029999 0
-9.439534 -2.401597 -0.024833 0
-9.463843 -2.379176 -0.027255 0
-9.449258 -2.348330 -0.024614 0
-9.449954 -2.321638 -0.024001 0
-9.450332 -2.296258 -0.023394 0
-9.462800 -2.270256 -0.024293 0
-9.525651 -2.255142 -0.031776 0
-9.490752 -2.222578 -0.026613 4
-9.463558 -2.191503 -0.022461 6
-9.471538 -2.166046 -0.022860 9
-9.459809 -2.137609 -0.020732 7
-9.455635 -2.111717 -0.019620 9
-9.459600 -2.084386 -0.019508 6
-9.467053 -2.030983 -0.019290 0
-9.462683 -2.003877 -0.018173 0
-9.461982 -1.978621 -0.017567 0
-9.484818 -1.956335 -0.019991 0
-9.492312 -1.928068 -0.020379 0
-9.499391 -1.902375 -0.020777 0
-9.470900 -1.872595 -0.016632 0
-9.485676 -1.847822 -0.018040 0
-9.484447 -1.822572 -0.017434 0
-9.467345 -1.795701 -0.014810 0
-9.497790 -1.771097 -0.018231 0
-9.460757 -1.742407 -0.013084 0
-9.467442 -1.714124 -0.013472 0
-9.454023 -1.686641 -0.011348 0
-9.460159 -1.662261 -0.011752 0
-9.474124 -1.638502 -0.013165 0
-9.472399 -1.610794 -0.012550 0
-9.498170 -1.586502 -0.015469 0
-9.456485 -1.558492 -0.009823 0
-9.434669 -1.529533 -0.006687 0
-9.456214 -1.504868 -0.009102 0
-9.477597 -1.481363 -0.011522 0
-9.479098 -1.456565 -0.011422 0
-9.448964 -1.427419 -0.007280 0
-9.466273 -1.400925 -0.009185 0
-9.479462 -1.375427 -0.010591 0
-9.448898 -1.349223 -0.006461 0
-9.465928 -1.322564 -0.008365 0
-9.419367 -1.294741 -0.002217 0
-9.444045 -1.270940 -0.005139 0
-9.480626 -1.244729 -0.009561 0
-9.429775 -1.218544 -0.002916 0
-9.442307 -1.194186 -0.004327 0
-9.466713 -1.167379 -0.007237 0
-9.463227 -1.141252 -0.006629 0
-9.463601 -1.116504 -0.006529 0
-9.424238 -1.088782 -0.001388 0
-9.456192 -1.063052 -0.005308 0
-9.440437 -1.036990 -0.003192 0
5.546609 -0.569664 0.123484 0
5.587830 -0.593780 0.119081 0
5.605215 -0.620761 0.117250 0
5.582718 -0.648480 0.119721 0
5.568007 -0.674354 0.121339 0
5.589022 -0.699937 0.119083 0
5.594106 -0.727602 0.118541 0
5.579125 -0.753347 0.120159 0
5.599831 -0.777850 0.117908 0
5.588730 -0.806044 0.119086 0
5.601313 -0.830915 0.117694 0
5.574112 -0.859368 0.120593 0
5.602448 -0.885316 0.117475 0
5.571049 -0.912308 0.120810 0
5.583297 -0.938610 0.119413 0
5.575570 -0.965140 0.120167 0
5.587635 -0.991540 0.118770 0
5.603583 -1.018023 0.116942 0
5.591602 -1.044527 0.118127 0
5.607375 -1.069807 0.116303 0
5.611133 -1.095074 0.115772 0
5.606837 -1.121590 0.116096 0
5.606424 -1.148143 0.115990 0
5.613843 -1.176186 0.115016 0
5.605289 -1.202573 0.115772 0
5.596680 -1.227576 0.116533 0
5.595898 -1.254093 0.116427 0
5.618869 -1.281426 0.113734 0
5.629820 -1.308471 0.112335 0
5.616835 -1.334611 0.113522 0
5.639515 -1.362266 0.110829 0
5.598542 -1.387014 0.115035 0
5.593232 -1.413331 0.115360 0
5.607757 -1.439385 0.113535 0
5.626084 -1.467104 0.111272 0
5.632404 -1.494216 0.110303 0
5.626722 -1.520596 0.110628 0
5.628884 -1.547490 0.110091 0
5.626985 -1.574118 0.109985 0
5.636990 -1.600312 0.108589 0
5.634906 -1.626968 0.108483 0
5.628766 -1.653288 0.108809 0
5.634537 -1.679267 0.107845 0
5.632177 -1.705914 0.107740 0
5.653481 -1.734771 0.105042 0
5.639053 -1.760333 0.106232 0
5.624541 -1.785803 0.107423 0
5.641725 -1.813136 0.105162 0
5.638898 -1.839807 0.105057 0
5.635830 -1.867801 0.104946 0
5.648769 -1.894927 0.103117 0
5.637758 -1.920691 0.103876 0
5.634556 -1.947347 0.103770 0
5.654936 -1.976952 0.101070 0
5.627700 -2.001957 0.103555 0
5.624215 -2.028578 0.103450 0
5.624758 -2.054391 0.102917 0
5.625027 -2.081550 0.102380 0
5.625391 -2.107392 0.101847 0
5.617602 -2.133429 0.102175 0
5.613657 -2.160014 0.102071 0
5.629273 -2.189598 0.099802 0
5.605490 -2.213142 0.101862 0
5.605193 -2.240314 0.101324 0
5.620495 -2.270073 0.099055 0
5.608230 -2.295353 0.099817 0
5.607412 -2.323903 0.099274 0
5.622620 -2.352548 0.097009 0
5.613996 -2.378451 0.097338 0
5.601614 -2.402271 0.098106 0
5.604550 -2.430248 0.097135 0
5.615198 -2.459740 0.095298 0
5.610114 -2.486315 0.095194 0
5.612741 -2.514404 0.094223 0
5.587971 -2.537071 0.096287 0
5.574824 -2.561964 0.097050 0
5.588852 -2.592431 0.094779 0
5.591087 -2.620553 0.093808 0
5.593218 -2.648711 0.092837 0
5.595245 -2.676902 0.091866 0
5.585521 -2.702545 0.092197 0
5.591227 -2.731638 0.090792 0
5.577745 -2.755028 0.091562 0
5.556447 -2.776548 0.093200 0
5.585087 -2.811140 0.089191 0
5.571043 -2.835752 0.089956 0
5.587828 -2.867815 0.087248 0
5.577459 -2.893338 0.087579 0
5.559623 -2.915555 0.088785 0
5.572217 -2.946836 0.086511 0
5.538482 -2.966299 0.089449 0
5.547017 -2.996633 0.087609 0
5.543902 -3.023987 0.087073 0
5.529170 -3.048240 0.087840 0
5.529704 -3.076607 0.086869 0
5.530131 -3.105001 0.085898 0
5.518967 -3.130200 0.086231 0
5.538316 -3.164049 0.083086 0
5.530774 -3.190351 0.082984 0
5.523524 -3.215314 0.082888 0
5.511990 -3.240436 0.083222 0
5.500372 -3.265506 0.083555 0
5.511502 -3.297443 0.081279 0
5.503495 -3.323650 0.081178 0
5.499193 -3.351010 0.080642 0
5.502378 -3.380755 0.079236 0
5.486502 -3.404516 0.080006 0
5.489474 -3.434296 0.078600 0
5.488549 -3.462892 0.077629 0
5.487516 -3.491511 0.076657 0
5.475060 -3.516374 0.076993 0
5.462521 -3.541180 0.077328 0
5.450346 -3.564629 0.077669 0
5.460197 -3.597113 0.075391 0
5.473666 -3.631008 0.072678 0
5.445749 -3.650459 0.074756 0
5.436509 -3.676435 0.074657 0
5.434659 -3.705080 0.073686 0
5.425229 -3.731016 0.073587 0
5.423169 -3.759674 0.072616 0
5.413548 -3.785570 0.072517 0
5.407558 -3.812835 0.071982 0
5.420539 -3.845876 0.069272 0
5.399982 -3.866187 0.070487 0
5.404815 -3.897763 0.068644 0
5.383609 -3.919235 0.069854 0
5.391912 -3.952323 0.067575 0
5.389000 -3.981067 0.066604 0
5.371236 -4.003859 0.067379 0
5.368124 -4.032582 0.066408 0
5.372252 -4.064355 0.064565 0
5.350022 -4.086763 0.065772 0
5.365452 -4.121924 0.062624 0
5.351454 -4.144778 0.062968 0
5.351451 -4.175126 0.061561 0
5.333084 -4.197608 0.062337 0
5.339588 -4.232436 0.060052 0
5.325245 -4.255153 0.060397 0
5.321159 -4.283942 0.059427 0
5.301883 -4.307490 0.060199 0
5.297590 -4.336250 0.059229 0
5.296800 -4.366677 0.057822 0
5.285650 -4.390857 0.057731 0
5.288238 -4.422998 0.055887 0
5.254722 -4.438251 0.058414 0
5.243335 -4.462291 0.058323 0
5.249188 -4.496151 0.056042 0
5.236998 -4.521436 0.055947 0
5.228292 -4.548422 0.055415 0
5.230187 -4.580660 0.053571 0
5.221889 -4.606386 0.053043 0
5.209314 -4.631575 0.052949 0
5.210845 -4.663893 0.051105 0
5.187443 -4.683626 0.052323 0
5.174598 -4.708694 0.052229 0
5.168725 -4.737377 0.051260 0
5.148647 -4.758694 0.052042 0
5.163675 -4.798465 0.048447 0
5.142745 -4.820962 0.049225 0
5.130090 -4.844629 0.049136 0
5.116683 -4.869495 0.049044 0
5.117152 -4.901931 0.047200 0
5.107030 -4.928668 0.046669 0
5.114882 -4.963781 0.043954 0
5.104531 -4.990533 0.043423 0
5.091313 -5.014072 0.043336 0
5.087688 -5.044693 0.041930 0
5.090836 -5.079287 0.039647 0
5.062836 -5.096066 0.041308 0
5.054709 -5.125926 0.040336 0
5.057467 -5.160588 0.038053 0
5.091602 -5.212296 0.031830 0
5.040075 -5.213410 0.036565 8
5.037539 -5.248604 0.034711 15
5.012521 -5.266966 0.035936 30
4.984811 -5.281915 0.037604 62
4.953692 -5.294644 0.039711 64
4.935337 -5.316799 0.040060 66
4.923656 -5.343089 0.039533 66
4.894292 -5.359965 0.041194 65
4.866420 -5.374288 0.042864 53
4.844466 -5.393950 0.043654 21
4.844836 -5.495850 0.037247 0
4.819199 -5.513155 0.038476 0
4.830751 -5.553333 0.034882 0
4.818178 -5.579360 0.034355 0
4.798111 -5.602099 0.034703 0
4.796024 -5.633551 0.032864 0
4.786429 -5.661736 0.031899 0
4.792272 -5.702376 0.028734 0
4.783226 -5.729410 0.027774 0
4.777335 -5.758714 0.026374 0
4.760740 -5.782344 0.026288 0
4.744062 -5.805916 0.026202 0
4.730537 -5.831742 0.025677 0
4.716914 -5.857532 0.025152 0
4.719282 -5.894958 0.022430 0
4.705421 -5.920731 0.021906 0
4.694664 -5.948823 0.020942 0
4.675077 -5.968630 0.021301 0
4.661804 -5.993117 0.020781 0
4.646696 -6.019892 0.020253 0
4.642744 -6.051510 0.018415 0
4.625127 -6.074668 0.018331 0
4.606543 -6.098918 0.018244 0
4.601336 -6.131686 0.016401 0
4.574930 -6.146216 0.017642 0
4.578871 -6.186326 0.014480 0
4.552335 -6.200718 0.015721 0
4.546638 -6.233467 0.013879 0
4.546995 -6.271214 0.011157 0
4.519334 -6.286541 0.012395 0
4.516317 -6.321813 0.010113 0
4.492824 -6.344275 0.010464 0
4.484317 -6.373372 0.009066 0
4.472632 -6.399930 0.008109 0
4.450752 -6.419940 0.008469 0
4.447048 -6.455239 0.006187 0
4.415901 -6.467419 0.007868 0
4.406855 -6.496416 0.006471 0
4.396726 -6.526529 0.005070 0
4.380457 -6.551430 0.004550 0
4.358102 -6.571055 0.004912 0
4.338674 -6.593217 0.004833 0
4.331074 -6.625853 0.002992 0
4.311454 -6.647920 0.002914 0
4.309506 -6.685856 0.000192 0
4.277882 -6.697181 0.001877 0
4.260953 -6.721738 0.001359 0
4.252719 -6.754308 -0.000481 0
4.224894 -6.766922 0.000768 0
4.216429 -6.799446 -0.001072 0
4.199106 -6.823829 -0.001589 0
4.190367 -6.856343 -0.003428 0
4.167060 -6.875180 -0.003063 0
4.155192 -6.904915 -0.004462 0
4.131735 -6.923609 -0.004096 0
4.125349 -6.958815 -0.006376 0
4.113102 -6.988494 -0.007774 0
4.089383 -7.007010 -0.007407 0
4.068434 -7.028232 -0.007482 0
4.058673 -7.060607 -0.009320 0
4.055432 -7.097565 -0.012037 0
4.026843 -7.109137 -0.010783 0
4.016685 -7.141480 -0.012621 0
3.998044 -7.165291 -0.013136 0
3.979310 -7.189047 -0.013650 0
3.960483 -7.212747 -0.014163 0
3.936070 -7.230643 -0.013794 0
3.914341 -7.251328 -0.013866 0
3.895268 -7.274829 -0.014378 0
3.884252 -7.306981 -0.016215 0
3.868772 -7.332284 -0.017165 0
3.843993 -7.349812 -0.016794 0
3.835282 -7.384826 -0.019072 0
3.818368 -7.411037 -0.020025 0
3.804009 -7.440157 -0.021420 0
3.784205 -7.463338 -0.021931 0
3.753729 -7.474588 -0.020675 0
3.741690 -7.506542 -0.022511 0
3.721624 -7.529532 -0.023021 0
3.707838 -7.557456 -0.024411 0
3.690178 -7.583349 -0.025362 0
3.664626 -7.600160 -0.024988 0
3.651942 -7.631983 -0.026823 0
3.626241 -7.648642 -0.026448 0
3.610741 -7.677362 -0.027840 0
3.592558 -7.703006 -0.028790 0
3.574264 -7.728604 -0.029740 0
3.558389 -7.757222 -0.031132 0
3.529786 -7.770434 -0.030313 0
3.517394 -7.801071 -0.032143 0
3.506167 -7.835752 -0.034419 0
3.474867 -7.845629 -0.033157 0
3.460900 -7.877140 -0.034990 0
3.441849 -7.902399 -0.035938 0
3.430053 -7.936989 -0.038212 0
3.403417 -7.952767 -0.037833 0
3.381604 -7.974732 -0.038339 0
3.357281 -7.993476 -0.038401 0
3.330482 -8.008975 -0.038021 0
3.313240 -8.037049 -0.039410 0
3.297096 -8.064163 -0.040795 0
3.283210 -8.094433 -0.042623 0
3.256102 -8.109640 -0.042241 0
3.232424 -8.132061 -0.042747 0
3.218178 -8.162214 -0.044575 0
3.190868 -8.177169 -0.044192 0
3.173875 -8.209055 -0.046025 0
3.152306 -8.229408 -0.046523 0
