# .PCD v.7 - Point Cloud Data file format
VERSION .7
FIELDS x y z intensity
SIZE 4 4 4 1
TYPE F F F U
COUNT 1 1 1 1
WIDTH 1525
HEIGHT 1
VIEWPOINT 0 0 0 1 0 0 0
POINTS 1525
DATA ascii
-17.354351 4.579875 1.100135 1
-17.341722 4.633589 1.100560 1
-17.135099 4.637832 1.099180 1
-17.400438 4.815831 1.102708 1
-17.549906 4.910676 1.104645 1
-17.470236 4.948256 1.104461 1
-17.613447 5.159876 1.107488 1
-17.676020 5.235352 1.108648 1
-24.186071 7.235984 1.172583 3
-23.851442 7.228609 1.170230 3
-23.625858 7.246173 1.168866 3
-23.354351 7.248763 1.167045 3
-23.056250 7.241580 1.164948 2
-22.794033 7.239104 1.163142 2
-21.861866 7.115067 1.155592 17
-21.799433 7.167948 1.155694 25
-21.789185 7.240769 1.156349 7
-21.601522 7.328911 1.155959 2
-21.615049 7.416711 1.156928 2
-21.642994 7.498177 1.157933 2
-21.712341 7.593849 1.159360 2
-21.576654 7.620888 1.158719 2
-21.578705 7.701803 1.159548 2
-21.552555 7.765515 1.160015 2
-21.560366 7.852590 1.160949 2
-21.540056 7.922299 1.161519 2
-21.527031 7.994647 1.162166 2
-21.533781 8.070378 1.162982 2
-21.505184 8.137285 1.163472 2
-21.477619 8.200672 1.163935 2
-21.470415 8.357104 1.165489 31
-21.616293 8.569398 1.168641 2
-21.646954 8.656308 1.169740 2
-21.658640 8.736186 1.170642 2
-21.630112 8.808332 1.171199 2
-21.867857 9.064221 1.175425 5
-94.473366 38.888126 1.965012 43
-94.225914 39.163418 1.966248 43
-93.925995 39.415855 1.966906 43
-92.085037 39.016716 1.950618 45
-91.814896 39.254246 1.951330 46
-91.504387 39.491821 1.951784 46
-91.916100 40.041470 1.960260 45
-90.540977 39.812550 1.948844 46
-91.827774 40.751049 1.967158 45
-92.199432 41.273838 1.975109 44
-90.566757 40.916512 1.960675 46
-92.094231 41.964928 1.981743 44
-88.126190 40.524578 1.940622 48
-87.758980 40.719227 1.940305 49
-87.779190 41.092979 1.944419 48
-87.371155 41.284370 1.943816 49
-87.594604 41.737518 1.950108 48
-87.473457 42.046570 1.952635 48
-87.300804 42.330860 1.954570 48
-83.213570 40.684139 1.910518 53
-88.090103 43.439480 1.971580 47
-77.905983 38.750275 1.855528 59
-77.484093 38.869888 1.854111 59
-77.222900 39.068275 1.854582 59
-76.452759 39.038586 1.849329 60
-13.135053 9.538571 1.207598 1
-13.030785 9.523316 1.206275 1
-12.782948 9.392677 1.201687 1
-12.758170 9.430984 1.202018 1
-12.709780 9.453781 1.201866 1
-12.695832 9.503677 1.202491 1
-12.847290 9.685865 1.206872 1
-13.066159 9.924363 1.212821 1
-12.938568 9.885027 1.210899 1
-13.006602 10.004208 1.213450 1
-12.987422 10.052870 1.214012 1
-11.818863 9.150320 1.187997 1
-11.867112 9.248705 1.190027 1
-11.795336 9.247235 1.189276 1
-11.792330 9.300459 1.190081 1
-11.857664 9.415092 1.192545 1
-11.882844 9.496442 1.194081 1
-12.125538 9.766246 1.200782 1
-12.106908 9.812172 1.201322 1
-12.097108 9.865980 1.202078 1
-12.084056 9.917181 1.202761 1
-11.978065 9.886078 1.201212 1
-17.754278 15.114299 1.341868 3
-17.051062 14.580545 1.326386 3
-16.799284 14.542625 1.323299 13
-16.642111 14.583543 1.322419 3
-17.310728 15.402935 1.342157 10
-17.228348 15.426207 1.341735 7
-47.877140 44.709206 2.112949 35
-45.432114 42.671520 2.056273 30
-47.403877 44.867577 2.110969 35
-47.086971 44.867023 2.107923 35
-46.647743 44.744484 2.101724 34
-46.406429 44.813160 2.100549 34
-46.057335 44.773609 2.096586 33
-45.663811 44.686913 2.091435 33
-45.428440 44.740810 2.090100 33
-45.351269 44.969143 2.093136 33
-44.945560 44.863235 2.087580 32
-44.630367 44.846764 2.084359 32
-44.374172 44.889023 2.082670 32
-51.953995 53.097004 2.289322 50
-43.779705 44.882923 2.077051 31
-43.477783 44.871758 2.074076 30
-43.195065 44.863483 2.071334 30
-42.801510 44.749863 2.065824 30
-42.411972 44.636967 2.060370 29
-42.240383 44.757305 2.060822 29
-42.006393 44.809078 2.059564 29
-41.694595 44.773865 2.056147 29
-41.388885 44.742954 2.052865 29
-41.185223 44.823696 2.052394 29
-40.885841 44.795925 2.049239 29
-40.608299 44.790592 2.046668 29
-40.344452 44.798893 2.044458 28
-40.091293 44.802254 2.042267 28
-39.687283 44.660267 2.036278 28
-39.412205 44.649029 2.033661 28
-39.262009 44.766895 2.034351 28
-39.036713 44.826981 2.033405 28
-38.788216 44.827206 2.031240 28
-38.519695 44.832890 2.029003 28
-38.226128 44.790817 2.025738 27
-38.001907 44.815083 2.024220 27
-37.701973 44.760956 2.020709 27
-37.458267 44.773617 2.018838 27
-37.099552 44.641808 2.013500 27
-36.944443 44.761078 2.014243 27
-36.669777 44.713970 2.011099 27
-36.390457 44.690105 2.008327 26
-36.232754 44.803726 2.008973 26
-35.998631 44.818859 2.007275 26
-35.730949 44.773159 2.004244 26
-35.500080 44.789165 2.002604 26
-7.073053 7.713085 1.119745 0
-6.995369 7.661553 1.118203 0
-6.952862 7.653485 1.117712 0
-6.921185 7.657172 1.117518 0
-6.838471 7.594030 1.115735 0
-6.804713 7.594048 1.115461 0
-6.771057 7.598827 1.115273 0
-6.754982 7.625305 1.115610 0
-6.696821 7.593258 1.114577 0
-6.666780 7.599979 1.114456 0
-6.636749 7.606571 1.114334 0
-6.609027 7.616308 1.114287 0
-6.583579 7.629214 1.114315 0
-6.513767 7.575432 1.112810 0
-6.468117 7.558314 1.112149 0
-6.440655 7.567400 1.112096 0
-6.413185 7.576375 1.112043 0
-6.385706 7.585238 1.111989 0
-6.349353 7.580674 1.111628 0
-6.320853 7.585186 1.111491 0
-6.297801 7.600368 1.111587 0
-6.261602 7.595362 1.111222 0
-6.236345 7.606978 1.111240 0
-6.159243 7.537704 1.109414 0
-6.136358 7.552323 1.109506 0
-6.109151 7.560099 1.109443 0
-6.075571 7.557598 1.109149 0
-6.054914 7.570495 1.109229 0
-6.022363 7.571846 1.109014 0
-5.983592 7.562815 1.108567 0
-5.962697 7.580238 1.108731 0
-5.938753 7.590051 1.108735 0
-5.900167 7.580561 1.108284 0
-5.875093 7.590836 1.108292 0
-5.813747 7.534180 1.106821 0
-5.793765 7.555168 1.107061 0
-5.747832 7.581773 1.107224 1
-5.706972 7.563685 1.106606 1
-5.678094 7.566280 1.106452 1
-5.643376 7.558290 1.106065 1
-5.624310 7.578097 1.106297 1
-5.586982 7.562201 1.105749 1
-5.562095 7.571313 1.105747 1
-5.529557 7.566273 1.105433 1
-5.502786 7.571650 1.105351 1
-5.472253 7.569865 1.105113 1
-5.449261 7.582085 1.105185 0
-5.415074 7.572978 1.104789 0
-5.391375 7.580852 1.104778 0
-5.344497 7.546592 1.103835 0
-5.317942 7.551246 1.103747 0
-5.291396 7.555795 1.103659 0
-5.277439 7.585247 1.104116 0
-5.297225 7.682683 1.106057 0
-5.282700 7.712217 1.106515 0
-5.263907 7.730381 1.106734 1
-5.235112 7.731081 1.106565 1
-5.215028 7.749679 1.106786 1
-5.217247 7.815139 1.108024 0
-5.210498 7.862621 1.108871 0
-5.186485 7.873925 1.108934 0
-5.152325 7.863384 1.108527 0
-5.126637 7.870852 1.108510 0
-5.171854 8.030494 1.111784 0
-5.370938 8.533044 1.122436 0
-5.295532 8.435413 1.120146 0
-5.272763 8.454323 1.120367 0
-5.245074 8.462180 1.120351 0
-5.225642 8.492505 1.120809 0
-5.195989 8.492276 1.120631 0
-5.171607 8.511443 1.120851 0
-4.620844 7.406846 1.096775 54
-4.593869 7.404996 1.096587 43
-4.545655 7.411647 1.096443 3
-4.525825 7.423901 1.096566 2
-4.507410 7.439814 1.096767 1
-4.493938 7.475182 1.097367 0
-4.471282 7.483988 1.097411 0
-4.482622 7.578180 1.099269 0
-4.457038 7.583642 1.099236 0
-4.432600 7.588574 1.099200 0
-4.387622 7.605252 1.099282 3
-4.359054 7.598649 1.099006 3
-4.333264 7.599455 1.098888 2
-4.314191 7.619006 1.099165 1
-4.287058 7.615863 1.098966 0
-4.269008 7.634877 1.099240 0
-4.279583 7.741234 1.101336 0
-4.220930 7.723143 1.100697 1
-4.202449 7.746177 1.101050 1
-4.190068 7.788164 1.101798 1
-4.172487 7.814929 1.102229 1
-4.155967 7.845462 1.102739 1
-4.138053 7.872150 1.103168 1
-4.122367 7.906430 1.103756 0
-4.105288 7.936863 1.104265 0
-4.097466 7.989467 1.105245 0
-4.085642 8.043204 1.106231 0
-4.096251 8.173614 1.108803 0
-4.083821 8.214822 1.109545 0
-4.065272 8.245236 1.110052 0
-4.073296 8.467575 1.114400 0
-4.049326 8.482611 1.114587 0
-14.127849 45.221813 1.871868 36
-13.971261 45.256302 1.871866 18
-13.811480 45.278645 1.871622 17
-13.663507 45.313839 1.871683 17
-13.506681 45.346684 1.871668 17
-13.168261 45.313778 1.869634 35
-13.008618 45.333233 1.869366 17
-12.848977 45.352112 1.869093 35
-12.681820 45.339321 1.868178 17
-12.205965 45.402412 1.867555 17
-12.045542 45.414509 1.867179 17
-11.725706 45.404015 1.865771 35
-11.568901 45.430019 1.865700 35
-11.408709 45.439823 1.865305 17
-11.246928 45.441219 1.864746 17
-11.092492 45.477283 1.864900 17
-10.932383 45.485374 1.864491 17
-10.769999 45.481117 1.863839 17
-10.453893 45.514046 1.863397 17
-10.297667 45.539494 1.863368 17
-10.137034 45.540794 1.862857 17
-9.987817 45.559799 1.862737 17
-9.827998 45.563923 1.862296 17
-9.662798 45.535946 1.861213 17
-9.507236 45.562565 1.861241 34
-9.352891 45.596535 1.861425 17
-9.196479 45.618122 1.861364 17
-9.038754 45.631264 1.861139 17
-8.879801 45.635944 1.860751 17
-8.722697 45.651920 1.860597 17
-8.559133 45.623829 1.859561 17
-8.403271 45.646595 1.859558 17
-8.243429 45.641094 1.858991 17
-8.082075 45.623138 1.858181 17
-7.914922 45.500496 1.855294 16
-7.774989 45.639988 1.857665 17
-7.467981 45.719193 1.858405 34
-7.310843 45.730209 1.858210 34
-7.152773 45.732727 1.857852 17
-6.903975 44.927940 1.841306 16
-6.690450 45.771904 1.857468 34
-6.521802 45.745182 1.856531 34
-6.376091 45.787926 1.857029 17
-6.212603 45.811775 1.857118 17
-5.897797 45.820457 1.856572 17
-5.748082 45.821320 1.856257 17
-5.429410 45.774906 1.854648 33
-5.279825 45.878479 1.856386 51
-4.739167 44.681023 1.831560 15
-4.504554 45.945126 1.856172 34
-4.190212 45.953815 1.855766 68
-4.033041 45.957333 1.855556 85
-3.876042 45.964298 1.855422 85
-3.719021 45.970718 1.855283 10
-3.569115 45.956322 1.854748 51
-3.256035 45.998447 1.855084 34
-3.099505 46.026688 1.855404 17
-2.950133 46.030224 1.855250 17
-2.701093 41.451229 1.764019 11
-2.562562 41.637516 1.767520 12
-2.432300 42.667107 1.787774 13
-2.293945 42.652451 1.787299 13
-2.141493 41.105686 1.756403 11
-2.001411 41.074085 1.755600 11
-1.861454 41.081985 1.755587 11
-1.693011 45.868374 1.850384 16
-1.536186 45.883167 1.850500 16
-1.456221 40.479023 1.743161 22
-1.307513 41.144806 1.756217 11
-1.121155 43.481373 1.802398 14
-0.978392 43.238300 1.797436 13
-0.829409 43.290588 1.798334 13
-0.760869 40.668098 1.746237 22
-0.469671 45.192215 1.835753 16
-0.276849 46.221825 1.856024 17
-0.306016 41.620388 1.764762 12
0.004132 45.421906 1.839945 16
0.200207 46.273636 1.856704 17
0.355625 46.213902 1.855419 17
0.513711 46.209541 1.855237 17
0.667608 46.268967 1.856328 17
0.839972 46.362820 1.858098 17
0.673554 41.372326 1.759249 11
0.813145 41.342941 1.758604 11
1.184782 44.740578 1.825789 15
1.322769 44.533932 1.821644 31
1.320633 42.476395 1.780879 26
1.473675 42.476051 1.780829 13
1.744710 44.014404 1.811232 14
1.873113 43.758236 1.806133 14
2.063939 44.190582 1.814662 15
2.051190 42.484493 1.780891 13
2.592333 46.425667 1.858847 17
2.527303 44.253490 1.815869 15
2.682577 44.277332 1.816341 15
3.077184 46.458992 1.859506 17
3.232491 46.481777 1.859969 17
3.006605 43.194569 1.794955 14
3.560583 46.531769 1.861003 18
3.723006 46.540005 1.861198 18
3.883518 46.531796 1.861074 18
4.046656 46.542843 1.861338 18
4.206722 46.529530 1.861126 18
4.378329 46.598839 1.862556 18
4.542029 46.608112 1.862805 18
4.692711 46.582348 1.862363 18
4.861298 46.622139 1.863228 18
4.266659 41.672367 1.765329 12
4.812141 44.226482 1.815976 15
5.353385 46.639042 1.863837 18
5.040168 43.728241 1.806302 15
5.341772 43.698048 1.805918 45
5.843629 45.693352 1.845561 34
5.731681 44.161819 1.815346 31
5.883782 44.142582 1.815096 46
6.054795 44.225048 1.816867 31
6.190722 44.158936 1.815693 31
6.469093 44.793922 1.828432 33
6.623504 44.772087 1.828157 33
6.758288 44.651661 1.825933 49
6.893133 44.534748 1.823785 16
6.740362 43.031071 1.794128 14
-0.168803 9.350668 1.125954 1
-0.170277 9.203693 1.123074 1
0.018425 9.919742 1.137332 2
0.035738 9.858510 1.136156 2
-0.141064 8.943119 1.118014 0
-0.126457 8.886401 1.116925 0
-0.086775 8.803078 1.115355 3
-0.057618 8.804264 1.115422 6
-0.041301 8.759088 1.114566 3
0.007968 8.726126 1.114002 39
0.034312 8.711118 1.113754 33
0.061255 8.704110 1.113664 34
0.087855 8.701231 1.113654 34
0.115067 8.689813 1.113481 33
0.145098 8.694097 1.113619 30
0.172492 8.699010 1.113765 28
0.200472 8.695371 1.113748 26
0.228452 8.691630 1.113729 28
0.256669 8.683558 1.113629 27
0.286876 8.687292 1.113762 26
0.369690 8.670998 1.113621 1
0.403535 8.685759 1.113980 1
0.429046 8.677879 1.113884 1
0.458271 8.677124 1.113935 2
0.498440 8.710555 1.114672 2
0.518018 8.679088 1.114111 2
0.543606 8.666590 1.113931 1
0.576568 8.681035 1.114288 1
0.957889 9.628880 1.133472 8
1.074403 9.876517 1.138528 17
1.114547 9.892334 1.138934 14
0.898250 8.993402 1.121114 6
0.918057 8.956544 1.120462 10
1.181832 9.592584 1.133366 9
1.210345 9.582118 1.133246 9
1.240322 9.571000 1.133118 2
0.967106 8.678168 1.115278 34
0.991056 8.660439 1.115010 25
1.019266 8.653820 1.114968 29
1.051851 8.658265 1.115151 25
1.082891 8.654610 1.115176 7
16.310165 46.089218 1.874205 21
16.350880 45.740166 1.867706 20
16.542128 45.760994 1.868715 20
16.667416 45.644032 1.866904 20
1.811233 9.942393 1.141940 0
1.291428 8.633750 1.115448 0
1.367020 8.736271 1.117641 0
1.424274 8.794326 1.118932 0
1.934373 9.893894 1.141438 0
2.028875 9.930853 1.142464 6
2.069918 9.938755 1.142758 6
2.106283 9.944259 1.142991 5
2.139185 9.933647 1.142911 5
2.201531 9.904815 1.142598 0
2.251376 9.930033 1.143256 0
2.297860 9.943432 1.143682 0
2.325631 9.921305 1.143373 0
1.735034 8.625467 1.116887 0
1.789743 8.670026 1.117931 0
1.812997 8.649715 1.117643 1
1.845055 8.647244 1.117723 0
1.809036 8.508782 1.115002 0
1.824434 8.474167 1.114419 0
1.935945 8.628358 1.117737 0
2.017315 8.658468 1.118629 1
2.040355 8.637451 1.118336 1
2.112438 8.644648 1.118772 9
2.148590 8.648007 1.118988 8
2.186718 8.654725 1.119276 8
28.807573 56.923599 2.124531 36
27.363548 53.860546 2.061820 31
29.408176 57.084442 2.130146 37
29.729525 57.197578 2.133661 37
27.755587 53.268970 2.052716 30
28.739252 54.563343 2.080899 33
28.928097 54.459328 2.079861 33
29.276281 54.650406 2.084961 33
24.929548 46.814526 1.921685 25
31.763643 58.004108 2.157769 40
32.077175 58.078423 2.160603 41
28.599049 51.840363 2.030560 29
32.723591 58.249916 2.166808 41
27.692562 49.560635 1.984794 27
27.983507 49.654400 1.987909 28
26.519724 46.915466 1.931140 25
33.986107 58.506241 2.177613 43
27.103989 47.135162 1.938003 26
34.635433 58.645596 2.183364 44
27.005253 46.274174 1.921980 25
27.150949 46.171158 1.920864 25
27.352064 46.136360 1.921264 25
30.211433 50.163651 2.008270 29
34.163208 55.764595 2.129155 39
30.270357 49.492508 1.996546 28
31.463215 50.927532 2.028467 60
37.462379 59.448345 2.212340 47
29.131866 46.749836 1.941538 26
29.304987 46.660835 1.940876 26
38.512985 59.671040 2.221917 49
38.708473 59.516281 2.220222 49
38.951542 59.429672 2.220006 49
36.799545 55.946323 2.146470 42
31.667959 48.318703 1.983160 28
31.828331 48.194534 1.981853 28
35.892303 53.484020 2.097904 38
35.936661 53.160667 2.092450 37
36.090591 53.008896 2.090644 37
36.369236 53.007778 2.092204 37
39.778095 57.221935 2.185659 46
40.108269 57.255283 2.188137 47
42.813942 60.440178 2.259526 54
35.005863 49.717823 2.026695 32
44.898605 62.312515 2.304375 58
44.950523 61.960278 2.298535 58
45.036488 61.610939 2.292957 58
45.173996 61.351963 2.289267 57
36.174664 49.477116 2.029392 33
38.347797 51.873631 2.083975 38
37.297993 50.194500 2.048573 35
35.911293 48.118057 2.004270 31
40.400738 53.329594 2.121583 42
40.204166 52.716419 2.109808 41
40.442863 52.640030 2.109961 41
40.650959 52.525616 2.109280 41
40.940666 52.508728 2.110790 42
41.107414 52.343349 2.108997 41
41.259438 52.178871 2.107136 41
41.468971 52.064266 2.106498 42
41.777084 52.064259 2.108450 42
43.519699 53.725468 2.147841 46
39.790714 49.061237 2.044659 36
40.950947 50.050129 2.068909 38
39.887424 48.498505 2.035734 35
53.246132 63.225002 2.371697 60
44.718369 53.242901 2.147401 47
47.286465 55.731861 2.206218 53
47.565891 55.657448 2.206802 53
47.419502 55.114925 2.196710 52
47.739418 55.104061 2.198652 52
48.172440 55.194515 2.203055 53
52.311089 59.259941 2.298823 62
45.157028 51.225983 2.116443 45
48.303501 54.207207 2.187439 52
58.188469 64.251465 2.421809 57
45.060905 50.082874 2.096753 43
45.026550 49.705433 2.090252 43
45.154434 49.514927 2.087975 42
45.354313 49.381638 2.087149 43
46.050495 49.751980 2.098091 44
46.304916 49.669308 2.098499 44
47.271454 50.298679 2.115613 46
47.332710 50.016544 2.111407 46
48.061291 50.395042 2.122749 47
48.379089 50.362972 2.124472 47
49.364834 50.979473 2.141550 49
49.527546 50.788902 2.139602 49
52.801910 53.587128 2.208614 56
62.857109 62.811291 2.430833 55
52.215397 52.301479 2.183511 54
55.019127 54.580902 2.240740 60
53.150867 52.480370 2.193195 55
53.476891 52.423706 2.194660 56
55.032700 53.498154 2.223366 59
54.404186 52.556496 2.203604 57
55.507473 53.198524 2.222051 59
42.189465 40.818840 1.925080 29
42.482159 40.816360 1.927217 29
42.973492 40.974724 1.933411 30
44.110836 41.699524 1.953473 32
44.390968 41.659809 1.954947 33
43.142540 40.286587 1.923741 30
7.918456 9.536347 1.170123 1
7.933064 9.488784 1.169482 1
7.898776 9.399693 1.167815 1
8.037944 9.458289 1.169802 1
7.914403 9.294626 1.166282 1
7.941893 9.261838 1.165980 1
7.974711 9.172172 1.164832 1
7.981544 9.119722 1.164067 1
8.022286 9.095057 1.164001 1
7.927696 8.963994 1.161225 1
7.852449 8.846939 1.158820 1
8.150887 8.797430 1.160425 1
8.200302 8.779124 1.160540 1
8.267448 8.776887 1.161045 1
8.186092 8.659144 1.158595 1
8.177617 8.597277 1.157586 1
8.204114 8.561846 1.157263 1
8.343037 8.609557 1.159114 1
8.279305 8.507276 1.157049 1
8.266701 8.443222 1.155980 1
8.150082 8.304330 1.152935 1
8.113833 8.224669 1.151441 1
8.243245 8.263757 1.153093 1
8.260785 8.225262 1.152663 1
9.319029 8.229480 1.161649 1
10.108108 8.216756 1.168311 1
11.055996 8.238914 1.177020 1
11.243097 8.222816 1.178475 1
19.967800 12.509408 1.316088 5
21.262413 12.993669 1.334451 5
21.232994 12.876056 1.332591 5
21.624355 12.459475 1.330605 11
21.714697 12.401397 1.330670 29
21.573948 12.232490 1.327128 23
21.616673 12.151988 1.326462 23
21.843786 12.157965 1.328655 17
21.935097 12.104273 1.328802 23
22.002815 12.034193 1.328516 11
27.531507 13.718184 1.402351 8
27.877342 13.744075 1.405960 8
70.095665 21.616993 1.913771 42
70.273476 20.865473 1.907017 55
70.338577 20.612175 1.904813 55
70.395065 20.356596 1.902508 55
70.489319 20.111069 1.900704 55
70.552353 19.870726 1.898656 55
70.579102 19.607565 1.895998 55
70.647545 19.355236 1.893891 55
70.722878 19.104589 1.891883 55
70.777924 18.848875 1.889625 55
70.859283 18.599577 1.887713 55
39.243690 10.347182 1.478340 27
39.280018 10.204176 1.477169 55
39.296318 10.056739 1.475754 27
39.308182 9.908455 1.474290 27
39.331249 9.762692 1.472973 41
39.360126 9.625724 1.471814 41
39.401787 9.483858 1.470739 41
39.423359 9.337852 1.469422 27
39.452259 9.193354 1.468201 27
39.476727 9.047992 1.466932 27
39.512474 8.904808 1.465807 27
39.559521 8.763681 1.464825 41
39.590351 8.619433 1.463650 41
39.620678 8.475064 1.462476 41
39.682018 8.336137 1.461680 27
39.811188 8.058605 1.460177 42
152.001389 24.837536 2.781357 63
151.882065 24.269470 2.774468 3
9.370098 0.642882 1.075278 1
9.376883 0.605042 1.075052 1
9.363408 0.563946 1.074592 1
9.341873 0.525246 1.074068 1
9.344181 0.485621 1.073786 1
9.342355 0.446167 1.073465 1
9.332503 0.409103 1.073080 1
9.338398 0.369251 1.072839 1
9.320193 0.330752 1.072359 1
9.345772 0.289651 1.072317 1
9.351244 0.249670 1.072075 1
9.333838 0.171592 1.071316 1
22.636187 -2.696657 1.189254 15
22.594843 -2.782526 1.188274 5
22.617092 -2.873802 1.187917 10
22.652683 -3.055659 1.187127 15
22.693644 -3.150820 1.186948 10
22.690872 -3.238878 1.186369 10
22.716120 -3.327489 1.186077 10
22.759968 -3.424142 1.185929 5
22.827053 -3.525454 1.185993 5
-35.365227 1.009796 1.389895 8
-35.211819 2.287120 1.398695 8
-35.279003 2.406237 1.400593 8
-56.728317 4.074946 1.690873 26
-56.094967 4.598830 1.687412 25
-117.772858 10.336339 2.530907 63
-65.266151 8.991776 1.845899 36
-19.502289 3.394202 1.207302 2
-19.058113 3.394161 1.201637 2
-18.582485 3.386483 1.195498 2
-17.913250 3.346873 1.186579 2
-17.560232 3.459124 1.183204 2
-17.452806 3.497586 1.182224 2
-17.345304 3.535330 1.181238 2
-17.336319 3.589018 1.181667 2
-19.439333 4.322425 1.215864 2
-19.427588 4.383418 1.216350 2
-18.311541 4.820371 1.206930 2
-17.688530 4.845702 1.199391 2
-17.480909 4.852290 1.196863 2
-17.533249 4.923092 1.198300 2
-30.399256 8.384046 1.397521 14
-30.168291 8.429215 1.395142 21
-30.053274 8.503865 1.394542 28
-29.992123 8.592460 1.394775 42
-29.946121 8.684960 1.395245 42
-29.911373 8.780455 1.395893 42
-29.887846 8.879061 1.396720 42
-23.889662 7.350340 1.304813 4
-23.725336 7.385132 1.303175 4
-23.323368 7.348120 1.297770 4
-22.952562 7.317615 1.292830 4
-22.609013 7.292774 1.288294 3
-22.710276 7.398982 1.290779 3
-22.374752 7.373497 1.286342 3
-21.746922 7.329162 1.278087 3
-21.751297 7.406826 1.279055 3
-21.770571 7.489586 1.280270 3
-21.645760 7.673945 1.280931 3
-22.421938 8.338206 1.298411 3
-22.491440 8.440125 1.300496 4
-22.735163 8.693123 1.306548 4
-22.820494 8.807699 1.308989 4
-21.909344 8.705440 1.296700 3
-21.815228 8.748826 1.296102 3
-21.806616 8.825429 1.296953 3
-101.991837 40.886665 2.663379 63
-103.072105 41.706688 2.686652 63
-102.732964 41.979515 2.686008 63
-103.192245 42.578758 2.699075 63
-102.942970 42.888950 2.700011 63
-100.955368 42.469917 2.670909 63
-90.290291 38.364170 2.491206 49
-90.059952 38.629841 2.491847 49
-89.843521 38.900700 2.492733 49
-89.838951 39.263130 2.497331 49
-90.469978 39.906086 2.513108 48
-90.552444 40.293449 2.519087 48
-90.549721 40.662933 2.523838 48
-88.715996 40.205891 2.496195 50
-88.396606 40.425480 2.495278 50
-88.614403 40.890888 2.503925 49
-88.713936 41.304359 2.510512 49
-89.039764 41.825996 2.521196 49
-87.219231 41.335926 2.493345 50
-87.128365 41.657413 2.496523 50
-87.753311 42.324207 2.512676 49
-83.220108 40.490265 2.435282 54
-83.113541 40.754150 2.437550 54
-110.077164 54.458282 2.935043 63
-94.950912 47.402721 2.664410 63
-94.857185 47.741394 2.667866 63
-83.844826 42.558193 2.470238 53
-80.107101 40.987259 2.405707 56
-79.661339 41.102020 2.402099 57
-79.840080 41.539230 2.410095 56
-76.221085 40.001602 2.347425 60
-76.105629 40.271816 2.349780 60
-102.110703 54.497684 2.843351 63
-75.840073 40.794174 2.353880 60
-100.188324 54.355480 2.819346 63
-76.177742 41.630363 2.369255 59
-75.905846 41.817654 2.368736 59
-75.637047 42.005489 2.368272 59
-75.416664 42.219353 2.368733 60
-75.550728 42.633083 2.376016 59
-82.735870 47.053295 2.519216 52
-97.296677 55.798656 2.806465 63
-82.720215 47.794563 2.529422 51
-14.992712 8.604005 1.214122 1
-14.952263 8.641333 1.214193 1
-14.801661 8.613141 1.212101 1
-14.654848 8.586046 1.210070 1
-14.546055 8.580740 1.208776 1
-14.481882 8.601775 1.208358 1
-14.408817 8.614014 1.207717 1
-14.297039 8.604905 1.206341 1
-14.402820 8.730311 1.209315 1
-14.392662 8.784319 1.209979 1
-14.270700 8.767856 1.208391 1
-14.024182 8.671162 1.204270 1
-13.660677 8.497252 1.197742 1
-13.633670 8.531804 1.197946 1
-13.590508 8.561596 1.197905 1
-13.446959 8.525368 1.195803 1
-12.652631 8.492290 1.186691 1
-12.563449 8.549108 1.186583 1
-12.933384 8.569270 1.268405 1
-12.425303 8.546924 1.260131 1
-12.311540 8.519895 1.257885 1
-12.221417 8.561688 1.257280 1
-13.814148 9.804224 1.304674 2
-13.760895 9.828769 1.304321 2
-13.631001 9.795246 1.301724 2
-13.574714 9.816575 1.301271 2
-12.317104 8.972663 1.266423 1
-12.308121 9.023480 1.267248 1
-12.280008 9.059553 1.267509 1
-12.270618 9.110373 1.268334 1
-12.242203 9.146315 1.268594 1
-12.223034 9.189645 1.269135 1
-12.194342 9.225419 1.269394 1
-12.179397 9.269382 1.270015 1
-12.220226 9.364942 1.272455 1
-12.243435 9.443876 1.274317 1
-12.327821 9.574080 1.278072 1
-12.356139 9.658875 1.280128 1
-12.388582 9.744726 1.282268 1
-12.364058 9.786239 1.282719 1
-12.315014 9.806948 1.282410 1
-17.610130 14.505184 1.450987 4
-17.497322 14.598305 1.451194 21
-18.250439 15.358726 1.476992 14
-17.401915 14.706444 1.451965 12
-17.839739 15.194833 1.467885 9
-17.784126 15.441193 1.472003 13
-17.648214 15.417841 1.469620 13
-16.532314 14.580607 1.437164 3
-50.093166 46.195763 2.542447 63
-17.420021 15.714263 1.472402 4
-47.116173 44.877518 2.474520 63
-47.226425 45.308498 2.484822 63
-48.022503 46.403938 2.518098 63
-48.002708 46.702503 2.523944 63
-54.109470 53.128242 2.738820 63
-46.975056 46.310703 2.501952 63
-47.159130 46.814892 2.514830 63
-52.525185 52.614487 2.706840 63
-52.127789 52.549736 2.700168 63
-51.822426 52.595131 2.697026 63
-47.242687 48.183937 2.544313 63
-46.837700 48.106365 2.537318 63
-43.539806 44.934879 2.427477 63
-43.564102 45.269180 2.434787 63
-50.062843 52.545273 2.672686 63
-46.330414 48.879047 2.546807 63
-46.113945 48.997204 2.546464 63
-49.068851 52.570236 2.660227 63
-48.808838 52.628437 2.658083 63
-48.652348 52.818398 2.660079 63
-41.133842 44.779327 2.392824 58
-48.222904 53.068371 2.659859 63
-47.840893 52.984627 2.653190 63
-47.639439 53.490707 2.661424 63
-47.553825 53.781864 2.666570 63
-47.211838 53.738529 2.661329 63
-46.945850 53.781773 2.658915 63
-39.856960 45.794479 2.398335 58
-46.264874 53.724087 2.649163 63
-40.058231 46.659382 2.419498 61
-45.075302 53.060337 2.620064 63
-37.820652 44.592480 2.347101 50
-37.567028 44.593502 2.344007 49
-37.379383 44.658546 2.343125 49
-37.031067 44.538994 2.336273 48
-36.776306 44.548546 2.333387 47
-36.487293 44.497540 2.328776 46
-36.288158 44.558121 2.327703 46
-36.044884 44.545753 2.324512 45
-35.786869 44.544064 2.321390 45
-35.536926 44.535210 2.318220 44
-35.329094 44.563774 2.316385 44
-35.063007 44.530376 2.312505 43
-7.021384 7.695699 1.167867 1
-7.000339 7.716526 1.168082 1
-6.952956 7.701995 1.167207 1
-6.914033 7.696002 1.166622 1
-6.887033 7.705945 1.166531 1
-6.812955 7.656069 1.164565 1
-6.786133 7.665645 1.164471 1
-6.738318 7.650797 1.163593 1
-6.696478 7.641378 1.162906 1
-6.673226 7.657871 1.163013 1
-6.635003 7.650554 1.162417 1
-6.609434 7.663551 1.162423 1
-6.528778 7.646395 1.161136 1
-6.486339 7.636655 1.160446 1
-6.458626 7.645788 1.160348 1
-6.440982 7.667311 1.160642 1
-6.391042 7.642974 1.159544 0
-6.363377 7.651730 1.159442 0
-6.385135 7.733159 1.161533 1
-6.304827 7.661444 1.159032 0
-6.312890 7.727705 1.160632 1
-6.677814 8.348799 1.178739 1
-6.220661 7.687079 1.158720 0
-6.294510 7.853314 1.163316 1
-6.195022 7.750549 1.159908 0
-6.100782 7.649100 1.156587 0
-6.171099 7.868830 1.162385 1
-6.153285 7.893742 1.162776 1
-6.117976 7.887062 1.162260 1
-6.090612 7.898824 1.162253 1
-6.067674 7.912484 1.162337 1
-6.076744 7.986081 1.164139 1
-6.117214 8.166183 1.168737 1
-6.096119 8.187586 1.169027 1
-6.407888 8.856767 1.187742 1
-6.478192 9.046631 1.192876 1
-6.352849 8.887628 1.187928 1
-6.407780 9.049192 1.192253 1
-6.373856 9.054146 1.192043 1
-6.385735 9.143306 1.194255 1
-5.547922 7.655241 1.151214 0
-5.513330 7.646560 1.150682 0
-5.458266 7.598843 1.149036 0
-5.468622 7.674746 1.150928 0
-5.406496 7.612463 1.148875 0
-5.368003 7.591877 1.148031 0
-5.349732 7.610261 1.148299 0
-5.375468 7.718325 1.151102 0
-5.382514 7.790929 1.152893 0
-5.351609 7.788523 1.152556 0
-5.315444 7.775230 1.151915 0
-5.297015 7.797673 1.152286 0
-5.276721 7.816474 1.152555 0
-5.274888 7.870665 1.153835 0
-5.296144 7.980206 1.156644 0
-5.260242 7.970696 1.156103 0
-5.194643 7.891084 1.153625 0
-5.186902 7.934410 1.154599 0
-5.428782 8.593420 1.172518 1
-5.395306 8.586664 1.172072 1
-5.365492 8.591311 1.171934 1
-5.357062 8.647604 1.173224 1
-5.378317 8.764983 1.176237 1
-5.317623 8.699880 1.174163 1
-5.289336 8.712135 1.174229 1
-5.265496 8.731065 1.174495 1
-4.688235 7.438325 1.138471 0
-4.623222 7.409201 1.137245 1
-4.600794 7.418458 1.137294 1
-4.576828 7.423934 1.137240 0
-4.562945 7.451121 1.137795 0
-4.546296 7.475026 1.138250 0
-4.526576 7.491453 1.138500 0
-4.512593 7.522720 1.139158 0
-4.533039 7.643476 1.142268 0
-4.472355 7.623883 1.141335 1
-4.442163 7.613891 1.140867 1
-4.420412 7.626265 1.141012 1
-4.397228 7.634813 1.141054 0
-4.375175 7.642859 1.141093 0
-4.355800 7.658359 1.141336 0
-4.331338 7.667095 1.141378 0
-4.689631 8.761888 1.170902 1
-4.302889 7.732185 1.142785 0
-4.335207 7.902936 1.147227 0
-4.448675 8.316309 1.158226 0
-4.435810 8.362859 1.159291 0
-4.413833 8.382842 1.159637 0
-4.378036 8.360968 1.158855 0
-4.291863 8.182978 1.153869 0
-4.259418 8.168225 1.153290 0
-4.244047 8.202497 1.154041 0
-4.215271 8.198977 1.153767 0
-4.226686 8.325239 1.156981 0
-4.213902 8.375177 1.158143 0
-4.211181 8.459572 1.160228 0
-4.234130 8.632187 1.164674 0
-14.956574 45.229248 2.143786 23
-14.788679 45.228264 2.142735 23
-14.619848 45.222801 2.141577 23
-14.458820 45.243637 2.141132 23
-14.291360 45.240776 2.140066 23
-14.141342 45.269863 2.139912 23
-13.984580 45.304401 2.139864 23
-13.824624 45.326794 2.139503 22
-13.666698 45.356342 2.139343 22
-13.486564 45.300194 2.136917 22
-13.329807 45.332417 2.136851 22
-13.171007 45.356331 2.136573 22
-13.010246 45.371914 2.136086 22
-12.849638 45.353951 2.134765 22
-12.494826 45.275143 2.130893 22
-12.353827 45.370049 2.132546 22
-12.205674 45.400379 2.132544 22
-12.042595 45.400780 2.131720 22
-11.887483 45.435711 2.131817 22
-11.728817 45.454472 2.131498 22
-11.565076 45.449223 2.130556 22
-11.410628 45.486393 2.130742 22
-11.253587 45.511288 2.130615 22
-11.095683 45.531708 2.130380 22
-10.922746 45.477093 2.128185 22
-10.761942 45.480652 2.127529 22
-10.604272 45.499332 2.127280 22
-10.448075 45.525311 2.127233 22
-10.295904 45.529636 2.126663 22
-10.146688 45.549171 2.126502 22
-9.979037 45.555271 2.125928 22
-9.657738 45.506382 2.123319 22
-9.495830 45.542187 2.123555 22
-9.337627 45.552444 2.123167 22
-9.180084 45.566090 2.122876 22
-9.030320 45.577942 2.122581 22
-8.874608 45.602356 2.122591 22
-8.718213 45.622269 2.122494 22
-8.556499 45.606037 2.121465 22
-8.394041 45.637833 2.121667 22
-8.230889 45.608547 2.120320 22
-8.085585 45.648911 2.120822 22
-7.934248 45.645199 2.120188 22
-7.769994 45.662838 2.120062 22
-7.608473 45.639210 2.118903 22
-7.450116 45.638817 2.118358 22
-7.300574 45.644871 2.118015 22
-7.154746 45.682198 2.118492 22
-6.992665 45.716835 2.118858 22
-6.836481 45.734135 2.118809 22
-6.676043 45.711124 2.117726 22
-6.521097 45.739250 2.117977 22
-6.209280 45.777973 2.118053 22
-6.053251 45.796520 2.118084 22
-5.689668 43.452400 2.057082 20
-5.590922 45.828335 2.117641 22
-5.434757 45.744453 2.115086 22
-5.276275 45.832661 2.116943 22
-4.971180 45.858192 2.116849 44
-4.728210 44.631828 2.084851 21
-4.649261 45.866627 2.116316 22
-4.499500 45.859333 2.115793 22
-4.344954 45.907860 2.116701 22
-4.187524 45.903934 2.116267 22
-4.030704 45.911442 2.116137 22
-3.873348 45.906414 2.115694 22
-3.717146 45.928806 2.115966 22
-3.567659 45.922401 2.115521 22
-3.255260 45.980503 2.116454 44
-3.098381 45.992752 2.116503 44
-2.949026 45.992287 2.116246 67
-2.784268 46.007607 2.116380 44
-2.627332 46.026207 2.116621 67
-2.470094 46.028267 2.116445 44
-2.313070 46.057770 2.116984 67
-2.155759 46.066730 2.117005 44
-1.998420 46.111130 2.117945 67
-1.840901 46.106995 2.117649 67
-1.691262 46.106354 2.117461 44
-1.533448 46.137135 2.118079 45
-1.432969 41.177330 1.990703 19
-1.292933 41.159256 1.990104 19
-1.045073 40.354439 1.969237 18
-0.841067 42.841301 2.032881 20
-0.731403 41.398060 1.995775 19
-0.617870 40.378212 1.969538 18
-0.107297 46.297272 2.121071 22
-0.163338 41.464870 1.997165 19
-0.053026 40.811310 1.980359 19
0.320354 40.042686 1.960543 18
0.542897 41.427372 1.995995 19
0.751455 40.540218 1.973243 18
1.315924 46.336987 2.121752 22
1.480565 46.409012 2.123608 22
1.476980 42.510410 2.023774 20
1.961579 46.434250 2.124344 22
1.875592 43.780453 2.056394 21
2.015707 43.586948 2.051494 21
2.052301 42.490936 2.023470 20
2.761579 46.506897 2.126546 22
2.549437 43.031116 2.037556 20
2.611200 42.248070 2.017583 20
3.251673 46.574162 2.128593 22
3.405638 46.580460 2.128875 22
3.138978 42.987896 2.036900 20
3.737247 46.584557 2.129272 23
3.638003 44.553585 2.077338 21
4.060184 46.579361 2.129463 23
4.223073 46.585812 2.129806 23
4.383074 46.628433 2.131077 23
4.550272 46.661438 2.132121 23
4.154695 42.840012 2.034236 20
4.874932 46.654434 2.132365 23
5.039164 46.661926 2.132784 23
5.212822 46.728081 2.134720 23
5.367396 46.671185 2.133506 23
5.084227 43.946262 2.063747 21
6.328545 50.452232 2.231206 26
5.626638 44.491234 2.078516 21
5.834457 43.910015 2.064139 43
5.984983 43.886486 2.063832 21
6.505674 45.823139 2.113989 22
6.787639 45.646763 2.110103 22
6.772745 44.720352 2.086605 22
7.008229 45.097137 2.096668 22
7.108676 44.807129 2.089559 22
-0.132032 9.521593 1.180083 1
-0.041976 9.784412 1.186946 1
-0.143438 9.188495 1.171640 1
0.072821 9.877594 1.189595 1
-0.108882 8.955136 1.165844 1
-0.087517 8.921385 1.165052 1
-0.064985 8.887251 1.164256 1
-0.039319 8.872819 1.163967 1
0.046201 8.756544 1.161303 16
0.073304 8.749496 1.161212 16
0.104491 8.757810 1.161521 14
0.132638 8.754418 1.161529 13
0.161842 8.754782 1.161636 12
0.188650 8.751557 1.161646 12
0.214655 8.740161 1.161451 12
0.244145 8.735986 1.161451 3
0.299070 8.728482 1.161462 1
0.330609 8.735889 1.161763 1
0.362433 8.738935 1.161959 1
0.395085 8.754150 1.162462 1
0.430396 8.772641 1.163060 1
11.016098 42.692242 2.048726 21
11.210775 42.828255 2.052885 21
0.919694 10.027350 1.196211 1
0.901082 9.659262 1.187001 6
0.919934 9.615088 1.185987 13
0.947469 9.597406 1.185669 14
0.977502 9.587206 1.185549 11
1.014226 9.591500 1.185818 3
0.864723 9.067717 1.172210 8
0.882242 9.027649 1.171301 12
0.888746 8.957435 1.169600 18
0.917874 8.955466 1.169688 21
0.949781 8.956642 1.169868 15
0.949867 8.709239 1.163790 12
0.976877 8.703285 1.163778 11
1.009443 8.703666 1.163950 12
1.039150 8.696458 1.163925 11
16.258108 46.435532 2.165320 24
16.521723 46.631119 2.171489 25
16.602238 46.373875 2.165651 24
16.778894 46.353161 2.166103 25
1.787407 9.972733 1.199031 1
1.826524 9.973679 1.199271 1
1.878128 9.925654 1.198395 4
1.920439 9.937885 1.198932 4
1.956508 9.939623 1.199182 4
2.000606 9.950811 1.199708 4
1.800501 9.418376 1.185672 2
2.165472 9.986229 1.201542 1
2.198535 9.975404 1.201483 1
2.240034 9.982574 1.201910 1
2.279928 9.985946 1.202238 1
2.302722 9.953036 1.201591 1
2.266517 9.797501 1.197637 1
1.813644 8.715023 1.168855 1
2.321411 9.677439 1.195119 1
2.348155 9.655281 1.194765 1
1.908689 8.703683 1.169205 1
2.020379 8.723195 1.170415 14
2.036797 8.692207 1.169792 5
2.072935 8.695926 1.170127 3
24.125000 49.995937 2.299337 46
24.365911 50.034958 2.301946 47
24.533394 49.530579 2.291251 45
28.873028 57.015556 2.498353 63
29.159636 57.071938 2.501747 63
29.462629 57.154919 2.505897 63
23.953283 46.930359 2.226020 36
30.045788 57.271381 2.512912 63
28.696722 54.463783 2.437285 63
30.898302 57.865944 2.533154 63
24.801699 46.941940 2.232618 37
24.972092 46.865498 2.232132 37
29.604336 54.328575 2.441001 63
32.143875 58.140957 2.549037 63
27.509565 50.004673 2.324525 52
32.805737 58.358944 2.559232 63
33.116295 58.418121 2.563038 63
33.419300 58.462208 2.566450 63
33.704067 58.474293 2.568994 63
26.622242 46.702614 2.241276 40
34.343357 58.602852 2.577086 63
26.700651 46.123890 2.228614 38
26.886074 46.067368 2.228831 39
27.008604 45.912640 2.226295 38
27.119511 45.740841 2.223284 38
27.567602 45.777374 2.227854 39
34.373741 55.663734 2.510144 63
35.306713 56.666183 2.540824 63
35.568714 56.615421 2.541903 63
29.148857 46.754440 2.263467 45
29.337822 46.688469 2.263603 46
36.292351 56.426769 2.543869 63
35.953430 55.547626 2.521084 63
36.577145 56.034100 2.537507 63
35.669746 54.320866 2.490982 63
31.681742 48.334751 2.321227 56
36.036564 54.050385 2.488176 63
36.799431 54.738220 2.510409 63
37.000908 54.602283 2.509187 63
37.109901 54.359486 2.504759 63
36.890144 53.672443 2.487453 63
37.193073 53.697025 2.490776 63
37.633205 53.902637 2.499394 63
42.831432 60.415970 2.691892 63
41.358051 58.045712 2.625729 63
44.879181 62.260529 2.751784 63
44.965946 61.931908 2.745352 63
35.198830 48.900585 2.366112 63
35.272327 48.650845 2.361321 63
35.512684 48.614883 2.362826 63
35.730892 48.549614 2.363490 63
37.280155 50.168583 2.413833 63
35.926769 48.117046 2.355933 63
36.108692 48.006275 2.355290 63
36.292221 47.913879 2.355076 63
36.529972 47.853722 2.356107 63
36.751457 47.805965 2.357260 63
37.034451 47.831013 2.360610 63
37.699303 48.276070 2.376853 63
37.863663 48.153469 2.375856 63
38.331680 48.354439 2.384891 63
38.447369 48.155819 2.381794 63
38.901333 48.366791 2.390929 63
39.066494 48.223881 2.389555 63
39.589615 48.473465 2.400248 63
39.873764 48.479465 2.403301 63
40.283466 48.608379 2.410280 63
40.715889 48.758862 2.417968 63
41.489552 49.284458 2.437181 63
41.405510 48.853939 2.427190 63
41.391773 48.504356 2.419662 63
42.187813 49.038872 2.439340 63
42.360519 48.906898 2.438396 63
48.293468 54.923336 2.627944 63
43.922745 49.889179 2.475681 63
45.351086 51.059978 2.515514 63
46.029537 51.441765 2.530802 63
44.650974 49.634163 2.478215 63
44.884392 49.537365 2.478741 63
46.087242 50.454590 2.510905 63
45.518627 49.529011 2.485507 63
45.794449 49.471260 2.487349 63
46.101421 49.443401 2.490166 63
47.722916 50.729630 2.534620 63
46.812939 49.478882 2.498803 63
47.172672 49.513592 2.503536 63
48.909092 50.896328 2.551293 63
49.008629 50.628651 2.546951 63
54.962406 56.041191 2.724469 63
51.595081 52.423954 2.612762 63
51.667259 52.134594 2.607717 63
54.156719 54.135967 2.676664 63
53.438866 53.090473 2.647323 63
52.340218 51.718941 2.607046 63
52.478893 51.493744 2.604121 63
52.643127 51.292583 2.601991 63
53.128242 51.385113 2.609488 63
42.155289 41.079052 2.275579 62
42.584053 41.171570 2.282446 63
43.304928 41.536148 2.298170 63
42.593685 40.633526 2.271877 62
44.179298 41.756699 2.312873 63
42.863415 40.316269 2.268806 62
43.155056 40.280422 2.271576 62
7.991802 9.596058 1.248120 1
7.977823 9.526530 1.246590 1
8.018181 9.497835 1.246514 1
7.884609 9.327722 1.241582 1
8.028499 9.392859 1.244593 1
7.908825 9.230600 1.239988 1
7.922144 9.183342 1.239235 1
7.910554 9.115757 1.237787 1
7.990083 9.126018 1.238961 1
7.926690 9.013894 1.236024 1
7.939075 8.966790 1.235273 1
7.953829 8.865156 1.233514 3
7.987545 8.835458 1.233369 1
8.092218 8.864080 1.235221 1
8.201726 8.892777 1.237138 1
8.251414 8.874369 1.237415 1
8.299725 8.857500 1.237706 1
8.296676 8.795628 1.236504 1
8.295150 8.738083 1.235406 1
8.235763 8.637453 1.232768 1
8.235415 8.584491 1.231775 1
8.287594 8.567881 1.232134 1
8.220502 8.463437 1.229334 1
8.165735 8.368976 1.226881 1
8.330765 8.434378 1.230218 1
8.155298 8.253791 1.224623 1
8.364244 8.346629 1.229038 1
8.398383 8.319284 1.228982 1
8.374823 8.248608 1.227384 1
8.482118 8.269667 1.229171 1
8.804343 8.330749 1.234514 1
8.829908 8.293131 1.234174 1
10.990150 8.320389 1.264081 2
11.043255 8.234023 1.263378 2
10.954203 8.122514 1.260268 2
10.873805 8.019757 1.257429 2
21.653324 12.467124 1.483615 6
21.716484 12.400915 1.483484 20
21.577715 12.227911 1.478744 13
21.632936 12.158356 1.478454 13
21.896271 12.181244 1.482649 13
21.967842 12.113079 1.482631 20
22.035597 12.042878 1.482530 13
69.827934 22.352446 2.354972 63
70.040123 21.597370 2.348379 155
70.107811 21.344845 2.346155 164
70.170753 21.091024 2.343857 155
70.240517 20.839132 2.341705 155
70.301682 20.584906 2.339405 124
70.373543 20.333593 2.337326 124
70.452255 20.084059 2.335392 124
70.534569 19.848873 2.333711 126
70.592247 19.593733 2.331408 155
70.668411 19.343319 2.329470 155
70.735954 19.090668 2.327385 155
70.818146 18.841579 2.325590 127
39.267696 10.494419 1.726138 20
39.278439 10.194185 1.722684 20
39.356033 9.607742 1.716941 20
41.824558 3.454960 1.692215 21
9.610474 0.994517 1.147867 1
9.585927 0.875617 1.146502 1
9.513479 0.836281 1.145012 1
9.458261 0.677532 1.142869 5
9.437119 0.638296 1.142224 3
9.371873 0.600714 1.140879 3
9.370450 0.561163 1.140556 3
9.360897 0.521947 1.140106 1
9.347213 0.482973 1.139594 1
9.357364 0.442929 1.139462 1
9.339415 0.404258 1.138888 3
9.349395 0.366132 1.138772 3
9.339169 0.327129 1.138325 1
9.324693 0.286469 1.137800 1
9.326294 0.248791 1.137559 1
9.335612 0.208573 1.137427 1
9.322066 0.132315 1.136678 4
9.346761 0.088748 1.136779 1
9.486587 -0.366255 1.136087 1
9.481788 -0.406200 1.135766 1
9.500911 -0.447119 1.135826 1
9.551364 -0.494275 1.136354 1
22.839500 -3.261089 1.334015 6
22.844221 -3.351072 1.333621 6
39.024132 -8.862070 1.564857 33
-36.167763 1.378817 1.602156 12
-36.250244 1.493483 1.604663 13
-36.132408 1.605103 1.603410 12
-36.122040 1.724210 1.604235 12
-36.099258 1.842952 1.604832 12
-36.120041 1.962797 1.606260 12
-36.236336 2.085864 1.609506 13
-56.868801 3.119733 2.003774 44
-56.593288 3.300066 2.000239 43
-56.504524 3.496617 2.000347 43
-56.467453 3.685613 2.001363 43
-56.469662 3.876495 2.003141 43
-56.503147 4.069230 2.005531 43
-56.572449 4.254855 2.008535 43
-78.664391 5.844324 2.435184 63
-117.995796 10.369230 3.210868 63
-175.109375 18.642614 4.354577 63
-170.811035 21.157774 4.300216 63
-163.333832 21.408344 4.164123 63
-171.780045 23.079578 4.338108 63
-19.357098 3.438478 1.308025 2
-19.091152 3.462063 1.303356 2
-18.659096 3.459252 1.295335 2
-18.421461 3.479924 1.291165 2
-17.958168 3.467000 1.282465 2
-17.842766 3.505934 1.280758 2
-17.687811 3.537699 1.278246 2
-17.580175 3.576252 1.276686 2
-17.669624 3.647436 1.279124 2
-17.758764 3.719275 1.281568 2
-17.650671 3.757043 1.280000 2
-17.512264 3.957110 1.279727 2
-17.676880 4.156590 1.285055 2
-17.827148 4.415179 1.290851 2
-18.068369 4.529092 1.296618 2
-17.412518 4.438755 1.283556 2
-17.668858 4.556462 1.289652 2
-17.777742 4.636383 1.292605 2
-17.764908 4.691574 1.293042 2
-17.821253 4.766149 1.294979 2
-17.749659 4.807395 1.294183 2
-17.813906 4.881554 1.296266 2
-31.560482 8.365483 1.589194 9
-31.278442 8.502079 1.585781 8
-32.361481 8.898438 1.610392 10
-31.150394 8.801378 1.587242 8
-30.942207 9.180984 1.588357 8
-31.084038 9.325463 1.592787 8
-31.077793 9.433757 1.594086 8
-23.757868 7.393654 1.435765 5
-23.547552 7.413815 1.432252 5
-23.310558 7.424507 1.428141 5
-23.096708 7.440629 1.424521 4
-22.693083 7.392684 1.416654 4
-22.651510 7.459050 1.416798 4
-22.209391 7.398506 1.408082 4
-22.141184 7.454510 1.407621 4
-22.232609 7.561913 1.410708 4
-22.232332 7.640116 1.411768 4
-22.193802 7.705800 1.411980 4
-22.141079 7.762681 1.411824 4
-21.987362 7.792871 1.409510 4
-22.262266 7.965393 1.416776 4
-22.201235 8.019559 1.416448 4
-21.987904 8.023913 1.412733 4
-22.057428 8.127238 1.415410 4
-22.220572 8.264920 1.420230 4
-22.195042 8.335598 1.420778 4
-22.195545 8.415831 1.421926 4
-22.304468 8.536489 1.425562 4
-22.304201 8.617285 1.426713 4
-22.210127 8.662747 1.425714 4
-22.172005 8.729096 1.426003 4
-114.591782 44.545094 3.563017 63
-114.491371 44.935810 3.566937 63
-144.890808 57.412079 4.279999 63
-125.399353 50.216553 3.834555 63
-143.358185 57.951279 4.261188 63
-143.025055 58.390240 4.261868 63
-101.492401 41.875603 3.295432 63
-99.044441 41.286568 3.244186 63
-98.951073 41.645306 3.247923 63
-98.782516 41.952690 3.249610 63
-98.572685 42.262135 3.250635 63
-98.927322 42.794434 3.264790 63
-90.318489 39.467678 3.065995 63
-90.458672 39.915241 3.075213 63
-89.901390 40.018700 3.067213 63
-107.940315 48.445755 3.505906 63
-89.228683 40.415039 3.061754 63
-88.344963 40.397697 3.046360 63
-88.137802 40.667217 3.046992 63
-87.966354 40.971008 3.048785 63
-87.989136 41.347408 3.055043 63
-88.180222 41.804874 3.065451 63
-87.752029 41.951000 3.060472 63
-90.548325 43.666462 3.134928 63
-83.226685 40.471928 2.960432 63
-90.838371 44.958855 3.160335 63
-78.629433 39.252720 2.863413 63
-76.884422 38.709126 2.825336 63
-76.584152 38.868683 2.822858 63
-76.144814 38.955612 2.816890 63
-75.628479 39.032757 2.809492 63
-75.424248 39.252731 2.809651 63
-75.332680 39.531250 2.812662 63
-75.243584 39.811470 2.815759 63
-74.878311 39.944557 2.811867 63
-74.938995 40.305065 2.818808 63
-74.773155 40.544296 2.820009 63
-86.283356 47.159813 3.120047 63
-76.445137 42.111687 2.873655 63
-76.297600 42.369492 2.875520 63
-76.020134 42.554352 2.874045 63
-75.843224 42.794895 2.875173 63
-75.999420 43.208042 2.884687 63
-82.740425 47.426266 3.066243 63
-74.519882 43.021496 2.857334 63
-74.300156 43.232174 2.857328 63
-74.228035 43.529057 2.861211 63
-77.652336 45.901226 2.957389 63
-14.770346 8.654506 1.299133 2
-14.546982 8.637700 1.295232 2
-14.451995 8.639823 1.293737 2
-14.348273 8.632913 1.291948 2
-14.290946 8.657104 1.291448 2
-14.233602 8.680990 1.290946 2
-14.081568 8.644783 1.287880 2
-13.908367 8.596812 1.284273 2
-13.700713 8.528126 1.279756 1
-77.892036 48.070415 3.518314 54
-73.491043 45.705490 3.377497 59
-89.407074 56.080433 3.924158 63
-89.291351 56.412964 3.928606 63
-72.716721 46.241508 3.372386 60
-13.760185 8.653262 1.364744 2
-13.689859 8.665944 1.363552 2
-13.539478 8.625403 1.359593 1
-13.502753 8.659140 1.359546 1
-13.452644 8.683815 1.359035 1
-13.346154 8.670224 1.356560 1
-13.196909 8.626768 1.352579 1
-13.120687 8.632061 1.351133 1
-13.052485 8.639522 1.349901 1
-13.012570 8.669069 1.349723 1
-12.812080 8.586084 1.343865 1
-12.778954 8.619311 1.343911 1
-12.657721 8.589877 1.340823 1
-12.624614 8.622519 1.340864 1
-12.578437 8.645669 1.340439 1
-12.382730 8.615733 1.335860 2
-12.349602 8.647326 1.335893 1
-12.387005 8.731213 1.338488 1
-12.398333 8.796298 1.340152 1
-12.332687 8.803819 1.339017 1
-12.411833 8.917912 1.343120 1
-12.384086 8.954347 1.343385 1
-12.334031 8.973617 1.342831 1
-12.321891 9.022028 1.343678 1
-12.300083 9.063070 1.344174 1
-12.375546 9.180676 1.348302 1
-12.362553 9.229396 1.349151 1
-12.327467 9.260671 1.349179 1
-12.432548 9.404495 1.354488 1
-12.390669 9.430940 1.354282 1
-12.317740 9.431934 1.352898 1
-12.334556 9.506091 1.354923 1
-12.398708 9.616859 1.358702 1
-12.424003 9.761443 1.362524 2
-12.475800 9.867555 1.365970 2
-17.442909 14.247100 1.562066 15
-18.389694 15.157485 1.601213 10
-18.388424 15.256696 1.603514 7
-17.564400 14.632147 1.573376 4
-17.531673 14.699744 1.574356 7
-17.441515 14.813448 1.575364 11
-51.353134 45.716885 2.938119 50
-60.804096 54.650078 3.325565 63
-59.826214 54.879143 3.313128 62
-46.997459 43.821602 2.812935 46
-17.235365 15.619106 1.590934 2
-47.096241 44.504574 2.831314 47
-47.234692 44.959408 2.844892 47
-48.446594 46.436939 2.902694 49
-54.999710 53.225132 3.185905 58
-47.881626 46.531933 2.894967 49
-47.860462 46.813908 2.901535 49
-53.906200 53.212940 3.166229 57
-47.143162 46.732166 2.886867 48
-53.156670 53.183289 3.152322 57
-43.433029 43.566696 2.743304 42
-43.333271 43.747093 2.746058 43
-43.957294 44.711578 2.780974 45
-44.074821 45.141434 2.793763 45
-44.077122 45.453632 2.801631 45
-43.562256 45.202873 2.786476 45
-43.656025 45.613667 2.798428 45
-44.353687 46.663044 2.836829 46
-49.449974 52.531200 3.072001 54
-49.142868 52.558022 3.067472 54
-48.955418 52.696453 3.067820 54
-48.731724 52.812695 3.067012 53
-48.564903 52.973469 3.068313 53
-48.358059 53.126019 3.068753 53
-47.969223 53.053978 3.060429 53
-47.573002 53.337746 3.061156 100
-47.559986 53.693180 3.070104 100
-47.344418 53.815643 3.069729 53
-47.027355 53.818619 3.064620 53
-39.717972 45.548923 2.731017 40
-46.396339 53.802933 3.053949 53
-39.667347 46.124409 2.745168 41
-45.773735 53.807232 3.044011 52
-44.826481 53.034019 3.008595 51
-44.454666 52.951218 3.000482 51
-36.805317 43.887367 2.640780 31
-36.632732 43.980732 2.640497 31
-36.499905 44.123352 2.642156 31
-36.364017 44.262436 2.643690 31
-42.286892 52.077202 2.943205 49
-35.903156 44.300171 2.637480 31
-36.129837 44.904331 2.657044 32
-36.572685 45.795357 2.687600 35
-36.426846 45.897537 2.688074 35
-41.509384 52.912659 2.953389 49
-41.171692 52.862717 2.946891 49
-40.903938 52.884155 2.943389 49
-6.982053 7.728500 1.217016 0
-6.926409 7.705074 1.215547 0
-6.886369 7.699810 1.214803 0
-6.858191 7.705564 1.214537 0
-6.824161 7.710516 1.214164 0
-6.789001 7.711220 1.213661 0
-6.712110 7.653169 1.210951 0
-6.677265 7.653401 1.210445 0
-6.647074 7.660014 1.210183 0
-6.577624 7.659702 1.209165 1
-6.560005 7.681568 1.209509 0
-6.565907 7.740518 1.211209 0
-6.508681 7.706899 1.209468 0
-6.418293 7.623188 1.205879 0
-6.417292 7.671971 1.207209 0
-6.371863 7.654152 1.206076 0
-6.348568 7.669512 1.206174 0
-6.348231 7.717516 1.207498 0
-6.296471 7.689162 1.205992 0
