# .PCD v.7 - Point Cloud Data file format
VERSION .7
FIELDS x y z intensity
SIZE 4 4 4 1
TYPE F F F U
COUNT 1 1 1 1
WIDTH 1483
HEIGHT 1
VIEWPOINT 0 0 0 1 0 0 0
POINTS 1483
DATA ascii
-75.288971 -28.421560 0.868377 62
-74.911476 -27.990713 0.869909 61
-77.559517 -28.670795 0.868565 63
-68.824387 -25.210039 0.877884 56
-62.303062 -22.611578 0.884900 50
-64.210403 -23.074259 0.884042 52
-64.283234 -22.855648 0.884957 52
-64.215462 -22.588320 0.885995 52
-65.081207 -22.642088 0.886232 52
-63.447731 -21.842783 0.888586 51
-64.714790 -22.028385 0.888504 52
-64.058662 -21.567944 0.890009 51
-27.364464 -9.320173 0.919962 6
-27.343805 -9.215586 0.920371 6
-27.353209 -9.120982 0.920755 6
-27.095247 -8.942123 0.921338 6
-27.096018 -8.846141 0.921724 6
-27.149942 -8.766735 0.922071 6
-27.081160 -8.649796 0.922504 6
-27.103809 -8.561049 0.922873 6
-27.302549 -8.524558 0.923123 6
-27.259491 -8.415959 0.923536 6
-27.569517 -8.409927 0.923723 6
-27.745173 -8.363419 0.924002 6
-70.371346 -20.264065 0.898548 56
-85.249596 -24.138445 0.890786 63
-67.988701 -19.097223 0.901985 54
-69.043816 -19.134916 0.902386 55
-68.982956 -18.867825 0.903426 55
-74.484261 -20.062937 0.901509 59
-72.145630 -19.187023 0.903801 57
-21.796282 -6.077051 0.930065 3
-21.790539 -6.002059 0.930363 3
-21.602045 -5.881912 0.930747 2
-21.451811 -5.772635 0.931107 2
-21.635509 -5.744947 0.931314 2
-21.457272 -5.630267 0.931681 2
-23.304096 -5.989384 0.931206 3
-23.439129 -5.938099 0.931483 4
-21.505251 -5.422859 0.932539 2
-21.438498 -5.336537 0.932850 2
-21.511322 -5.284866 0.933096 2
-21.549553 -5.221776 0.933369 2
-21.368422 -5.112168 0.933714 2
-21.382587 -5.044535 0.933993 2
-21.470984 -4.992044 0.934250 2
-21.892624 -5.005781 0.934416 3
-21.619907 -4.879953 0.934778 2
-21.558640 -4.797033 0.935079 2
-21.752487 -4.762996 0.935317 2
-21.817842 -4.696610 0.935618 2
-22.006376 -4.666610 0.935837 3
-22.593880 -4.699469 0.936013 3
-23.469475 -4.778624 0.936153 3
-93.047173 -16.632114 0.925001 63
-96.600143 -16.901632 0.925780 63
-169.854324 -12.581156 0.981479 63
-167.961777 -11.868882 0.983348 63
-168.533615 -11.322603 0.985840 63
-167.266815 -8.929708 0.994782 63
-167.493225 -8.361640 0.997181 63
-167.318008 -7.775754 0.999442 63
-169.432129 -6.344504 1.979914 63
11.275407 0.741581 1.017954 0
11.146301 0.680107 1.016985 0
11.291060 0.651679 1.017608 0
10.959333 0.564024 1.015454 0
10.937248 0.513220 1.015099 0
11.029683 0.480377 1.015430 0
10.931737 0.421094 1.014639 0
10.948620 0.377232 1.014524 0
10.941249 0.333038 1.014281 0
10.945893 0.287857 1.014097 0
10.962104 0.246087 1.013990 0
10.902940 0.192582 1.013435 0
10.906891 0.149788 1.013261 0
10.923047 0.103514 1.013136 0
10.978243 0.019357 1.013049 34
10.941911 -0.029005 1.012641 35
10.945292 -0.074186 1.012458 35
10.944526 -0.119656 1.012252 35
10.939608 -0.165374 1.012025 48
10.958340 -0.207286 1.011940 35
10.956972 -0.250498 1.011744 32
10.955712 -0.298215 1.011530 30
10.966143 -0.343026 1.011391 27
10.968318 -0.386026 1.011217 23
10.974551 -0.433380 1.011047 16
10.963995 -0.569833 1.010412 0
10.977411 -0.612449 1.010303 0
10.994686 -0.655036 1.010216 0
10.991883 -0.700496 1.010012 0
11.021008 -0.749802 1.009962 0
11.021873 -0.795255 1.009779 0
11.090541 -0.837490 1.009969 0
11.083099 -0.883268 1.009742 0
11.115497 -0.928715 1.009729 0
11.087729 -0.972309 1.009406 0
11.107817 -1.020278 1.009319 0
53.773861 -1.410561 1.233397 50
53.720268 -1.594973 1.232382 50
53.718056 -1.779743 1.231642 50
53.929676 -2.573659 1.229669 50
54.067844 -2.773379 1.229632 51
54.013752 -2.957636 1.228642 51
71.942589 -4.107722 1.319020 63
71.507439 -4.848153 1.313951 63
65.011719 -4.744457 1.280037 63
61.478424 -5.426748 1.258899 63
59.284454 -5.704558 1.246333 63
59.934464 -5.960878 1.248846 63
59.876083 -6.184516 1.247746 63
55.614162 -6.426733 1.224455 56
53.819851 -6.848633 1.213565 51
57.204464 -7.400588 1.229478 62
51.160130 -6.927572 1.199321 43
50.284798 -7.015131 1.194429 40
49.518608 -7.127782 1.190031 38
48.966019 -7.233721 1.186780 36
48.206917 -7.310206 1.182546 34
47.714294 -7.442464 1.179530 32
47.244652 -7.547889 1.176726 31
46.866020 -7.662662 1.174371 30
11.263108 -3.011915 1.003009 8
11.122008 -3.035242 1.002199 12
10.956481 -3.058455 1.001263 7
10.732084 -3.068719 1.000060 6
10.523563 -3.080038 0.998938 7
10.334844 -3.093242 0.997915 7
10.142609 -3.102357 0.996886 7
9.965846 -3.115066 0.995928 13
9.820276 -3.134259 0.995114 13
9.659732 -3.145468 0.994246 10
9.471344 -3.152526 0.993247 6
9.239820 -3.150102 0.992053 6
9.012383 -3.146846 0.990883 15
8.914999 -3.165608 0.990324 26
8.758403 -3.173856 0.989490 14
8.636780 -3.190085 0.988814 23
8.570778 -3.213157 0.988407 36
8.488698 -3.234343 0.987923 43
8.441797 -3.262542 0.987602 54
8.398340 -3.293110 0.987293 63
8.359105 -3.322450 0.987010 75
8.343610 -3.355027 0.986841 76
8.331498 -3.390224 0.986682 78
8.319267 -3.425365 0.986525 81
8.315127 -3.460492 0.986409 81
8.295310 -3.491883 0.986224 80
8.294392 -3.529700 0.986119 78
8.289452 -3.566579 0.985997 78
8.284380 -3.603455 0.985874 77
8.279176 -3.640326 0.985752 77
8.273840 -3.677192 0.985630 77
8.272241 -3.715068 0.985526 78
8.270502 -3.752965 0.985421 76
8.268624 -3.790883 0.985316 78
8.270465 -3.829877 0.985228 77
8.264449 -3.866779 0.985107 76
8.270357 -3.905128 0.985043 76
8.271766 -3.944246 0.984955 76
8.276869 -3.984518 0.984883 76
8.281816 -4.024861 0.984812 75
8.275101 -4.061868 0.984690 76
8.275915 -4.101162 0.984602 76
8.277124 -4.138705 0.984520 75
8.281470 -4.179259 0.984448 75
8.288919 -4.222866 0.984385 76
8.285872 -4.259370 0.984287 75
8.293558 -4.301329 0.984231 75
8.304883 -4.344609 0.984190 75
8.312228 -4.386766 0.984133 75
8.327001 -4.431524 0.984109 73
8.333998 -4.473891 0.984051 75
8.348404 -4.518910 0.984026 73
8.358837 -4.562778 0.983984 73
8.365309 -4.605453 0.983925 73
8.379160 -4.650857 0.983899 79
8.389050 -4.695069 0.983855 78
8.417587 -4.746129 0.983891 78
8.442134 -4.796072 0.983910 65
8.481485 -4.851727 0.983992 41
111.860405 -44.888710 1.413457 63
111.304268 -45.106491 1.410316 63
111.831299 -45.746742 1.411678 63
21.864765 -10.502914 1.038688 3
21.747805 -10.547744 1.038035 3
21.716080 -10.626441 1.037736 3
21.197817 -10.520361 1.035411 3
21.047897 -10.548332 1.034633 3
20.842676 -10.552307 1.033632 3
20.682270 -10.583130 1.032802 3
20.466404 -10.579985 1.031765 3
20.284222 -10.599076 1.030854 3
20.089201 -10.606735 1.029902 3
19.910730 -10.615746 1.029030 3
19.732445 -10.623680 1.028161 3
19.569256 -10.646212 1.027343 6
19.453329 -10.679912 1.026733 9
19.228437 -10.672383 1.025672 6
18.645664 -10.494505 1.023181 30
18.541536 -10.529308 1.022631 11
18.555330 -10.622963 1.022550 8
18.391436 -10.633250 1.021758 27
18.332706 -10.701159 1.021376 7
18.203136 -10.721779 1.020734 5
18.050360 -10.734685 1.019995 5
17.971313 -10.778293 1.019559 13
17.817030 -10.793041 1.018813 5
17.677067 -10.805269 1.018140 5
17.537243 -10.816678 1.017470 5
17.401272 -10.837650 1.016806 4
17.268847 -10.851032 1.016171 4
17.136665 -10.872154 1.015527 4
16.986731 -10.874750 1.014828 2
16.860079 -10.892734 1.014218 2
16.715847 -10.900616 1.013541 2
16.592976 -10.918891 1.012951 2
16.057877 -10.715055 1.010748 2
16.085432 -10.807247 1.010759 2
15.864258 -10.853469 1.009689 14
15.849040 -10.922357 1.009537 18
15.842295 -11.000222 1.009414 12
15.789929 -11.052618 1.009115 12
15.789575 -11.134424 1.009019 22
15.768043 -11.204416 1.008842 8
15.732385 -11.266376 1.008612 6
13.974270 -11.240191 1.000827 1
13.817115 -11.292043 1.000097 13
13.787858 -11.351572 0.999920 8
12.940901 -11.022334 0.996524 11
12.824739 -11.015919 0.996029 9
12.772863 -11.127888 0.995723 1
12.900363 -11.295506 0.996146 12
12.847980 -11.336043 0.995894 3
12.851205 -11.415334 0.995853 27
12.765795 -11.432533 0.995480 6
12.165229 -11.083242 0.993175 4
12.237357 -11.209449 0.993398 4
12.018524 -11.123298 0.992533 47
11.924910 -11.129869 0.992137 20
11.857249 -11.154800 0.991840 17
11.973145 -11.314620 0.992231 11
11.823283 -11.275103 0.991631 12
11.740752 -11.292168 0.991280 12
11.805682 -11.412251 0.991485 15
11.783436 -11.474868 0.991361 17
11.758228 -11.527801 0.991232 2
11.813408 -11.646491 0.991400 1
10.534574 -11.301599 0.986387 1
10.354871 -11.299313 0.985677 30
10.263728 -11.296134 0.985319 15
10.096335 -11.227951 0.984680 25
10.187402 -11.374191 0.984999 18
10.219875 -11.471747 0.985102 42
10.125735 -11.464738 0.984737 5
10.051120 -11.477652 0.984446 2
9.835633 -11.359658 0.983637 3
9.940619 -11.525089 0.984011 3
9.675973 -11.437759 0.983012 19
9.718734 -11.545917 0.983160 23
9.605927 -11.521702 0.982735 14
9.548503 -11.543290 0.982516 6
9.407429 -11.484187 0.981990 4
9.391400 -11.542941 0.981925 11
9.316527 -11.547223 0.981645 7
9.229272 -11.616950 0.981318 3
9.080970 -11.546685 0.980771 11
8.795000 -11.492249 0.979721 6
8.658236 -11.432035 0.979221 4
8.754842 -11.596335 0.979580 27
8.605180 -11.525894 0.979034 35
8.575949 -11.566653 0.978933 41
8.454396 -11.518475 0.978492 27
8.383936 -11.520773 0.978241 22
8.300547 -11.513089 0.977943 10
8.234976 -11.515688 0.977712 7
8.150972 -11.502501 0.977413 6
8.092140 -11.514805 0.977209 4
8.123595 -11.617630 0.977338 34
7.944241 -11.572759 0.976705 25
7.959273 -11.662899 0.976777 6
7.985535 -11.769666 0.976892 4
7.914570 -11.764503 0.976648 18
7.826491 -11.747677 0.976343 17
7.728947 -11.712157 0.976002 31
7.707656 -11.763860 0.975945 10
7.638039 -11.761952 0.975711 7
6.242113 -11.676518 0.971205 19
6.258461 -11.775020 0.971312 8
6.165093 -11.730618 0.971005 78
6.038342 -11.641042 0.970571 32
5.977192 -11.637056 0.970386 28
5.901275 -11.608952 0.970143 42
5.876170 -11.652538 0.970098 28
5.805832 -11.634851 0.969880 33
5.773449 -11.668495 0.969809 32
5.729191 -11.685848 0.969692 39
5.677899 -11.693280 0.969550 35
5.563888 -11.612592 0.969166 25
5.563877 -11.691144 0.969223 28
5.551901 -11.753467 0.969235 15
5.461713 -11.704335 0.968945 21
5.412979 -11.713880 0.968816 24
5.393744 -11.766053 0.968802 18
5.347166 -11.778584 0.968683 13
5.296102 -11.784297 0.968548 14
5.244734 -11.785203 0.968408 14
5.195662 -11.789213 0.968278 14
5.138463 -11.788841 0.968124 17
5.089839 -11.796985 0.968000 18
5.034377 -11.790296 0.967847 18
4.979630 -11.792506 0.967704 21
4.930886 -11.795407 0.967578 19
4.871983 -11.790389 0.967420 20
4.825787 -11.800793 0.967310 21
4.777474 -11.807618 0.967191 21
4.728964 -11.809669 0.967069 23
4.678632 -11.812683 0.966944 23
4.626268 -11.812069 0.966811 21
4.570026 -11.808951 0.966667 27
4.521798 -11.810140 0.966548 21
4.434538 -11.745955 0.966270 31
4.429951 -11.827906 0.966339 40
4.373738 -11.814724 0.966188 40
4.322005 -11.817302 0.966066 29
4.225876 -11.734451 0.965751 48
4.200543 -11.781459 0.965738 50
4.150926 -11.777654 0.965617 46
4.121231 -11.812977 0.965584 39
4.081559 -11.830791 0.965510 36
4.022281 -11.808987 0.965349 47
3.992381 -11.848486 0.965323 26
3.917937 -11.798173 0.965099 34
3.866889 -11.794173 0.964979 21
3.840648 -11.835705 0.964965 28
3.774540 -11.807668 0.964787 21
3.734974 -11.824225 0.964718 25
3.699115 -11.843184 0.964661 27
3.640902 -11.828538 0.964517 29
3.608654 -11.858820 0.964482 23
3.569028 -11.870242 0.964411 23
3.525678 -11.878920 0.964329 21
3.477023 -11.872187 0.964219 29
3.433740 -11.880507 0.964138 22
3.392243 -11.892241 0.964066 21
3.343538 -11.893982 0.963969 28
3.296937 -11.890067 0.963869 29
3.252003 -11.894083 0.963784 32
3.205378 -11.894310 0.963691 34
3.162246 -11.901571 0.963615 33
3.115722 -11.901425 0.963523 34
3.070951 -11.904713 0.963441 32
3.019514 -11.893293 0.963327 30
2.979865 -11.907111 0.963269 34
2.936879 -11.913498 0.963197 30
2.893909 -11.919717 0.963124 27
2.854485 -11.928576 0.963063 27
2.806697 -11.923494 0.962969 25
2.763806 -11.929209 0.962899 25
2.720934 -11.934757 0.962829 23
2.678411 -11.935646 0.962755 22
2.630561 -11.934308 0.962669 21
2.584688 -11.931967 0.962586 17
2.543498 -11.940517 0.962527 17
2.497733 -11.937819 0.962445 16
2.456574 -11.946044 0.962388 14
2.415413 -11.954116 0.962330 11
2.374675 -11.957556 0.962268 9
2.332488 -11.957127 0.962199 7
2.288444 -11.957288 0.962128 6
2.250240 -11.972190 0.962088 4
2.207204 -11.980226 0.962032 3
2.163731 -11.975422 0.961958 2
2.121240 -11.978657 0.961897 1
2.078259 -11.986190 0.961843 0
2.033050 -11.981589 0.961769 0
1.938813 -11.960551 0.961601 8
1.945470 -12.094129 0.961805 73
1.892169 -12.066334 0.961689 24
1.857535 -12.091185 0.961677 26
1.796033 -12.032065 0.961505 20
1.763385 -12.068623 0.961514 40
1.728625 -12.093064 0.961504 23
1.642482 -12.092227 0.961390 26
1.584023 -12.044009 0.961242 25
1.889669 -13.424431 0.963724 30
1.869828 -13.506034 0.963825 77
1.782901 -13.377948 0.963525 35
1.739741 -13.391078 0.963495 27
1.701112 -13.419388 0.963494 14
1.691532 -13.701612 0.963924 29
1.599748 -13.549109 0.963585 42
1.536351 -13.492328 0.963427 14
1.424899 -13.261915 0.962946 2
1.466157 -13.586721 0.963504 7
1.409669 -13.552428 0.963392 1
1.438628 -13.826361 0.963858 0
1.211635 -13.501403 0.963119 0
1.016627 -12.915439 0.961993 0
-0.127619 -12.257057 0.960121 0
-0.209194 -12.237942 0.960054 2
-0.244661 -12.267838 0.960092 0
1.757520 -56.420631 1.038366 49
1.538698 -56.038227 1.037714 48
1.336432 -55.882557 1.037468 47
1.144222 -55.881886 1.037502 47
0.919388 -55.273426 1.036458 45
0.610518 -56.786846 1.039240 50
0.208663 -56.007572 1.037952 48
0.024479 -56.226807 1.038400 48
-1.715481 -11.884257 0.959403 9
-1.752058 -11.861148 0.959376 3
-1.789746 -11.869946 0.959407 6
-1.864753 -11.931145 0.959549 1
-1.902484 -11.971548 0.959639 3
-1.940690 -11.975821 0.959665 6
-1.978602 -12.147962 0.959994 1
-2.021691 -14.855961 0.964884 11
-2.068995 -14.659803 0.964557 15
-2.116230 -14.615481 0.964504 1
-2.134984 -12.231169 0.960230 3
-2.241368 -13.825705 0.963160 2
-2.286756 -12.120278 0.960127 10
-2.325500 -12.119210 0.960151 27
-2.363060 -12.082026 0.960111 11
-2.404768 -12.112599 0.960196 7
-2.443965 -12.123109 0.960244 4
-2.524392 -12.223716 0.960487 52
-2.616349 -13.272487 0.962439 16
-2.756794 -14.226312 0.964263 10
-2.746804 -13.301294 0.962601 17
-2.830088 -13.259864 0.962602 20
-2.863416 -13.125226 0.962392 11
-2.904173 -13.102195 0.962390 12
-2.955714 -13.218598 0.962647 30
-2.996983 -13.199241 0.962653 7
-3.045175 -13.287536 0.962859 9
-3.162572 -14.124509 0.964466 59
-3.162008 -13.594401 0.963525 47
-3.198636 -13.514616 0.963422 24
-3.243619 -13.546396 0.963528 17
-3.376104 -14.405426 0.965193 17
-3.333998 -13.565252 0.963662 12
-3.490921 -14.590321 0.965650 8
-3.640592 -15.487249 0.967406 23
-3.494563 -13.800889 0.964265 12
-3.731024 -15.388076 0.967340 4
-3.651094 -13.963090 0.964742 11
-3.688463 -13.897757 0.964675 20
-3.731158 -13.892087 0.964720 34
-3.767277 -13.838725 0.964674 22
-3.791847 -13.689898 0.964448 13
-3.828503 -13.615951 0.964368 42
-3.886131 -13.716645 0.964622 40
-3.867274 -13.294762 0.963865 46
-3.925803 -13.374785 0.964086 24
-4.275051 -15.303930 0.967916 8
-4.068003 -13.704504 0.964859 39
-4.079188 -13.512128 0.964544 13
-4.240444 -13.910727 0.965470 3
-4.450699 -14.848495 0.967395 0
-4.503503 -14.851228 0.967481 20
-4.543551 -14.811380 0.967476 16
-4.307818 -13.292877 0.964521 6
-4.398755 -13.523966 0.965059 7
-4.505632 -12.951726 0.964274 0
-4.575279 -12.871403 0.964261 7
-4.589015 -12.737355 0.964062 7
-4.584059 -12.533561 0.963715 4
-4.944891 -13.940619 0.966695 2
-4.762239 -12.751162 0.964400 1
-5.064163 -12.758641 0.964993 12
-23.883942 -63.095314 1.084814 63
-24.095184 -62.969479 1.085151 63
-24.376421 -63.072590 1.086000 63
-24.657381 -63.204750 1.086895 63
-24.321318 -61.623886 1.083766 63
-24.894176 -62.516502 1.086504 63
-24.770622 -61.537712 1.084789 63
-25.401127 -62.560806 1.087870 63
-25.512497 -62.209911 1.087664 63
-26.113943 -63.126781 1.090528 63
-25.840841 -61.825016 1.087986 63
-26.155722 -62.031994 1.089110 63
-30.620356 -63.505089 1.103598 63
-30.438160 -62.567421 1.101873 63
-30.526041 -62.195885 1.101667 63
-30.721104 -62.029396 1.102042 63
-30.997032 -62.089195 1.102946 63
-31.239681 -62.022182 1.103598 63
-31.372326 -61.754101 1.103674 63
-31.492933 -61.464268 1.103692 63
-31.608343 -61.167160 1.103689 63
-32.246922 -61.953609 1.106609 63
-32.413006 -61.781433 1.106922 63
-32.853554 -62.074764 1.108649 63
-33.133694 -62.098553 1.109560 63
-33.055897 -61.423885 1.108531 63
-33.309414 -61.423553 1.109340 63
-33.555855 -61.408024 1.110112 63
-33.684399 -61.141808 1.110225 63
-40.958008 -62.433327 1.136561 63
-41.217445 -62.391438 1.137469 63
-41.431282 -62.230473 1.138111 63
-41.729641 -62.223309 1.139203 63
-41.814167 -61.910442 1.139247 63
-10.077706 -9.165918 0.978204 0
-10.197928 -9.232508 0.978767 0
-10.175501 -9.153063 0.978656 0
-10.373132 -9.294604 0.979586 0
-10.361995 -9.226103 0.979530 0
-10.215844 -9.026571 0.978836 0
-10.814105 -8.973250 0.981688 0
-11.182860 -9.245131 0.983440 0
-11.177213 -9.185387 0.983421 0
-11.198083 -9.143752 0.983530 0
-11.076019 -8.979725 0.982962 0
-11.177764 -9.015270 0.983453 0
-11.002930 -8.807854 0.982637 0
-11.157498 -8.885845 0.983381 0
-9.968736 -7.814160 0.977762 0
-10.178627 -7.943959 0.978769 0
-10.195419 -7.911651 0.978861 0
-10.253200 -7.911202 0.979148 0
-10.296879 -7.896221 0.979371 0
-10.341252 -7.886466 0.979596 0
-10.568354 -8.025875 0.980690 0
-10.978303 -8.257077 0.982673 2
-11.006632 -8.228192 0.982827 1
-11.061179 -8.217525 0.983108 0
-11.147181 -8.231318 0.983539 0
-11.068352 -8.117985 0.983185 0
-11.039379 -8.044562 0.983070 0
-11.127183 -8.061833 0.983511 0
-10.923073 -7.854805 0.982562 0
-11.211143 -8.024576 0.983961 0
-11.218360 -7.981940 0.984019 0
-11.254195 -7.960933 0.984215 0
-11.307240 -7.950087 0.984496 0
-11.483777 -8.027651 0.985370 0
-11.411421 -7.923529 0.985052 0
-11.435461 -7.890635 0.985197 0
-11.459385 -7.857657 0.985342 0
-11.321867 -7.706373 0.984715 0
-11.589531 -7.847794 0.986031 0
-11.919132 -8.033020 0.987645 0
-11.939059 -7.997791 0.987774 0
-12.043337 -8.016188 0.988312 0
-12.158593 -8.046556 0.988902 0
-12.232522 -8.045013 0.989295 0
-12.307789 -8.041240 0.989699 0
-42.303532 -28.063128 1.134634 28
-42.900406 -28.257061 1.137678 30
-42.573418 -27.845526 1.136253 29
-43.198803 -27.847553 1.139618 30
-43.462528 -27.608944 1.141248 30
-43.380821 -27.343014 1.141041 30
-44.263950 -27.698019 1.145518 32
-39.716038 -24.643564 1.123572 20
-39.739815 -24.484573 1.123851 20
-39.685318 -24.268688 1.123759 19
-39.817410 -24.168325 1.124580 20
-40.788403 -24.217030 1.129868 21
-40.966053 -24.129799 1.130939 22
-40.608246 -23.554752 1.129573 20
-40.613976 -23.377758 1.129798 20
-40.625473 -23.213717 1.130044 40
-40.615826 -23.029238 1.130198 40
-41.242577 -23.205338 1.133493 21
-44.174324 -24.659210 1.148185 28
-41.424789 -22.937565 1.134826 21
-41.581619 -22.844234 1.135817 21
-41.743557 -22.573095 1.137060 43
-41.677429 -22.367271 1.136945 21
-46.421295 -24.710043 1.160758 33
-42.981888 -22.692398 1.143902 24
-43.050201 -22.545498 1.144481 24
-45.964237 -23.878229 1.159255 31
-47.098190 -24.079222 1.165435 34
-43.489349 -22.051619 1.147646 24
-46.528961 -23.397417 1.163131 31
-46.248768 -23.063486 1.162000 30
-28.248476 -12.977261 1.073384 4
-28.244234 -12.870399 1.073532 24
-65.873734 -26.182150 1.271439 63
-65.581047 -25.810823 1.270405 63
-65.838852 -25.654978 1.272235 63
-65.513405 -25.275019 1.271033 63
-65.350723 -24.959846 1.270679 63
-77.497993 -29.249451 1.334677 63
-77.198410 -28.838634 1.333705 63
-68.343788 -25.300053 1.287874 63
-65.287628 -23.931398 1.272356 63
-65.845474 -23.881598 1.275801 63
-65.253731 -23.420916 1.273202 63
-64.402855 -22.874741 1.269230 63
-66.330818 -23.298162 1.279931 63
-64.674995 -22.480022 1.271701 63
-69.735527 -23.948915 1.299048 63
-65.483292 -22.262808 1.277041 63
-65.435532 -22.000889 1.277324 63
-63.759460 -21.207653 1.268937 63
-64.895309 -21.336210 1.275525 63
-64.904869 -21.097082 1.276118 63
-65.085190 -20.912268 1.277628 63
-65.085503 -20.670527 1.278180 63
-67.604607 -21.216791 1.292231 63
-67.387680 -20.900400 1.291644 63
-67.422188 -20.661682 1.292412 63
-67.160538 -20.335432 1.291585 63
-67.312019 -20.132578 1.292990 63
-67.370644 -19.902262 1.293899 63
-71.475182 -20.825373 1.316752 63
-67.438614 -19.415600 1.295493 63
-67.305847 -19.132545 1.295374 63
-67.877945 -19.043812 1.299098 63
-69.335251 -19.202736 1.307639 63
-69.185722 -18.910973 1.307453 63
-69.127823 -18.644854 1.307771 63
-72.244202 -19.201221 1.325511 63
-73.187042 -19.180359 1.331366 63
-22.109978 -6.075511 1.050752 2
-21.994574 -5.824462 1.050700 2
-21.941980 -5.734581 1.050615 2
-21.961397 -5.669333 1.050910 2
-21.926819 -5.588008 1.050916 2
-21.907524 -5.510502 1.051008 2
-22.059750 -5.471313 1.052059 2
-21.950109 -5.373972 1.051648 2
-21.953451 -5.301790 1.051870 2
-21.933050 -5.224683 1.051960 2
-21.959354 -5.157514 1.052313 2
-21.981512 -5.089415 1.052644 2
-21.972061 -5.014935 1.052799 2
-21.985882 -4.945195 1.053086 2
-21.991604 -4.873893 1.053329 1
-22.020655 -4.807060 1.053705 2
-22.289383 -4.784584 1.055447 2
-22.900570 -4.822567 1.059148 2
-23.232677 -4.806469 1.061270 2
-93.024597 -16.941349 1.460820 63
-95.744743 -17.080103 1.477403 63
-96.372223 -16.848715 1.482031 63
-169.879532 -13.146332 1.957493 63
-170.220123 -12.580821 1.961685 63
-168.100067 -11.852725 1.950921 63
-167.438538 -10.621236 1.951240 63
-167.868851 -10.094422 1.955905 63
-168.298981 -9.535835 1.960698 63
-167.754944 -8.348157 1.961693 63
10.889801 0.356924 1.089694 1
10.810981 0.303293 1.088543 1
10.874999 0.266770 1.089061 1
10.887377 0.222588 1.088970 1
10.895620 0.177966 1.088833 1
10.883790 0.131521 1.088467 1
10.871793 0.085173 1.088101 1
10.895506 0.041877 1.088147 1
10.891161 -0.003771 1.087873 1
10.890643 -0.049076 1.087645 1
10.905925 -0.093218 1.087600 1
10.913074 -0.138001 1.087463 1
10.924058 -0.182563 1.087371 1
10.934890 -0.227192 1.087279 2
10.921477 -0.271015 1.086924 2
10.932002 -0.315688 1.086833 1
10.938264 -0.358371 1.086705 1
10.932506 -0.403918 1.086432 1
10.958654 -0.450268 1.086511 1
10.944580 -0.496152 1.086148 1
10.970314 -0.540453 1.086236 1
10.955921 -0.586265 1.085874 1
10.973350 -0.631012 1.085871 1
10.986626 -0.675982 1.085823 1
11.011689 -0.718492 1.085919 1
11.012709 -0.766184 1.085727 1
11.025442 -0.806869 1.085697 1
11.054133 -0.854255 1.085817 1
11.054635 -0.899822 1.085634 1
11.058976 -0.945369 1.085496 1
11.107156 -0.990846 1.085847 1
11.339166 -1.036892 1.088241 1
11.283031 -1.083187 1.087433 1
53.802673 -1.480246 1.558605 22
53.760853 -1.664827 1.557420 22
53.799179 -2.045164 1.556386 12
53.787273 -2.239756 1.555518 9
53.830418 -2.445441 1.555228 92
53.956352 -3.035181 1.554471 23
54.060894 -3.234911 1.554918 23
53.559429 -6.891357 1.537756 23
51.595829 -7.252010 1.515078 19
49.634941 -7.572711 1.492606 16
48.027172 -7.714984 1.474530 13
48.043133 -7.895012 1.474265 13
48.058441 -8.075233 1.473999 13
47.206158 -8.130369 1.464492 12
45.641911 -8.074190 1.447423 12
11.508820 -3.068422 1.083769 1
11.303966 -3.084890 1.081482 3
11.111015 -3.101836 1.079326 4
10.942165 -3.119048 1.077436 3
10.705898 -3.126272 1.074830 2
10.517433 -3.137702 1.072741 3
10.320409 -3.150847 1.070557 3
10.155342 -3.166023 1.068719 4
9.966704 -3.175819 1.066637 8
9.813931 -3.188768 1.064942 5
9.636856 -3.200379 1.062986 4
9.468097 -3.210222 1.061126 1
9.244827 -3.206254 1.058697 2
9.080186 -3.214409 1.056888 3
8.915627 -3.221443 1.055084 7
8.762909 -3.229768 1.053407 7
8.665081 -3.248507 1.052312 14
8.551997 -3.261422 1.051062 16
8.497195 -3.288104 1.050425 25
8.422804 -3.310139 1.049584 34
8.391326 -3.341275 1.049196 21
8.371460 -3.374876 1.048932 4
8.363178 -3.411065 1.048791 9
8.335299 -3.442660 1.048446 5
8.346236 -3.483353 1.048510 20
8.306475 -3.511933 1.048043 23
8.321464 -3.551814 1.048155 52
8.293605 -3.581198 1.047819 53
8.288028 -3.619888 1.047713 52
8.275018 -3.654790 1.047533 53
8.266225 -3.688848 1.047401 50
8.268923 -3.725935 1.047390 48
8.266666 -3.765620 1.047325 49
8.260396 -3.804278 1.047220 49
8.258329 -3.842198 1.047162 48
8.252769 -3.877274 1.047070 50
8.253776 -3.918096 1.047046 51
8.251289 -3.956073 1.046988 45
8.249181 -3.992279 1.046937 52
8.250257 -4.031419 1.046919 45
8.255019 -4.071743 1.046940 49
8.259624 -4.112138 1.046962 44
8.264072 -4.152601 1.046984 50
8.265095 -4.190161 1.046972 45
8.269238 -4.230748 1.046993 49
8.265596 -4.268988 1.046935 38
8.277049 -4.312122 1.047035 49
8.288325 -4.355377 1.047135 41
8.288612 -4.393213 1.047122 26
8.332465 -4.489668 1.047551 49
8.313329 -4.521340 1.047340 46
8.327527 -4.566412 1.047478 45
8.345313 -4.612938 1.047654 48
8.359127 -4.658306 1.047791 45
8.365853 -4.699327 1.047855 46
8.386181 -4.749460 1.048063 21
8.458193 -4.855879 1.048808 7
8.485994 -4.907656 1.049098 1
8.467932 -4.944658 1.048913 0
111.424522 -44.882690 2.120287 45
112.731148 -45.848969 2.133977 45
111.498779 -45.824730 2.121263 45
111.716949 -46.370285 2.123662 45
111.188034 -46.572002 2.118286 45
19.853857 -10.801210 1.168029 2
18.430334 -10.595488 1.153535 16
18.369543 -10.649508 1.152978 7
18.164454 -10.643132 1.150922 14
18.307329 -10.798490 1.152506 16
18.303577 -10.879755 1.152554 30
18.128956 -10.881934 1.150820 11
18.223497 -11.015940 1.151909 9
18.138372 -11.061483 1.151119 4
18.260426 -11.210799 1.152505 2
15.958164 -10.930123 1.129599 7
15.885017 -10.971355 1.128960 5
15.797849 -11.004370 1.128174 1
15.916080 -11.153075 1.129564 2
15.753059 -11.220984 1.128120 15
15.708632 -11.281972 1.127805 1
13.779630 -11.370208 1.109881 13
12.689891 -10.806475 1.098513 1
12.965790 -11.141835 1.101865 15
12.822223 -11.196261 1.100697 4
12.773455 -11.238836 1.100365 1
12.726240 -11.431984 1.100453 4
12.240220 -11.163089 1.095361 1
12.246977 -11.243049 1.095642 6
12.112497 -11.217614 1.094371 13
11.921595 -11.153823 1.092492 15
11.892590 -11.207087 1.092386 33
11.808688 -11.219871 1.091680 23
11.936661 -11.389782 1.093306 9
11.850982 -11.397566 1.092575 6
11.825624 -11.457902 1.092532 11
11.763638 -11.486730 1.092076 17
11.754261 -11.551766 1.092193 12
11.797278 -11.738322 1.093144 1
11.325065 -11.446270 1.088138 1
11.197488 -11.420920 1.086956 1
11.132908 -11.444543 1.086476 1
11.054524 -11.453075 1.085831 1
10.977523 -11.465976 1.085214 1
10.903698 -11.480985 1.084634 1
10.792747 -11.465249 1.083637 1
10.697513 -11.461570 1.082817 1
10.614781 -11.467559 1.082138 1
10.464589 -11.416733 1.080698 10
10.391472 -11.429306 1.080127 22
10.251240 -11.384660 1.078796 13
10.190631 -11.406609 1.078367 35
10.026810 -11.339702 1.076766 24
10.007659 -11.392600 1.076796 11
10.023874 -11.483805 1.077260 4
9.934957 -11.476175 1.076499 4
9.865395 -11.488663 1.075973 4
9.777951 -11.484852 1.075243 4
9.663852 -11.456554 1.074205 29
9.597637 -11.470429 1.073719 24
9.546280 -11.497409 1.073404 11
9.478989 -11.505964 1.072893 13
9.439375 -11.543262 1.072717 6
9.364429 -11.547791 1.072133 5
9.298365 -11.560110 1.071653 6
9.229439 -11.569359 1.071139 7
9.154776 -11.572757 1.070560 10
9.077329 -11.573004 1.069947 9
9.000017 -11.572840 1.069336 18
8.940103 -11.588940 1.068931 10
8.850514 -11.572175 1.068160 11
8.767893 -11.565208 1.067486 31
8.705388 -11.577453 1.067051 18
8.631577 -11.578116 1.066481 15
8.506984 -11.527482 1.065306 16
8.492791 -11.586801 1.065448 15
8.410909 -11.577793 1.064782 15
8.360002 -11.599779 1.064488 32
8.291395 -11.599670 1.063965 38
8.237730 -11.618268 1.063640 25
8.145297 -11.596209 1.062845 24
8.089007 -11.611284 1.062488 24
8.048333 -11.638871 1.062306 12
7.971973 -11.628418 1.061689 21
7.916654 -11.647349 1.061363 11
7.836001 -11.634956 1.060710 19
7.784495 -11.649858 1.060397 11
7.726584 -11.664978 1.060041 13
7.670555 -11.678128 1.059692 15
7.603843 -11.679132 1.059210 15
7.539909 -11.682781 1.058764 15
7.478723 -11.689104 1.058351 15
7.414964 -11.692131 1.057907 18
7.361842 -11.706878 1.057596 16
7.301962 -11.706066 1.057165 16
7.236584 -11.709822 1.056718 16
7.166096 -11.707170 1.056207 18
7.109128 -11.708513 1.055812 18
7.051094 -11.715818 1.055441 15
6.991251 -11.724418 1.055065 14
6.935900 -11.734235 1.054729 15
6.872254 -11.729926 1.054267 15
6.814490 -11.736117 1.053900 15
6.754261 -11.738938 1.053501 14
6.703550 -11.749270 1.053207 13
6.640957 -11.748435 1.052778 12
6.579102 -11.751915 1.052377 12
6.519210 -11.753598 1.051982 10
6.461887 -11.758137 1.051622 9
6.407102 -11.765557 1.051295 8
6.357275 -11.779043 1.051034 6
6.292234 -11.768694 1.050551 14
6.242505 -11.781695 1.050292 24
6.187943 -11.788114 1.049968 18
6.114159 -11.768744 1.049386 9
6.059800 -11.774595 1.049065 17
6.009765 -11.782011 1.048782 28
5.919860 -11.739130 1.047977 36
5.918363 -11.819696 1.048400 7
5.838250 -11.789060 1.047726 10
5.790781 -11.798783 1.047479 31
5.732125 -11.796663 1.047099 37
5.715345 -11.852910 1.047302 45
5.652087 -11.843847 1.046859 19
5.546786 -11.766360 1.045781 8
5.518379 -11.805763 1.045825 21
5.499276 -11.862854 1.046024 3
5.414223 -11.824306 1.045292 2
5.376103 -11.845528 1.045181 9
5.316216 -11.842666 1.044804 1
35.808926 -57.330097 1.483757 36
35.439137 -57.202103 1.480832 35
34.927280 -56.855366 1.475833 35
34.923111 -57.274845 1.478202 35
34.711246 -57.379925 1.477566 35
35.888168 -59.610668 1.497237 37
34.274944 -57.547707 1.476003 35
33.815296 -57.262371 1.471708 35
34.447803 -58.699005 1.483677 36
33.394176 -57.466976 1.470502 35
33.304699 -57.763386 1.471734 35
34.367126 -59.928394 1.490425 37
30.014061 -53.284443 1.426944 31
29.598772 -53.013042 1.423036 30
29.645731 -53.918880 1.428688 31
29.681374 -54.400509 1.431765 31
29.264647 -54.098591 1.427701 31
4.302207 -11.805290 1.038827 1
4.308653 -11.903355 1.039454 1
4.062134 -11.822941 1.037671 36
4.016608 -11.830056 1.037480 9
3.986571 -11.864999 1.037542 5
3.958284 -11.903372 1.037635 7
3.899266 -11.885436 1.037226 19
3.857513 -11.894375 1.037072 15
3.766753 -11.815968 1.036131 38
3.805796 -11.980952 1.037357 33
3.743323 -11.955116 1.036888 34
3.694034 -11.953811 1.036640 22
3.672351 -12.005607 1.036862 6
3.628503 -12.014658 1.036709 5
3.546645 -11.948635 1.035899 4
2.448653 -13.417613 1.041241 1
1.914274 -12.172696 1.030779 22
2.265307 -13.731060 1.042826 2
1.853988 -12.632824 1.033806 1
2.147526 -13.664782 1.041989 1
1.547231 -12.101773 1.029114 10
1.499604 -12.079154 1.028811 7
1.438836 -12.156821 1.029183 60
1.783807 -13.427487 1.039221 20
1.740475 -13.440619 1.039191 26
1.726739 -13.553284 1.039957 22
1.622130 -13.358968 1.038277 7
14.829362 -59.867035 1.407493 31
14.634717 -59.963913 1.407672 31
1.370072 -13.114898 1.035850 1
1.461414 -13.612549 1.039671 13
13.866963 -60.361546 1.408573 31
1.265140 -13.582224 1.038965 1
1.682162 -56.163605 1.360095 22
1.503299 -56.391682 1.361787 22
1.275878 -55.832607 1.357492 21
1.093270 -55.658928 1.356143 21
0.921752 -56.213123 1.360341 22
0.514490 -55.964901 1.358431 21
0.331135 -56.173161 1.360019 21
0.130549 -55.973122 1.358505 21
-0.048930 -55.787670 1.357109 21
-0.238568 -55.842121 1.357548 21
-1.839561 -11.958506 1.023360 0
-1.876742 -11.878985 1.022768 0
-2.033290 -12.967606 1.031145 0
-2.127165 -14.039000 1.039373 40
-2.172555 -14.034477 1.039368 11
-2.257763 -13.865039 1.038137 1
-2.315302 -12.675395 1.029113 16
-2.375645 -13.317904 1.034063 2
-2.474240 -13.654733 1.036720 9
-2.517191 -13.625025 1.036536 2
-2.566031 -12.806070 1.030350 4
-2.635365 -13.351280 1.034577 5
-2.739717 -14.463268 1.043159 39
-2.698079 -12.983298 1.031849 11
-2.834164 -14.505829 1.043597 16
-2.792274 -13.141779 1.033172 44
-3.036545 -15.342116 1.050217 4
-2.966376 -13.755011 1.038065 10
-2.959537 -13.105611 1.033125 5
-3.097610 -13.720282 1.037994 17
-3.190305 -14.254186 1.042186 7
-3.165772 -13.493270 1.036380 3
-3.397310 -14.451110 1.044018 2
-3.482989 -14.852317 1.047202 46
-3.465221 -14.250719 1.042623 13
-3.553175 -14.611134 1.045506 8
-3.603882 -14.633436 1.045769 3
-3.543450 -13.738307 1.038900 1
-3.703770 -14.302775 1.043470 9
-3.721373 -14.078641 1.041818 36
-3.767481 -14.076516 1.041897 15
-3.805338 -14.014801 1.041513 20
-3.843915 -13.960901 1.041191 9
-3.794851 -13.309250 1.036191 9
-3.747773 -12.701620 1.031527 2
-3.904220 -13.450616 1.037497 17
-3.909810 -13.202845 1.035654 24
-3.938391 -13.109216 1.035020 4
-4.025222 -13.374733 1.037213 10
-4.111728 -13.640156 1.039405 16
-4.107920 -13.352776 1.037251 5
-4.181899 -13.522657 1.038703 9
-4.514501 -15.137381 1.051580 11
-4.522559 -14.888016 1.049745 5
-4.190123 -12.826214 1.033541 1
-4.290038 -13.128983 1.036056 2
-4.656903 -14.818100 1.049584 2
-4.722760 -14.899018 1.050364 2
-4.477007 -12.981855 1.035487 15
-4.566321 -12.991648 1.035821 3
-4.597891 -12.739135 1.034057 7
-4.706488 -13.030452 1.036530 18
-4.728750 -12.935154 1.035900 8
-4.964646 -12.660020 1.034660 2
-5.187091 -13.007163 1.037946 1
-5.165397 -12.760385 1.036085 2
-24.138401 -62.990189 1.468909 34
-24.414314 -63.044056 1.470513 34
-24.776058 -63.329647 1.474120 35
-24.388979 -61.613918 1.460502 33
-25.043957 -62.723221 1.471153 34
-24.915960 -61.733055 1.463746 33
-25.007996 -61.338768 1.461465 33
-25.437059 -61.825386 1.466814 34
-25.584875 -61.609417 1.466036 34
-26.336411 -62.900265 1.478430 35
-26.084072 -61.636581 1.468609 34
-26.214949 -61.381905 1.467512 34
-30.896086 -63.388939 1.504978 36
-30.606544 -62.231037 1.495831 35
-30.820452 -62.104073 1.496174 35
-31.121180 -62.187283 1.498372 36
-31.142256 -61.685055 1.495230 35
-31.346746 -61.595284 1.495791 35
-31.440323 -61.251705 1.494099 35
-31.956419 -61.769196 1.500348 36
-32.428383 -62.187115 1.505716 36
-32.478447 -61.755203 1.503238 36
-32.981102 -62.223003 1.509121 36
-33.103596 -61.936367 1.508007 36
-33.405769 -62.001667 1.510185 36
-33.292091 -61.263393 1.504847 36
-33.650669 -61.437248 1.508062 36
-33.990288 -61.570423 1.510918 36
-41.376598 -62.524204 1.563901 40
-41.538998 -62.305714 1.563746 40
-41.663284 -62.029831 1.563009 39
-10.312968 -9.161226 1.047128 0
-10.349936 -9.140525 1.047370 0
-10.326442 -9.061314 1.046838 0
-10.461271 -9.134637 1.048337 0
-10.466372 -9.082985 1.048175 0
-11.040286 -9.049749 1.053265 1
-11.413230 -9.322407 1.057721 1
-11.246568 -9.118205 1.055426 1
-11.184234 -9.007136 1.054443 1
-11.106100 -8.883532 1.053268 1
-11.177665 -8.892354 1.053969 1
-11.088024 -8.763302 1.052670 0
-11.078353 -8.700530 1.052359 0
-10.365183 -8.044728 1.043349 0
-10.283337 -7.924387 1.042160 0
-10.335117 -7.918383 1.042630 0
-10.367215 -7.898324 1.042867 0
-10.431456 -7.901955 1.043491 0
-10.514466 -7.920331 1.044346 0
-11.046447 -8.299292 1.050693 0
-11.043674 -8.245200 1.050490 0
-11.062572 -8.208616 1.050553 0
-11.089500 -8.181000 1.050725 0
-11.123891 -8.156621 1.050980 0
-11.203697 -8.164828 1.051781 0
-11.298277 -8.186376 1.052768 0
-10.967458 -7.881645 1.048603 0
-11.042314 -7.889013 1.049358 0
-11.248261 -7.994686 1.051695 0
-11.253338 -7.947978 1.051606 0
-11.303144 -7.934724 1.052058 0
-11.388374 -7.947329 1.052937 0
-11.429445 -7.931989 1.053299 0
-11.372659 -7.840197 1.052474 0
-11.478661 -7.864337 1.053597 0
-11.503681 -7.829550 1.053749 0
-11.690364 -7.912249 1.055843 0
-11.805852 -7.942974 1.057084 1
-11.980632 -8.014295 1.059031 1
-12.047670 -8.009106 1.059693 1
-12.128809 -8.018432 1.060536 1
-12.199355 -8.014704 1.061240 1
-12.327435 -8.047027 1.062621 1
-43.053902 -28.123281 1.425395 12
-43.017773 -27.894323 1.424479 12
-43.262222 -27.849096 1.426884 12
-43.365696 -27.711407 1.427631 12
-43.447239 -27.569773 1.428149 12
-43.583534 -27.452827 1.429295 12
-43.101566 -26.935442 1.423157 12
-39.937634 -24.571987 1.385168 10
-40.059788 -24.473331 1.386234 10
-40.080639 -24.294046 1.386080 10
-41.330669 -24.514532 1.399632 11
-41.347057 -24.338354 1.399463 11
-40.614471 -23.722450 1.390563 21
-41.222637 -23.886978 1.397299 11
-41.655922 -23.945255 1.401995 11
-41.471996 -23.655468 1.399523 11
-41.416546 -23.259459 1.398243 33
-41.424122 -23.082668 1.398025 11
-41.714214 -23.063326 1.401095 33
-41.860104 -22.781700 1.402209 11
-42.549931 -22.801359 1.409662 11
-42.428017 -22.554379 1.407982 11
-46.227135 -24.380203 1.451675 13
-42.400188 -22.178829 1.407147 11
-45.889042 -23.801460 1.447209 12
-47.008961 -23.985334 1.459630 13
-46.867554 -23.716146 1.457749 13
-46.724483 -23.457827 1.455871 13
-46.659271 -23.230330 1.454887 12
-28.240829 -12.952378 1.241432 3
-28.267088 -12.738226 1.241560 3
-65.831985 -26.115929 1.671172 36
-65.352608 -25.672487 1.665624 36
-65.767281 -25.565126 1.670323 36
-66.274925 -25.503275 1.676099 36
-65.701263 -25.030478 1.669501 36
-65.353699 -24.647243 1.665502 36
-65.004242 -24.266729 1.661492 35
-65.054939 -24.035692 1.662073 35
-67.647934 -24.722811 1.691778 37
-65.247955 -23.607035 1.664314 35
-64.575890 -23.121048 1.656647 35
-75.916672 -26.836636 1.786572 44
-67.095322 -23.500999 1.685590 36
-67.635056 -23.444067 1.691829 37
-65.844719 -22.583830 1.671388 35
-66.685959 -22.616705 1.681103 36
-66.517845 -22.310560 1.679264 36
-68.371399 -22.665613 1.700601 37
-65.164948 -21.376240 1.663960 35
-65.414734 -21.212667 1.666935 35
-64.931229 -20.804964 1.661520 34
-64.896759 -20.553144 1.661256 34
-65.068245 -20.377325 1.663355 34
-66.563179 -20.589828 1.680654 35
-67.520065 -20.630417 1.691795 36
-85.996048 -25.841221 1.904015 52
-84.189186 -24.995663 1.883507 50
-70.715965 -20.805340 1.729040 38
-70.262268 -20.442688 1.724019 38
-69.944550 -20.096174 1.720587 38
-74.516754 -21.107054 1.773357 41
-68.277374 -19.117464 1.701897 36
-68.123100 -18.815178 1.700375 36
-68.258255 -18.603750 1.702180 36
-68.636513 -18.455379 1.706792 36
-72.306595 -19.153677 1.749308 39
-70.396332 -18.406578 1.727606 38
-70.336319 -18.137596 1.727211 38
-85.696190 -21.705883 1.904487 51
-71.241112 -17.877008 1.738230 38
-72.870888 -18.011959 1.757353 39
-77.137817 -18.757872 1.806930 43
-71.226799 -17.107550 1.739076 38
-71.399498 -16.892559 1.741426 38
-71.438858 -16.646702 1.742248 38
-22.588196 -5.577775 1.177973 2
-22.580526 -5.500776 1.177999 2
-22.588217 -5.427235 1.178205 2
-22.548676 -5.343812 1.177867 2
-22.555807 -5.270437 1.178072 2
-22.574434 -5.199455 1.178414 2
-22.584972 -5.126829 1.178664 2
-22.622728 -5.059562 1.179233 2
-22.652412 -4.990571 1.179712 2
-22.670073 -4.919199 1.180054 2
-94.326759 -18.102974 2.012873 58
-93.846649 -17.682775 2.007930 57
-93.128464 -17.224123 2.000221 56
-95.619614 -17.330175 2.029877 59
-92.943626 -16.537085 1.999390 56
-170.377716 -11.887208 2.948872 45
-168.817688 -11.201925 2.932180 45
-168.053558 -10.573615 2.924989 45
-170.506165 -10.124696 2.956293 45
-167.684738 -9.392321 2.924509 45
-168.144409 -8.834218 2.932019 45
-169.341461 -8.305190 2.948413 45
-169.793457 -7.738137 2.955908 45
-170.715195 -7.185253 2.969087 45
-128.614029 -3.899454 2.469162 45
-118.661865 -3.265716 2.350502 45
47.024914 8.745885 1.826091 14
47.039093 8.570862 1.825032 14
47.072285 8.399628 1.824327 14
47.291912 8.272412 1.827052 15
47.217876 8.080665 1.824437 15
71.189224 8.857374 2.230443 53
71.266891 8.607572 2.230168 53
10.873884 0.489149 1.165572 0
10.950604 0.452334 1.166641 0
11.201886 0.436574 1.170774 0
10.808976 0.350247 1.163652 0
10.945197 0.316848 1.165751 0
10.925685 0.271528 1.165160 0
10.938079 0.227170 1.165115 0
10.934392 0.181261 1.164793 0
10.918794 0.132070 1.164255 0
10.938485 0.090593 1.164357 0
10.986318 0.046766 1.164924 0
10.961878 0.001497 1.164267 0
10.985308 -0.042252 1.164428 2
10.960721 -0.089589 1.163762 2
10.983843 -0.133473 1.163923 7
10.978733 -0.177052 1.163611 83
10.969624 -0.223096 1.163221 18
10.959026 -0.316790 1.162572 2
10.969394 -0.361623 1.162526 1
10.983601 -0.406332 1.162548 1
10.997554 -0.448863 1.162580 0
11.011459 -0.493751 1.162602 0
11.005227 -0.539467 1.162282 0
11.010825 -0.584732 1.162167 0
11.016198 -0.627759 1.162061 0
11.021489 -0.673089 1.161946 0
11.022624 -0.718544 1.161763 0
11.083624 -0.765107 1.162592 0
11.084400 -0.808494 1.162417 0
11.109086 -0.856152 1.162632 0
11.109581 -0.901911 1.162448 0
11.181892 -0.944974 1.163494 0
53.888168 -1.677357 1.883695 23
53.813564 -1.871338 1.881699 23
53.866428 -2.057454 1.881902 23
53.898468 -2.253249 1.881727 23
53.937813 -2.449484 1.881687 23
70.519157 -3.620677 2.158225 51
70.666008 -3.867247 2.159881 51
70.599159 -4.131161 2.157879 51
70.464027 -4.378815 2.154792 51
70.427910 -4.630542 2.153381 51
59.885639 -6.264326 1.970627 33
57.524399 -6.273559 1.930778 29
55.500530 -6.489611 1.896135 26
53.510128 -6.897228 1.861683 23
74.164543 -9.339536 2.204077 57
53.223545 -7.237504 1.856139 23
51.611324 -7.255053 1.828988 20
49.602962 -7.569847 1.794639 18
47.923996 -7.702331 1.766225 15
47.190273 -8.129212 1.753237 14
45.653854 -8.077062 1.727583 13
11.519581 -3.070366 1.163371 0
11.204746 -3.117025 1.158043 7
10.988485 -3.126861 1.154417 2
10.732482 -3.130973 1.150137 2
10.512100 -3.139336 1.146449 2
10.311522 -3.149595 1.143092 3
10.122844 -3.160566 1.139935 6
9.966105 -3.173832 1.137311 15
9.792923 -3.187312 1.134416 7
9.631977 -3.199734 1.131728 8
9.471090 -3.211059 1.129044 4
9.232134 -3.204046 1.125078 4
9.052202 -3.207119 1.122089 6
8.907280 -3.218031 1.119677 8
8.765950 -3.230642 1.117327 13
8.668516 -3.247529 1.115705 19
8.582827 -3.266286 1.114278 27
8.488522 -3.286473 1.112711 33
8.441086 -3.316309 1.111918 33
8.433019 -3.389096 1.111769 21
8.396990 -3.421019 1.111171 42
8.357821 -3.448179 1.110524 36
8.349714 -3.482513 1.110391 30
8.340622 -3.520430 1.110243 22
8.335718 -3.557463 1.110167 63
8.315606 -3.588824 1.109842 72
8.306579 -3.624816 1.109702 72
8.297886 -3.658979 1.109570 72
8.292018 -3.697711 1.109487 70
8.286478 -3.734640 1.109412 74
8.288532 -3.773632 1.109464 70
8.278860 -3.809528 1.109325 72
8.277268 -3.845719 1.109320 72
8.278903 -3.884797 1.109371 68
8.272184 -3.923539 1.109289 70
8.277883 -3.961988 1.109411 69
8.271394 -3.998960 1.109336 69
8.268610 -4.037051 1.109324 67
8.281018 -4.079720 1.109565 67
8.282307 -4.117257 1.109623 66
8.286736 -4.157797 1.109738 65
8.294275 -4.201383 1.109908 67
8.298941 -4.240276 1.110028 65
8.306705 -4.282240 1.110205 67
8.306684 -4.321857 1.110255 63
8.321145 -4.368249 1.110550 65
8.313197 -4.405504 1.110474 67
8.324692 -4.447244 1.110720 65
8.331625 -4.489629 1.110895 65
8.345962 -4.534677 1.111195 63
8.368296 -4.580657 1.111627 62
8.375325 -4.621577 1.111809 63
8.392883 -4.668369 1.112170 56
8.414009 -4.716665 1.112593 28
8.453746 -4.771909 1.113328 12
8.440588 -4.808376 1.113189 4
8.487381 -4.866834 1.114046 2
23.196590 -10.362170 1.358360 3
23.029007 -10.399538 1.355784 6
22.827808 -10.423102 1.352654 6
22.615547 -10.441088 1.349342 6
22.403463 -10.457706 1.346035 6
22.189491 -10.467283 1.342688 3
22.000116 -10.490005 1.339764 3
21.796019 -10.505598 1.336597 6
21.595818 -10.521376 1.333497 6
21.399502 -10.537379 1.330464 6
21.210764 -10.555168 1.327559 6
21.027550 -10.569270 1.324736 6
20.846518 -10.587794 1.321964 5
20.671333 -10.612245 1.319305 5
20.481243 -10.619833 1.316372 5
20.300694 -10.634908 1.313614 5
20.127647 -10.652033 1.310983 5
19.951096 -10.666459 1.308295 5
19.771057 -10.678148 1.305550 5
19.605808 -10.695237 1.303055 5
19.447996 -10.714586 1.300686 5
19.286674 -10.731292 1.298260 5
19.118233 -10.743644 1.295716 5
18.627155 -10.604938 1.287734 15
18.510290 -10.637825 1.286057 22
18.310299 -10.630668 1.282979 23
18.258587 -10.692887 1.282408 14
18.224703 -10.763543 1.282142 19
18.177896 -10.823565 1.281646 4
18.007088 -10.827044 1.279069 2
17.861599 -10.841861 1.276921 4
17.734148 -10.864709 1.275081 6
17.581770 -10.874203 1.272819 4
17.452688 -10.890221 1.270938 4
17.286388 -10.890641 1.268440 4
17.154139 -10.911712 1.266540 4
17.018356 -10.921612 1.264547 4
16.880991 -10.934016 1.262544 4
16.745575 -10.950726 1.260593 4
16.603176 -10.954428 1.258489 4
16.482092 -10.968670 1.256750 4
16.343580 -10.980993 1.254748 2
16.229757 -10.997601 1.253136 2
16.028507 -10.973493 1.250057 6
15.853874 -10.958550 1.247416 30
15.771989 -10.990304 1.246354 11
15.754489 -11.062123 1.246424 15
15.761024 -11.147810 1.246914 13
15.706539 -11.194695 1.246336 3
15.333467 -11.065000 1.240280 1
15.215421 -11.077024 1.238618 1
15.113045 -11.093478 1.237209 1
14.978033 -11.093965 1.235254 1
14.838037 -11.094519 1.233230 1
14.681143 -11.083852 1.230912 1
14.599834 -11.110028 1.229872 1
14.284861 -10.996584 1.224768 1
14.187025 -11.010619 1.223437 1
13.990702 -10.970564 1.220419 1
13.941312 -11.243459 1.221165 1
13.846640 -11.264902 1.219941 1
13.856153 -11.345768 1.220519 17
13.803298 -11.390081 1.220020 11
13.033408 -11.260772 1.208516 1
12.923238 -11.265999 1.207017 9
12.892472 -11.317703 1.206895 19
12.817059 -11.342190 1.205999 6
12.271646 -11.185843 1.197557 1
12.111250 -11.292245 1.196027 1
11.936255 -11.314464 1.193796 5
11.802560 -11.286622 1.191813 32
11.780845 -11.349135 1.191923 25
11.792589 -11.433325 1.192626 15
11.791179 -11.508038 1.193095 11
11.786239 -11.580434 1.193505 2
10.131982 -11.504025 1.171431 11
10.007821 -11.470163 1.169607 18
9.935179 -11.480380 1.168767 15
9.882434 -11.504024 1.168280 8
9.827830 -11.529496 1.167788 11
9.770213 -11.552050 1.167239 2
9.724467 -11.585038 1.166921 11
9.707145 -11.639982 1.167128 10
8.796023 -11.373827 1.153874 1
8.758456 -11.556273 1.154907 7
8.717764 -11.586274 1.154668 8
8.643920 -11.586989 1.153796 3
8.559874 -11.580677 1.152749 1
8.516342 -11.607123 1.152456 1
50.464638 -54.599144 2.006319 55
8.253582 -11.634976 1.149619 31
8.196175 -11.645832 1.149047 22
8.154406 -11.680235 1.148861 14
7.895018 -11.698939 1.146060 0
7.576554 -11.497393 1.140683 0
37.661728 -57.101902 1.893025 44
37.022224 -56.608204 1.881868 43
36.034531 -55.605377 1.862187 40
35.768696 -55.629253 1.859926 40
35.672928 -55.899246 1.861825 41
35.460880 -56.000668 1.860901 40
35.244102 -56.094646 1.859869 40
35.265621 -56.543125 1.864759 41
35.255638 -56.949150 1.868929 42
35.040344 -57.048824 1.868013 42
34.799492 -57.087753 1.866238 41
34.455128 -56.987968 1.862071 41
34.691631 -57.783314 1.872647 42
34.234142 -57.507057 1.865618 41
34.199986 -57.889618 1.869406 42
34.503216 -58.810291 1.881957 44
34.286411 -58.913631 1.881167 43
34.426308 -59.590149 1.889687 45
34.255260 -59.771400 1.890166 45
33.995674 -59.808910 1.888336 45
29.726343 -53.244606 1.780304 31
29.701698 -53.596138 1.783932 32
29.577538 -53.806011 1.785179 32
3.659859 -11.532039 1.103222 0
3.702233 -11.695393 1.105406 0
3.670556 -11.730359 1.105561 0
17.170630 -53.865051 1.699010 24
16.960396 -53.860115 1.697813 24
1.924575 -12.202220 1.099904 0
2.383832 -13.651701 1.120373 0
2.364380 -13.738805 1.121360 1
2.314820 -13.738811 1.121107 0
15.692019 -53.775375 1.690161 23
2.143790 -13.513535 1.117423 0
1.877748 -12.990438 1.109540 1
1.966324 -13.554226 1.117073 13
1.894121 -13.484690 1.115855 5
1.808134 -13.360621 1.113884 21
1.737053 -13.282017 1.112562 84
1.683856 -13.260517 1.112048 24
1.630856 -13.238795 1.111534 15
1.594940 -13.274423 1.111829 4
14.835093 -59.849010 1.763055 32
1.502944 -13.591925 1.115489 0
1.467439 -13.643247 1.116000 7
1.444579 -55.462231 1.671791 21
1.286051 -55.840660 1.676778 22
1.115193 -56.215183 1.681717 22
0.899397 -55.970608 1.678344 22
0.119113 -55.429844 1.670870 21
-1.618089 -14.437356 1.120222 0
-1.803849 -11.925252 1.086493 0
-1.840363 -11.901847 1.086187 0
-2.040553 -14.730701 1.124292 14
-2.082993 -13.890570 1.113027 14
-2.125787 -13.902222 1.113212 2
-2.148645 -12.234001 1.090809 1
-2.187585 -12.221416 1.090671 0
-2.273841 -12.559707 1.095292 12
-2.337845 -13.430279 1.107049 3
-2.386195 -13.592931 1.109284 8
-2.433360 -13.687441 1.110605 21
-2.452857 -13.030376 1.101804 16
-2.494447 -13.020730 1.101725 16
-2.604913 -14.553259 1.122438 20
-2.644444 -14.391265 1.120316 31
-2.687602 -14.321031 1.119434 14
-2.731703 -14.318677 1.119467 14
-2.763216 -14.100563 1.116589 20
-2.765659 -13.399218 1.107189 56
-2.801299 -13.280726 1.105659 19
-2.926709 -13.825343 1.113172 18
-2.970977 -13.846129 1.113530 6
-3.085856 -14.727808 1.125549 2
-3.022569 -13.380645 1.107398 71
-3.141657 -14.257650 1.119368 12
-3.111692 -13.405073 1.107905 4
-3.170145 -13.564393 1.110158 54
-3.213538 -13.556252 1.110144 14
-3.254093 -13.520102 1.109752 8
-3.299782 -13.535539 1.110063 16
-3.344740 -13.542855 1.110266 14
-3.435179 -13.959462 1.116041 15
-3.436220 -13.568925 1.110838 24
-3.482035 -13.599842 1.111366 33
-3.517262 -13.523123 1.110436 25
-3.555442 -13.474093 1.109885 17
-3.595336 -13.440819 1.109550 14
-3.637110 -13.423278 1.109433 12
-3.757324 -13.968093 1.117013 9
-3.811336 -14.025262 1.117929 14
