# .PCD v.7 - Point Cloud Data file format
VERSION .7
FIELDS x y z intensity
SIZE 4 4 4 1
TYPE F F F U
COUNT 1 1 1 1
WIDTH 1498
HEIGHT 1
VIEWPOINT 0 0 0 1 0 0 0
POINTS 1498
DATA ascii
-8.015582 9.646504 0.628389 8
-7.980678 9.646631 0.629433 8
-7.949230 9.658134 0.630560 8
-7.914356 9.664272 0.631705 8
-7.881148 9.676048 0.632893 8
-7.841246 9.670889 0.634010 8
-7.805224 9.679041 0.635229 8
-7.772480 9.692368 0.636435 8
-7.739147 9.703655 0.637628 8
-7.712175 9.731741 0.638904 8
-7.678325 9.734639 0.639980 8
-7.642273 9.735934 0.641099 8
-7.607252 9.740968 0.642249 8
-7.575207 9.757498 0.643499 8
-7.537197 9.750656 0.644551 8
-7.504099 9.763075 0.645770 8
-7.468358 9.757483 0.646777 8
-7.435383 9.777855 0.648127 8
-7.406317 9.807437 0.649511 8
-7.370230 9.807728 0.650631 8
-7.334981 9.803595 0.651654 8
-7.317414 9.805575 0.652232 8
-7.263404 9.805473 0.653909 8
-7.227003 9.803288 0.655006 8
-7.197404 9.832244 0.656409 8
-7.164719 9.847418 0.657682 8
-7.128274 9.844866 0.658781 8
-7.090154 9.842530 0.659939 8
-7.056419 9.861614 0.661317 8
-7.024081 9.870093 0.662477 8
-6.989038 9.864724 0.663494 8
-6.957950 9.889027 0.664881 8
-6.923406 9.895540 0.666084 8
-6.887034 9.892097 0.667181 8
-6.857790 9.927887 0.668707 8
-6.820681 9.920263 0.669763 8
-6.786369 9.928267 0.670992 8
-6.750689 9.928265 0.672133 8
-6.718621 9.949839 0.673521 8
-6.682588 9.947618 0.674641 8
-6.649578 9.952894 0.675791 8
-6.613282 9.948449 0.676886 8
-6.582125 9.977486 0.678378 8
-6.547576 9.996791 0.679819 8
-6.512088 9.997911 0.680987 8
-6.490913 9.986792 0.681488 8
-6.443432 10.003498 0.683312 8
-6.408492 10.008213 0.684530 8
-6.375598 10.028671 0.685947 9
-6.340068 10.029181 0.687118 9
-6.307768 10.041260 0.688379 9
-6.269757 10.035782 0.689535 9
-6.237238 10.061742 0.691041 9
-6.203882 10.081635 0.692475 9
-6.168887 10.087502 0.693729 9
-6.129885 10.055458 0.694479 9
-6.097398 10.084942 0.696052 9
-6.062958 10.096409 0.697388 9
-6.028703 10.091664 0.698447 9
-5.996369 10.126795 0.700117 9
-6.795994 -16.264950 0.793724 57
-6.849855 -16.259169 0.791840 16
-6.928998 -16.451603 0.792670 16
-6.972448 -16.325865 0.788991 16
-7.034603 -16.362839 0.787608 16
-7.090657 -16.347975 0.785503 16
-7.150669 -16.364658 0.783835 16
-7.211859 -16.389055 0.782270 16
-7.238849 -16.373413 0.781110 16
-7.329909 -16.401501 0.778643 16
-7.383157 -16.365822 0.776276 16
-7.444219 -16.385387 0.774643 16
-7.508383 -16.424507 0.773261 16
-7.566834 -16.423834 0.771359 16
-7.624079 -16.415051 0.769356 16
-7.688213 -16.449514 0.767902 16
-7.748762 -16.460045 0.766143 16
-7.810072 -16.474297 0.764428 16
-7.869503 -16.476492 0.762564 16
-7.939929 -16.541525 0.761466 16
-7.998280 -16.535376 0.759495 16
-8.056585 -16.545282 0.757813 16
-8.122223 -16.578056 0.756306 16
-8.182956 -16.583055 0.754468 16
-8.240753 -16.572119 0.752444 16
-8.304638 -16.592386 0.750782 16
-8.367144 -16.604563 0.749025 16
-8.434532 -16.640026 0.747528 16
-8.488492 -16.608624 0.745278 16
-8.551299 -16.620108 0.743510 16
-8.614228 -16.631355 0.741738 16
-8.679821 -16.654091 0.740088 16
-8.721665 -16.706392 0.739702 16
-8.808985 -16.687088 0.736642 17
-8.875138 -16.709063 0.734972 17
-8.946904 -16.754158 0.733538 17
-9.008041 -16.752234 0.731611 17
-9.072929 -16.765646 0.729841 17
-9.136072 -16.771036 0.727988 17
-9.201215 -16.783957 0.726209 17
-9.260660 -16.785715 0.724414 17
-9.329986 -16.826036 0.722992 17
-9.397532 -16.833582 0.721056 17
-9.460236 -16.833883 0.719146 17
-9.518900 -16.818485 0.717089 17
-9.585979 -16.846163 0.715530 17
-9.654133 -16.865061 0.713788 17
-9.744800 -16.964664 0.712770 17
-9.806072 -16.955976 0.710765 17
-9.867340 -16.947065 0.708761 17
-9.937077 -16.956310 0.706819 17
-10.028574 -17.050623 0.705699 17
-10.079370 -17.014929 0.703558 17
-10.136842 -17.002083 0.701614 17
-10.209462 -17.017887 0.699715 17
-10.270556 -16.995140 0.697500 17
-10.323169 -17.050121 0.696879 17
-10.411117 -17.039551 0.694081 17
-10.491625 -17.077072 0.692337 17
-10.563374 -17.096149 0.690540 17
-10.634811 -17.123512 0.688898 17
-10.703992 -17.142986 0.687191 17
-10.775556 -17.148817 0.685184 17
-10.851907 -17.178102 0.683441 17
-10.922082 -17.188133 0.681555 17
-10.992397 -17.197882 0.679663 17
-11.068117 -17.222458 0.677870 17
-11.134774 -17.220304 0.675890 17
-11.217600 -17.263111 0.674208 17
-11.288596 -17.271679 0.672292 17
-11.369027 -17.314886 0.670693 17
-11.430485 -17.305189 0.668752 17
-11.521681 -17.356770 0.666991 17
-11.596231 -17.371613 0.665094 18
-11.656758 -17.348751 0.662968 18
-11.717205 -17.325682 0.660846 18
-11.805055 -17.373255 0.659130 18
-11.891858 -17.416700 0.657379 18
-11.971683 -17.441154 0.655512 18
-12.060675 -17.487547 0.653756 18
-12.089657 -17.471622 0.652666 18
-12.205088 -17.502573 0.649908 18
-12.278256 -17.507174 0.647914 18
-12.348472 -17.504089 0.645880 18
-12.418752 -17.500729 0.643843 18
-12.496909 -17.515501 0.641890 18
-12.589434 -17.563032 0.640081 18
-12.671266 -17.584429 0.638142 18
-12.766143 -17.634794 0.636322 18
-12.840488 -17.637129 0.634286 18
-12.923075 -17.657433 0.632321 18
-12.997703 -17.659128 0.630275 18
-13.079044 -17.675089 0.628281 18
-13.159173 -17.695745 0.626401 18
-13.239262 -17.707375 0.624379 18
-13.341488 -17.765797 0.622516 18
-13.440518 -17.807781 0.620477 18
-13.509416 -17.792933 0.618343 18
-13.599042 -17.821114 0.616345 18
-13.670199 -17.817970 0.614348 18
-13.763808 -17.852591 0.612354 18
-13.845410 -17.861647 0.610278 18
-13.955615 -17.927687 0.608350 18
-14.059229 -17.978865 0.606365 19
-14.115700 -18.013199 0.605389 19
-14.209783 -17.965626 0.602079 19
-14.283327 -17.954988 0.599924 19
-14.390555 -18.016720 0.598028 20
-14.487930 -18.042738 0.595829 20
-14.550780 -18.009777 0.593617 20
-14.673561 -18.089640 0.591606 20
-14.746017 -18.073662 0.589417 20
-14.830535 -18.087255 0.587381 20
-14.917160 -18.103998 0.585342 21
-15.052669 -18.194040 0.583172 21
-15.154787 -18.229099 0.581021 22
-15.247523 -18.246204 0.578840 22
-15.337317 -18.264671 0.576761 22
-15.404115 -18.226942 0.574409 22
-15.499374 -18.246340 0.572210 22
-15.604885 -18.282618 0.570012 22
-15.722835 -18.339130 0.567808 23
-15.829174 -18.374334 0.565580 23
-15.923683 -18.388353 0.563335 24
-16.004099 -18.377876 0.561080 24
-16.127792 -18.439089 0.558819 24
-16.239624 -18.479124 0.556541 24
-16.347708 -18.511770 0.554251 25
-16.419632 -18.556896 0.553090 25
-16.513302 -18.499247 0.549788 25
-16.630657 -18.544060 0.547460 25
-16.748463 -18.588278 0.545116 26
-16.834608 -18.581213 0.542802 26
-16.982161 -18.676996 0.540494 27
-17.050457 -18.633236 0.538086 27
-17.154516 -18.651741 0.535719 27
-17.289476 -18.716631 0.533276 27
-17.396444 -18.737368 0.530878 28
-17.530235 -18.797588 0.528403 28
-17.595701 -18.754002 0.526094 28
-17.838453 -18.831654 0.521150 29
-17.960463 -18.869549 0.518656 29
-18.082891 -18.906820 0.516146 30
-18.205738 -18.943466 0.513622 30
-18.449350 -19.017206 0.508646 57
-18.573421 -19.051981 0.506078 31
-18.639769 -19.004751 0.503736 31
-19.393267 -19.197338 0.488002 57
-9.904920 -2.179770 0.484851 57
-9.848503 -2.134446 0.485575 16
-9.852224 -2.116142 0.485366 16
-9.859543 -2.099437 0.485101 24
-9.848445 -2.074775 0.485127 24
-9.842749 -2.052576 0.485070 13
-9.855370 -2.038246 0.484726 13
-9.858727 -2.019982 0.484529 8
-9.867557 -2.004023 0.484248 8
-9.863388 -1.982699 0.484173 22
-9.862832 -1.962937 0.484042 22
-9.873325 -1.947692 0.483737 22
-9.887485 -1.933881 0.483375 22
-9.890447 -1.915584 0.483192 30
-9.884028 -1.893646 0.483161 30
-9.881247 -1.873220 0.483072 24
-9.885850 -1.855700 0.482868 24
-9.905348 -1.843843 0.482425 24
-9.907970 -1.825549 0.482254 24
-9.895528 -1.801690 0.482327 11
-9.906149 -1.796037 0.482093 11
-9.917308 -1.771375 0.481725 24
-9.923423 -1.754444 0.481503 24
-9.946437 -1.743522 0.481007 19
-9.943022 -1.723173 0.480941 19
-9.945190 -1.704840 0.480786 38
-9.956747 -1.689763 0.480480 38
-9.953110 -1.669479 0.480421 66
-9.975930 -1.658156 0.479933 66
-9.972160 -1.637870 0.479879 66
-9.977809 -1.620749 0.479673 66
-9.979316 -1.603232 0.479541 8
-10.000078 -1.590971 0.479089 8
-10.026533 -1.580397 0.478544 2
-10.039886 -1.564608 0.478209 2
-9.999424 -1.533083 0.478768 2
-19.040581 -0.744739 0.316864 57
-18.793062 -0.443787 0.320810 57
-18.782431 -0.397938 0.320947 15
-18.815685 -0.350864 0.320320 15
-18.845930 0.610617 0.319459 57
-18.863770 0.657262 0.319161 15
-12.946685 1.804033 0.425162 57
-13.010729 1.846532 0.424160 3
-10.527116 2.846282 0.475510 57
-10.519666 2.877610 0.475894 3
-10.548363 2.917349 0.475639 3
-10.482118 2.930696 0.477037 57
-10.472342 2.948626 0.477369 3
-10.461988 2.967464 0.477721 3
-10.385172 2.949300 0.479086 3
-9.872479 3.169475 0.491216 3
-9.861916 3.185382 0.491577 3
-9.818096 3.178953 0.492412 3
-9.785410 3.180935 0.493098 3
-11.107087 8.890004 0.907998 10
-11.038047 8.854590 0.906867 10
-11.015972 8.888610 0.908458 10
-10.967217 8.882602 0.908488 10
-10.964096 8.942125 0.911079 10
-8.245749 -22.270708 1.639661 33
-10.317050 -18.198599 1.378559 33
-13.402450 -21.868549 1.506506 33
-13.478655 -21.839462 1.503830 54
-14.165208 -18.624187 1.337825 33
-15.646963 -19.069860 1.342872 52
-10.169318 -2.828866 0.688604 33
-10.100222 -2.767819 0.686272 3
-10.108056 -2.749314 0.685884 3
-10.117581 -2.731738 0.685542 100
-10.132336 -2.716956 0.685333 100
-10.132915 -2.694611 0.684777 100
-10.105425 -2.635219 0.682983 3
-10.013307 -2.565315 0.680193 3
-10.057779 -2.566309 0.680736 26
-10.061319 -2.546191 0.680287 26
-10.103938 -2.523840 0.680254 33
-10.101925 -2.500956 0.679683 19
-10.083658 -2.470189 0.678734 19
-9.966599 -2.349528 0.674485 3
-9.899858 -2.266148 0.671744 33
-9.900702 -2.235844 0.671071 3
-9.915714 -2.222313 0.670958 3
-9.916115 -2.202112 0.670515 3
-9.960227 -2.201562 0.671069 3
-9.903878 -2.156104 0.669347 6
-9.971738 -2.165806 0.670439 6
-9.894903 -2.111970 0.668276 8
-9.960958 -2.120490 0.669325 8
-9.929678 -2.086926 0.668200 23
-9.942418 -2.072312 0.668062 23
-9.934830 -2.049131 0.667477 2
-9.912365 -2.019896 0.666570 2
-9.958186 -2.018966 0.667169 2
-9.928123 -1.986841 0.666107 2
-9.936845 -1.970641 0.665899 69
-9.947370 -1.955146 0.665733 69
-9.961565 -1.941069 0.665649 2
-9.981507 -1.889809 0.664926 33
-10.051615 -1.896757 0.666042 3
-9.960800 -1.842891 0.663739 3
-9.978414 -1.830002 0.663745 2
-10.011599 -1.832514 0.664264 2
-9.983475 -1.793008 0.663130 8
-9.985901 -1.774518 0.662827 8
-9.978836 -1.752688 0.662329 14
-10.013186 -1.745501 0.662696 14
-10.007876 -1.724324 0.662242 31
-10.008153 -1.705152 0.661908 31
-10.031079 -1.693711 0.662044 2
-10.006590 -1.666230 0.661209 2
-10.055992 -1.663487 0.661892 5
-10.027527 -1.634885 0.660986 5
-10.046201 -1.622774 0.661060 8
-10.021327 -1.595659 0.660239 8
-10.053519 -1.586834 0.660576 25
-10.066896 -1.570967 0.660520 25
-10.087598 -1.558254 0.660628 2
-10.108271 -1.545416 0.660738 2
-10.136309 -1.535641 0.661010 3
-10.189092 -1.454709 0.660591 33
-10.298123 -1.465820 0.662445 3
-10.342895 -1.438747 0.662753 3
-10.361370 -1.423969 0.662833 3
-10.372072 -1.407043 0.662764 93
-10.373705 -1.368982 0.662269 126
-10.386168 -1.352442 0.662244 126
-10.416770 -1.320580 0.662310 21
-10.458242 -1.310848 0.662847 100
-10.470530 -1.293906 0.662828 100
-10.478869 -1.275982 0.662737 121
-10.487150 -1.258016 0.662648 121
-10.489521 -1.238681 0.662450 129
-10.493774 -1.219780 0.662292 129
-10.497962 -1.200864 0.662135 43
-19.077457 -0.549773 0.805329 33
-18.991323 -0.497853 0.803701 23
-18.948969 -0.447927 0.802850 23
-18.922359 -0.401166 0.802288 22
-18.883659 -0.351880 0.801519 22
-18.884769 -0.303718 0.801455 22
-18.885260 -0.279635 0.801426 22
-18.886482 -0.207384 0.801345 22
-18.887114 -0.156804 0.801296 22
-18.887543 -0.108631 0.801256 22
-18.887802 -0.060457 0.801222 22
-18.887896 -0.012282 0.801193 22
-18.863823 0.035813 0.800752 22
-18.887592 0.081658 0.801155 22
-18.887163 0.132239 0.801143 22
-18.886583 0.180411 0.801138 22
-18.885836 0.228580 0.801139 22
-18.884920 0.276746 0.801146 22
-18.883837 0.324908 0.801159 22
-18.982531 0.375839 0.802922 23
-18.881165 0.421221 0.801202 23
-18.931538 0.471173 0.802139 23
-18.975897 0.567389 0.803054 23
-19.073681 0.620364 0.804848 23
-19.143421 0.670217 0.806157 24
-19.196878 0.722176 0.807196 24
-19.194239 0.771424 0.807262 24
-107.459663 6.371125 2.354285 3
-107.512238 6.553692 2.355705 3
-107.567474 7.472754 2.359474 206
-107.593956 7.816148 2.361093 196
-107.665703 8.181497 2.363633 196
-107.686325 8.543287 2.365342 183
-107.795807 9.292160 2.370238 77
-107.840378 9.657549 2.372575 77
-107.865738 10.021612 2.374641 17
-108.418434 13.360389 2.402085 33
-108.428650 13.728258 2.404573 100
-108.455391 14.098793 2.407425 100
-108.490700 14.471068 2.410501 172
-108.546448 14.846887 2.414013 172
-108.598846 15.222979 2.417537 170
-108.674965 15.418740 2.420223 170
-108.702324 15.958729 2.424640 94
-108.748711 16.336123 2.428269 94
-108.778862 16.693090 2.431533 52
-9.974716 3.135130 0.692277 3
-9.930127 3.130502 0.691741 3
-9.952654 3.169241 0.693029 3
-9.932997 3.330829 0.903836 15
-9.921313 3.347731 0.904235 2
-9.883368 3.346321 0.902770 2
-9.878165 3.367641 0.903638 2
-9.879392 3.393579 0.904977 2
-9.873992 3.414930 0.905852 2
-9.837614 3.488902 0.908305 2
-9.829582 3.509859 0.909097 2
-9.997348 3.849434 0.932712 15
-9.983855 3.866554 0.933174 2
-9.917157 3.841399 0.929586 2
-11.093151 8.850348 1.281477 5
-11.054394 8.859639 1.281604 5
-11.024528 8.882031 1.282810 5
-10.989055 8.896014 1.283344 5
-10.965003 8.923826 1.285041 5
-10.959562 8.987004 1.289558 5
-8.069973 -23.791786 2.565413 22
-9.114863 -22.980379 2.471640 20
-9.191450 -22.946743 2.467203 20
-9.330378 -21.574762 2.345820 17
-9.689274 -22.169750 2.390808 15
-10.659860 -20.654200 2.246586 16
-10.748737 -20.696306 2.249086 16
-10.823009 -20.684259 2.247184 16
-10.892606 -20.383299 2.220875 16
-10.518186 -17.887804 2.013924 15
-10.596584 -17.788851 2.004855 15
-10.673734 -17.731474 1.999340 11
-10.739829 -17.714811 1.997372 11
-10.808323 -17.715965 1.996899 11
-11.120663 -18.266550 2.040524 12
-11.319143 -18.010424 2.017762 12
-11.430787 -18.127930 2.026832 12
-11.908921 -19.274734 2.119223 14
-11.570521 -18.121006 2.025437 14
-11.630264 -18.089024 2.022461 12
-12.377677 -19.520758 2.137168 15
-12.431580 -19.458035 2.131765 15
-13.372925 -21.716103 2.313911 15
-13.920972 -18.721140 2.070647 15
-14.029157 -18.780342 2.075621 15
-14.221551 -18.523508 2.055861 14
-16.231184 -19.429529 2.138599 18
-19.397982 -19.264090 2.167460 22
-58.883625 42.682861 7.072544 27
-11.183659 8.897256 1.666150 27
-11.137988 8.897019 1.664575 31
-11.089050 8.891628 1.662385 31
-11.032463 8.874441 1.658760 7
-10.989304 8.876840 1.657583 7
-10.967503 8.907897 1.660035 11
-10.951170 8.954250 1.664240 11
-10.968713 9.049602 1.674552 3
-29.636715 50.125019 6.522752 27
-29.447842 50.158962 6.522989 27
-29.272690 50.242973 6.529062 27
-29.042610 50.189423 6.519076 28
-28.836475 50.229397 6.519913 28
-28.652304 50.315353 6.526299 28
-28.392860 50.216228 6.511023 28
-28.226290 50.292557 6.516799 29
-7.386724 -25.118046 3.589126 24
-7.361342 -22.292425 3.242700 27
-7.440117 -22.294497 3.241170 17
-7.528260 -22.381170 3.249844 17
-7.623173 -22.556726 3.269303 18
-7.719784 -22.701870 3.285028 18
-7.800120 -22.702679 3.283443 18
-7.915155 -22.983072 3.315424 18
-8.047487 -23.383121 3.361741 20
-7.929444 -21.848749 3.176291 20
-8.404268 -24.803289 3.528551 24
-8.435446 -24.709063 3.516438 24
-8.681268 -24.889986 3.534044 27
-8.287750 -21.647835 3.145138 16
-8.832056 -24.715675 3.510152 16
-8.461895 -21.774641 3.157658 16
-8.634117 -22.367134 3.227072 16
-8.945357 -23.785997 3.394984 21
-8.651999 -21.060667 3.067724 44
-8.733579 -21.095318 3.070747 44
-9.387798 -23.872885 3.399090 27
-10.309319 -22.991629 3.282551 20
-10.156110 -20.652777 3.002792 27
-10.258948 -20.758572 3.014865 29
-10.352110 -20.837845 3.023847 29
-10.886766 -22.293030 3.195195 27
-11.047665 -20.548523 2.987212 27
-11.521669 -21.892647 3.145987 18
-11.596433 -21.879063 3.144344 18
-12.026912 -20.199928 2.947956 27
-12.633643 -21.714916 3.127549 19
-11.606098 -18.558008 2.754487 19
-11.685446 -18.576553 2.757091 10
-11.781169 -18.639652 2.765000 10
-11.818914 -18.541687 2.753875 10
-11.833623 -18.392618 2.736700 10
-11.952687 -18.526865 2.753098 10
-11.939534 -18.094910 2.703091 10
-12.058149 -18.215853 2.718035 10
-12.046147 -17.997021 2.692732 30
-12.133516 -18.035765 2.697993 30
-12.879190 -19.537064 2.877605 27
-12.955459 -19.530260 2.877621 42
-12.979028 -19.490829 2.873363 42
-12.745849 -18.645844 2.774240 11
-15.180907 -24.080204 3.422250 27
-14.308377 -21.790239 3.151052 27
-14.090007 -21.071024 3.066599 18
-13.495315 -19.127911 2.838559 27
-13.815718 -19.669086 2.904234 15
-15.852221 -23.580488 3.375133 27
-13.669250 -18.645145 2.786870 12
-13.996599 -18.826490 2.812604 27
-14.168015 -18.689747 2.800449 26
-17.982021 -25.497904 3.626620 27
-16.168295 -21.279808 3.125832 21
-17.598787 -22.289782 3.268590 27
-18.175735 -22.041059 3.257092 25
-18.790041 -22.712389 3.345253 28
-19.012634 -22.721889 3.352606 28
-17.866695 -20.774042 3.114547 28
-17.954737 -20.682487 3.107523 22
-18.014084 -20.617510 3.102490 22
-18.088028 -20.575901 3.100374 22
-18.187511 -20.574274 3.103240 22
-18.184626 -20.420528 3.087163 22
-18.432468 -20.483440 3.101467 22
-19.554033 -21.703375 3.263415 27
-19.596315 -21.603525 3.254570 26
-18.436926 -19.017744 2.951772 19
-22.629404 -22.237972 3.430430 32
-21.711826 -20.491095 3.224012 27
-25.589487 -23.466125 3.675000 27
-32.645432 -24.289253 4.110941 55
-37.913841 -24.756664 4.463273 63
-37.170338 -23.001101 4.287354 27
-11.152864 8.899440 2.047527 5
-11.103967 8.894183 2.044228 5
-11.055180 8.888695 2.040926 15
-11.017503 8.899453 2.040357 15
-10.981380 8.909035 2.039735 10
-10.955203 8.940371 2.042511 10
-10.971584 9.033666 2.055665 5
-20.636566 50.773148 8.393901 18
-20.468195 50.823551 8.399754 41
-20.290783 50.876003 8.405922 41
-20.091896 50.855732 8.400981 42
-19.915455 50.943604 8.412732 42
-13.567075 51.955658 8.573159 44
-13.385756 51.984009 8.579475 44
-13.201285 51.992191 8.582783 44
-13.010766 52.020599 8.589421 44
-12.836220 52.093937 8.602991 44
-7.443007 -23.608187 4.246518 21
-7.532279 -23.667048 4.254076 21
-7.620298 -23.709854 4.259164 21
-8.406367 -24.589422 4.384947 24
-8.432005 -24.458473 4.363947 24
-9.670469 -23.425858 4.189926 18
-9.741273 -23.355820 4.178651 21
-10.384034 -23.954430 4.269846 23
-10.433568 -23.980087 4.273765 23
-10.044411 -21.366096 3.868678 18
-10.126629 -21.381733 3.871137 34
-10.236739 -21.512434 3.891465 34
-10.292507 -21.415909 3.876632 17
-10.727978 -22.207417 3.999899 18
-11.045485 -23.133011 4.143634 21
-11.424694 -22.943575 4.116518 18
-12.033415 -23.829191 4.256638 18
-11.851873 -21.646036 3.922477 18
-11.687044 -20.765009 3.786895 16
-11.665775 -20.439802 3.737378 16
-12.189340 -20.592514 3.768012 18
-11.983253 -19.340519 3.576699 13
-13.079736 -21.482130 3.917081 19
-13.210023 -21.590094 3.935754 19
-13.289493 -21.573071 3.934848 19
-13.193956 -21.101463 3.862803 19
-12.452353 -18.785196 3.503364 18
-12.516111 -18.566805 3.472534 18
-12.545927 -18.363155 3.443211 18
-12.554773 -18.122574 3.408027 11
-12.630116 -18.125925 3.410406 11
-12.673289 -18.052366 3.400721 11
-13.918656 -20.605621 3.807183 18
-14.108418 -20.264805 3.762810 17
-14.143259 -20.154127 3.747761 17
-13.163224 -17.812506 3.379416 11
-13.557143 -18.507793 3.491874 11
-13.601776 -18.443974 3.484021 13
-13.823034 -18.581692 3.510803 13
-13.528677 -17.788336 3.387304 13
-13.771431 -18.135641 3.445064 12
-13.739011 -17.758287 3.389961 11
-13.982900 -18.097672 3.446738 11
-14.065339 -18.105824 3.450751 12
-17.848698 -25.493824 4.634848 12
-19.051622 -25.218634 4.642160 18
-17.498352 -22.235392 4.163264 25
-18.113806 -21.883429 4.141588 25
-18.226770 -21.899338 4.148921 25
-18.487391 -21.486273 4.105167 25
-20.342770 -21.207325 4.166080 18
-26.014212 -24.492563 4.930842 18
-13.467520 1.792470 1.620418 18
-12.836187 2.026240 1.554059 2
-37.920200 46.270157 10.385530 11
-37.709892 46.297100 10.373768 63
-37.548172 46.409485 10.379356 63
-37.273651 46.359455 10.350784 63
-37.055794 46.389202 10.339284 63
-11.140110 8.927766 2.437034 11
-11.053828 8.866964 2.420987 4
-11.019541 8.882645 2.421030 4
-10.998762 8.915228 2.424794 8
-10.974708 8.949808 2.428670 8
-10.972538 9.014646 2.439022 4
-31.459812 48.746418 10.362015 63
-30.053730 49.383972 10.395508 63
-30.029346 50.200027 10.535689 63
-29.831427 50.239658 10.532652 63
-29.664778 50.320290 10.538429 63
-29.403238 50.227360 10.509426 63
-29.236631 50.306576 10.515203 63
-29.052183 50.393486 10.521599 63
-28.867418 50.479717 10.528006 63
-28.607840 50.382832 10.498936 63
-28.440723 50.459412 10.504731 63
-27.852369 50.077255 10.410922 63
-27.321678 49.804535 10.339480 63
-25.959467 49.553864 10.238641 63
-25.816654 49.455311 10.215423 63
-25.552279 49.499836 10.213177 63
-25.351105 49.500599 10.205690 63
-25.154612 49.511509 10.200328 63
-24.981752 49.580097 10.206328 63
-24.808655 49.648083 10.212337 63
-24.659821 49.777733 10.230450 63
-24.506033 49.895939 10.246449 63
-24.254204 50.281715 10.307737 63
-23.340788 50.510201 10.320422 11
-23.131317 50.479805 10.308661 63
-22.955093 50.541317 10.314782 63
-22.754972 50.506325 10.302696 63
-22.370275 50.533031 10.297024 63
-21.831600 50.710621 10.315742 11
-21.654577 50.767597 10.321894 63
-21.550196 50.747200 10.315621 63
-21.308819 50.876919 10.333911 63
-21.072063 50.744446 10.304063 63
-20.924179 50.892685 10.328242 63
-20.726475 50.849808 10.316075 63
-20.541822 50.847591 10.311833 63
-20.363197 50.896301 10.317282 63
-20.174349 50.910435 10.316232 63
-19.983330 50.949066 10.319828 63
-19.788952 50.975647 10.321256 63
-13.639732 51.996532 10.473215 63
-13.453270 51.993855 10.473619 63
-13.267538 51.994396 10.474758 63
-13.081200 52.049999 10.486582 63
-12.905401 52.115292 10.500323 63
-12.814038 52.187885 10.514932 63
-12.194474 52.271935 10.536523 63
-11.838701 52.316818 10.548923 63
-7.318066 -23.728222 5.125381 21
-7.349302 -23.196882 5.021676 21
-7.517627 -23.244017 5.028042 11
-7.588043 -23.138235 5.006435 20
-7.815365 -23.726591 5.117179 21
-7.878081 -23.549662 5.082057 21
-7.895044 -23.009880 4.977318 20
-7.983154 -23.062798 4.986488 20
-8.033192 -22.819233 4.938792 19
-8.121590 -22.875504 4.948717 19
-8.407593 -24.058867 5.174569 11
-8.549660 -24.154715 5.191806 23
-8.667510 -23.248697 5.016147 11
-8.756558 -23.287010 5.022985 21
-8.833978 -23.251274 5.015681 21
-8.993348 -23.711607 5.103528 22
-8.984920 -23.159651 4.997379 22
-9.047582 -21.290672 4.638327 16
-9.118125 -21.257856 4.632028 16
-9.190360 -21.234453 4.627584 16
-9.262859 -21.212732 4.623514 16
-9.417520 -21.599272 4.697740 17
-9.714667 -22.666668 4.902523 17
-10.157559 -23.976948 5.154274 11
-9.967168 -22.313751 4.836243 11
-10.237681 -23.160446 4.999072 21
-10.568758 -22.096251 4.799847 11
-11.014376 -22.897409 4.956538 21
-11.167356 -23.138435 5.004017 21
-10.585407 -19.557446 4.321386 13
-10.829678 -19.623594 4.338093 11
-10.957314 -19.566023 4.329787 11
-11.018661 -19.535553 4.325338 27
-11.648194 -21.322069 4.671630 27
-11.877505 -20.064953 4.443781 11
-13.277826 -21.934059 4.828115 20
-13.231307 -21.569481 4.760052 20
-13.276951 -21.464205 4.742365 19
-13.147150 -20.274792 4.521747 16
-12.381415 -18.169607 4.112838 16
-12.462520 -18.188175 4.119180 34
-12.467418 -18.109890 4.105222 34
-15.261316 -24.115353 5.294583 27
-13.033038 -18.485249 4.194876 12
-13.115058 -18.323809 4.169398 25
-14.241688 -20.692711 4.639920 25
-13.197621 -18.167505 4.145049 12
-13.264164 -18.146652 4.144242 12
-13.324124 -18.111229 4.140602 12
-13.662582 -18.519728 4.228278 13
-14.249049 -19.245880 4.383830 11
-13.820794 -18.185442 4.176756 12
-13.901357 -18.190660 4.181582 12
-20.517475 -31.269516 6.799887 11
-17.773565 -25.493328 5.652431 32
-18.393093 -26.504839 5.860436 32
-14.841546 -19.192028 4.403969 11
-17.073395 -21.420015 4.911429 23
-16.827473 -19.677805 4.602169 19
-16.879757 -19.610168 4.594198 19
-18.503092 -21.957561 5.090895 11
-18.889816 -22.414051 5.192184 27
-18.383324 -19.419197 4.666839 20
-18.739389 -19.220999 4.661938 11
-18.863731 -19.253771 4.676706 21
-18.988464 -19.285913 4.691459 21
-18.872103 -18.642836 4.581013 11
-19.333773 -18.790943 4.641338 20
-20.929480 -20.741980 5.074642 20
-20.270277 -19.449682 4.820525 23
-20.330694 -19.387766 4.816092 23
-26.909510 -25.678371 6.339288 47
-37.347084 -23.912376 7.218327 63
-12.776240 2.296523 1.844962 2
-12.674049 2.293275 1.829440 2
-12.571964 2.289378 1.813914 2
-12.563495 2.316682 1.814196 2
-42.175323 45.153549 12.677021 15
-41.541645 45.660999 12.698884 15
-37.601925 46.384724 12.430924 15
-37.328075 46.335823 12.395495 63
-37.166225 46.446629 12.401089 63
-11.073475 8.876144 2.812218 7
-11.041354 8.895134 2.812879 7
-10.995543 8.890176 2.807729 7
-10.978008 8.934397 2.814621 7
-10.962870 8.979230 2.821878 3
-29.723083 50.295197 12.568959 63
-29.547466 50.379429 12.575047 63
-29.112827 50.373104 12.546111 15
-28.928141 50.459301 12.552516 63
-28.751957 50.540764 12.558625 63
-28.501955 50.440243 12.522391 63
-28.325838 50.520222 12.528499 63
-27.413816 49.856575 12.335607 63
-20.623497 50.894806 12.257063 63
-20.445843 50.947330 12.263239 63
-20.256853 50.961796 12.260828 63
-20.070068 51.015583 12.267323 63
-19.874386 51.038673 12.266941 63
-13.711018 52.023090 12.398823 63
-13.529470 52.051476 12.405148 63
-13.349050 52.086933 12.413230 63
-13.155200 52.096111 12.415493 63
-12.975156 52.134132 12.424461 63
-7.654334 -23.470800 5.930522 22
-9.361240 -21.967697 5.582916 18
-9.500303 -22.267090 5.652046 18
-9.501953 -21.877241 5.563550 18
-9.564420 -21.795361 5.545569 18
-9.640000 -21.778246 5.542470 18
-9.795819 -22.136871 5.625452 18
-10.118244 -22.311932 5.669205 15
-10.070004 -21.574980 5.502138 18
-10.163562 -21.635908 5.517360 18
-10.244887 -21.643291 5.520376 18
-10.130251 -20.531292 5.268097 15
-10.183807 -20.442123 5.249074 15
-10.943931 -22.820417 5.798200 15
-11.265809 -22.753853 5.790526 15
-10.665057 -19.746944 5.104504 14
-10.722025 -19.686569 5.092579 14
-10.762268 -19.569786 5.067703 14
-10.817863 -19.495062 5.052668 14
-10.772882 -19.097469 4.963095 12
-10.820291 -19.026632 4.948797 12
-11.121707 -19.531828 5.069987 15
-11.230592 -19.498623 5.066168 15
-12.370624 -22.719378 5.814951 22
-12.387265 -22.488853 5.764730 22
-11.556393 -19.703245 5.122424 14
-11.790252 -19.729538 5.136780 15
-13.100252 -21.598320 5.598011 15
-13.215311 -21.449841 5.570956 15
-13.389981 -20.812225 5.441624 18
-14.148209 -21.412277 5.609036 21
-13.106836 -18.076565 4.842792 15
-13.173024 -18.056074 4.842270 25
-13.224641 -18.003290 4.834137 25
-13.289809 -17.980587 4.833200 25
-13.347543 -17.941673 4.828463 25
-13.440766 -17.987297 4.843688 12
-13.507595 -17.967356 4.843596 12
-14.454850 -19.445072 5.211947 16
-14.482356 -19.330172 5.189768 16
-14.747214 -19.708290 5.285608 17
-14.874923 -19.794115 5.311806 17
-14.815522 -19.335302 5.212800 15
-14.965336 -19.463839 5.249502 17
-16.203716 -20.812876 5.613473 21
-16.348610 -20.735920 5.608373 21
-17.889374 -21.915565 5.964846 15
-18.206457 -21.929844 5.993396 26
-17.979414 -21.382183 5.865985 26
-18.502642 -21.407843 5.915254 25
-20.218184 -22.044260 6.193311 29
-20.294970 -21.991968 6.190602 29
-18.937269 -19.599697 5.606514 22
-27.522699 10.627912 5.470948 24
-37.928509 46.403374 14.554974 63
-37.654762 46.357124 14.512761 63
-37.219978 46.420288 14.476116 50
-11.099380 8.894201 3.213215 6
-11.065037 8.910023 3.212852 6
-11.032213 8.924690 3.212436 12
-10.993021 8.936417 3.210691 12
-10.972443 8.972928 3.216570 6
-30.034733 50.362671 14.673171 50
-29.606598 50.353596 14.636331 50
-29.439581 50.433010 14.642121 63
-29.212809 50.432655 14.624144 63
-28.986361 50.431324 14.606154 63
-28.613253 50.526226 14.600488 63
-28.384819 50.493645 14.575333 63
-20.704597 50.936184 14.235741 63
-20.513319 50.944256 14.229985 63
-20.335497 50.996155 14.236167 63
-20.148592 51.049980 14.242666 63
-19.952820 51.073364 14.241203 63
-13.785157 52.059818 14.360245 63
-13.606613 52.107319 14.371634 63
-13.421716 52.115993 14.372907 63
-13.233746 52.163582 14.384625 63
-13.048791 52.170937 14.385900 63
-12.954448 52.223480 14.399527 63
-7.329341 -23.215176 6.739774 16
-7.379243 -22.900139 6.654994 16
-7.389028 -22.221588 6.473531 15
-7.547181 -22.235132 6.475784 15
-7.994478 -22.687429 6.594033 50
-8.063422 -22.601139 6.570862 15
-10.049642 -21.880432 6.400124 50
-10.004037 -21.169006 6.212809 14
-10.117984 -21.321869 6.255525 14
-9.957812 -20.329947 5.992299 13
-10.035110 -20.339760 5.996856 13
-10.099025 -20.294794 5.986832 26
-10.532081 -21.717709 6.369724 26
-10.653764 -21.879301 6.415283 15
-10.504028 -21.002968 6.182831 15
-10.551963 -20.903099 6.158314 14
-10.570677 -20.666571 6.097455 14
-10.672999 -20.760082 6.125008 14
-10.843025 -20.827295 6.148111 14
-11.137931 -21.035694 6.212507 50
-10.714019 -19.314383 5.752481 24
-10.792957 -19.322094 5.757498 24
-11.266699 -20.656710 6.119760 14
-10.935476 -19.321012 5.762879 14
-11.025626 -19.387228 5.783592 12
-11.116152 -19.428825 5.798063 12
-11.148805 -19.285303 5.762663 12
-11.177577 -19.248108 5.754387 12
-11.346263 -18.778263 5.642070 50
-11.429533 -18.820343 5.656795 11
-12.861430 -22.525124 6.669500 17
-11.907607 -18.709948 5.653509 50
-12.030581 -18.842905 5.693828 12
-12.105166 -18.853003 5.700552 12
-13.243108 -21.444662 6.417347 50
-12.478291 -19.237724 5.818766 25
-13.273628 -20.449852 6.170251 14
-15.041816 -23.900795 7.142075 20
-14.178975 -21.413633 6.468559 16
-14.032569 -18.680412 5.788541 50
-14.069763 -18.592075 5.770104 25
-13.974485 -18.233631 5.675868 25
-14.045984 -18.227228 5.680101 12
-14.188906 -18.356201 5.722829 12
-14.306756 -18.432398 5.750867 12
-14.435750 -18.528769 5.784741 12
-14.523222 -18.541540 5.795160 13
-16.978395 -20.469128 6.473897 17
-17.000610 -20.344500 6.447158 17
-27.421383 10.565343 6.350911 18
1.219691 -1.359884 0.024349 1
1.200427 -1.377859 0.023804 1
1.151436 -1.421389 0.022424 1
1.129296 -1.440090 0.021803 19
1.121682 -1.446388 0.021590 1
1.116589 -1.450564 0.021448 1
1.090903 -1.471176 0.020730 1
1.085464 -1.475448 0.020578 1
1.070360 -1.487141 0.020157 1
1.064862 -1.491337 0.020004 1
1.059349 -1.495513 0.019851 1
1.054348 -1.499274 0.019712 1
1.049334 -1.503018 0.019573 1
1.044043 -1.506941 0.019426 1
1.028089 -1.518599 0.018983 1
1.017385 -1.526278 0.018686 1
0.985229 -1.548679 0.017797 1
0.963352 -1.563360 0.017193 1
0.952338 -1.570586 0.016890 1
0.946812 -1.574170 0.016738 1
0.941550 -1.577557 0.016593 1
0.919275 -1.591626 0.015980 1
0.913676 -1.595094 0.015827 1
0.863032 -1.625260 0.014439 1
0.857316 -1.628532 0.014283 1
0.823360 -1.647428 0.013356 19
0.817567 -1.650561 0.013198 1
0.782579 -1.668933 0.012246 1
0.771127 -1.674746 0.011935 1
0.764943 -1.677844 0.011767 1
0.747215 -1.686569 0.011286 1
0.741285 -1.689436 0.011126 1
0.723735 -1.697773 0.010650 1
0.717767 -1.700558 0.010489 1
0.695375 -1.668249 0.020351 1
0.705801 -1.706065 0.010165 1
0.699803 -1.708787 0.010003 1
0.682056 -1.716696 0.009524 19
0.676022 -1.719335 0.009361 1
0.669978 -1.721954 0.009198 1
0.663925 -1.724551 0.009035 1
0.658167 -1.726998 0.008880 1
0.646018 -1.732089 0.008553 19
0.639930 -1.734602 0.008389 1
0.633833 -1.737094 0.008225 1
0.627728 -1.739565 0.008060 1
0.621614 -1.742015 0.007896 1
0.615798 -1.744322 0.007740 1
0.609668 -1.746730 0.007575 1
0.603836 -1.748997 0.007418 1
0.597382 -1.751481 0.007245 1
0.590919 -1.753941 0.007072 1
0.587530 -1.755220 0.006981 1
0.579201 -1.758332 0.006758 1
0.573022 -1.760612 0.006592 1
0.560640 -1.765107 0.006260 19
0.554747 -1.767212 0.006102 1
0.542009 -1.771687 0.005762 1
0.529862 -1.775859 0.005437 1
0.517375 -1.780053 0.005103 1
0.511121 -1.782117 0.004936 1
0.504859 -1.784159 0.004769 1
0.498590 -1.786179 0.004602 1
0.492315 -1.788177 0.004435 1
0.486032 -1.790153 0.004267 1
0.480057 -1.792011 0.004108 1
0.460833 -1.797839 0.003596 19
0.417122 -1.810267 0.002434 1
0.410763 -1.811980 0.002265 1
0.360001 -1.824812 0.000920 19
0.353271 -1.826401 0.000742 1
0.334652 -1.830662 0.000250 19
0.308903 -1.836229 -0.000430 19
0.296000 -1.838878 -0.000770 19
0.289864 -1.840104 -0.000932 1
0.286634 -1.840742 -0.001017 1
0.276611 -1.842682 -0.001281 1
0.270140 -1.843904 -0.001452 1
0.251024 -1.847380 -0.001955 1
0.238044 -1.849624 -0.002296 1
0.231549 -1.850712 -0.002467 1
0.225049 -1.851778 -0.002637 1
0.199016 -1.855812 -0.003320 1
0.192499 -1.856764 -0.003491 1
0.179781 -1.858554 -0.003825 19
0.173255 -1.859439 -0.003995 1
0.166725 -1.860301 -0.004166 1
0.153658 -1.861956 -0.004508 19
0.143236 -1.832080 0.003586 1
0.135858 -1.825167 0.005484 1
0.134035 -1.864267 -0.005021 1
0.130762 -1.864632 -0.005107 1
0.121595 -1.865625 -0.005346 1
0.115044 -1.866306 -0.005517 1
0.101936 -1.867600 -0.005859 19
0.095378 -1.868213 -0.006031 1
0.088819 -1.868803 -0.006202 1
0.158911 1.981383 -0.020201 19
0.190152 2.004730 -0.026583 19
0.348762 1.977014 -0.022557 1
0.376583 1.915103 -0.007502 1
0.531812 2.001315 -0.036405 1
0.593995 1.981243 -0.034851 19
0.627577 1.969497 -0.034014 1
0.648036 1.962022 -0.033505 19
0.654839 1.959483 -0.033336 1
0.729058 1.929993 -0.031496 19
0.735748 1.927171 -0.031330 1
0.762740 1.915504 -0.030664 1
0.776009 1.909602 -0.030336 1
0.795174 1.900880 -0.029864 19
0.801762 1.897828 -0.029702 1
0.879961 1.859415 -0.027782 1
0.912058 1.842449 -0.026997 19
0.918122 1.839163 -0.026849 1
0.975025 1.807033 -0.025463 19
0.980971 1.803537 -0.025318 1
1.012077 1.784817 -0.024564 19
1.042852 1.765556 -0.023819 1
1.070258 1.747764 -0.023157 19
1.091379 1.733629 -0.022649 1
1.173800 1.674760 -0.020673 1
1.225414 1.634678 -0.019445 19
1.247945 1.616347 -0.018911 19
1.361110 1.515816 -0.016250 1
1.472015 1.401385 -0.013684 1
1.486242 1.385369 -0.013359 19
1.665390 1.149688 -0.009347 1
1.991828 -0.216272 -0.004489 1
1.615694 -1.513359 0.013968 15
1.605013 -1.525138 0.013662 15
1.572479 -1.560024 0.012730 15
1.556217 -1.576924 0.012265 1
1.550665 -1.582615 0.012107 1
1.545093 -1.588287 0.011948 1
1.522892 -1.610497 0.011316 1
1.520060 -1.613287 0.011236 1
1.511535 -1.621626 0.010994 1
1.505827 -1.627160 0.010832 1
1.500100 -1.632675 0.010670 1
1.488589 -1.643644 0.010343 1
1.471179 -1.659946 0.009851 15
1.459478 -1.670712 0.009520 15
1.418238 -1.707484 0.008359 1
1.406207 -1.717879 0.008021 1
1.356823 -1.672640 0.022165 1
1.394103 -1.728190 0.007681 1
1.388328 -1.733058 0.007519 1
1.337190 -1.684079 0.022528 1
1.379484 -1.740451 0.007271 1
1.370295 -1.748052 0.007014 1
1.357981 -1.758112 0.006669 1
1.345287 -1.768333 0.006315 1
1.339069 -1.773286 0.006141 1
1.301493 -1.738205 0.016963 1
1.282955 -1.727907 0.021012 1
1.308350 -1.797241 0.005285 1
1.295060 -1.807345 0.004915 1
1.289023 -1.811884 0.004747 1
1.282972 -1.816404 0.004579 1
1.228296 -1.769315 0.019491 1
1.217443 -1.767564 0.021016 1
1.257329 -1.835210 0.003867 1
1.215208 -1.817272 0.011827 15
1.231752 -1.853428 0.003158 1
1.228497 -1.855709 0.003068 1
1.218706 -1.862517 0.002798 1
1.212160 -1.867028 0.002617 1
1.205598 -1.871515 0.002435 1
1.152933 -1.822205 0.017406 1
1.185818 -1.884840 0.001889 1
1.150965 -1.846994 0.012789 1
1.133673 -1.834985 0.016875 1
1.112182 -1.816351 0.022669 1
1.131445 -1.859751 0.012252 1
1.146180 -1.910651 0.000798 15
1.112121 -1.872096 0.011720 1
1.080438 -1.836629 0.021796 1
1.125993 -1.923351 0.000243 1
1.119235 -1.927538 0.000057 1
1.075431 -1.871905 0.015273 1
1.092057 -1.944046 -0.000688 15
1.049035 -1.887813 0.014549 1
1.078725 -1.951956 -0.001053 1
1.019214 -1.873614 0.020117 15
1.009365 -1.910790 0.013464 1
0.989150 -1.890790 0.019295 1
0.995925 -1.918328 0.013097 1
0.985711 -1.915055 0.014642 1
1.017205 -1.986897 -0.002734 1
1.010226 -1.990703 -0.002925 1
0.956474 -1.908750 0.018404 1
0.931971 -1.895266 0.023207 1
0.945490 -1.936712 0.013546 1
0.929575 -1.922995 0.017672 1
0.910147 -1.902270 0.023525 1
0.961004 -2.016660 -0.004264 1
0.909271 -1.933432 0.017120 1
0.894193 -1.971500 0.010330 15
0.887268 -1.974878 0.010142 1
0.875193 -1.967703 0.012549 1
0.868184 -2.005619 0.005068 1
0.849491 -1.984177 0.010942 1
0.854086 -2.012168 0.004687 1
0.827344 -1.972877 0.014900 1
0.820415 -1.976022 0.014713 1
0.792939 -1.988209 0.013971 1
0.796916 -2.016272 0.007699 1
0.778963 -1.994234 0.013594 1
0.772310 -1.997062 0.013415 1
0.765648 -1.999868 0.013235 1
0.758274 -2.002944 0.013037 1
0.740715 -1.980627 0.018942 1
0.744196 -2.008727 0.012658 1
0.737143 -2.011581 0.012468 1
0.719819 -1.989084 0.018380 1
0.687016 -1.926502 0.033898 1
0.680250 -1.929159 0.033717 1
0.700965 -2.000683 0.016962 1
0.702082 -2.025348 0.011526 1
0.704431 -2.053691 0.005212 1
0.690699 -2.029669 0.011221 1
0.681076 -2.033264 0.010963 1
0.673937 -2.035898 0.010771 1
0.649205 -1.990910 0.021951 1
0.659632 -2.041091 0.010388 1
0.652824 -2.043523 0.010206 1
0.637405 -2.024135 0.015259 1
0.638107 -2.048694 0.009812 1
0.624073 -2.053514 0.009437 1
0.616864 -2.055949 0.009244 1
0.597141 -2.021391 0.017826 1
0.593757 -2.034836 0.015003 1
0.603758 -2.089040 0.002518 1
0.587943 -2.065437 0.008472 1
0.580692 -2.067745 0.008279 1
0.573433 -2.070029 0.008085 1
0.559490 -2.049846 0.013178 1
0.545090 -2.054240 0.012795 1
0.537518 -2.056507 0.012593 1
0.537023 -2.081065 0.007116 1
0.529718 -2.083195 0.006921 1
0.530437 -2.111409 0.000565 1
0.526733 -2.112466 0.000467 1
0.501711 -2.066820 0.011641 1
0.494456 -2.068828 0.011449 1
0.483383 -2.055675 0.014797 1
0.486471 -2.095247 0.005772 1
0.467270 -2.051911 0.016191 1
0.460068 -2.053800 0.016000 1
0.454841 -2.063209 0.014040 1
0.442708 -2.046172 0.018272 1
0.444211 -2.081991 0.010116 1
0.435000 -2.076233 0.011693 1
0.424319 -2.062776 0.015053 1
0.421344 -2.083547 0.010421 1
0.420047 -2.111908 0.004013 1
0.399754 -2.088569 0.009850 1
0.392424 -2.090221 0.009656 1
0.385948 -2.095652 0.008575 1
0.377746 -2.093449 0.009269 1
0.366233 -2.075974 0.013518 1
0.348287 -2.027943 0.024881 1
0.355688 -2.098097 0.008687 1
0.345152 -2.084322 0.012051 1
0.342106 -2.104815 0.007418 1
0.338413 -2.105544 0.007321 1
0.336751 -2.157501 -0.004560 1
0.316893 -2.133449 0.001291 1
0.298699 -2.077309 0.014470 1
0.292809 -2.086280 0.012494 1
0.285488 -2.087559 0.012301 1
0.282204 -2.111856 0.006752 1
0.269511 -2.082355 0.013702 1
0.264143 -2.095088 0.010830 1
0.259958 -2.115502 0.006168 1
0.249803 -2.097363 0.010453 1
0.239042 -2.079291 0.014723 1
0.237676 -2.118915 0.005583 1
0.219808 -2.050607 0.021502 1
0.220340 -2.101724 0.009681 1
0.215731 -2.122044 0.005008 1
0.201807 -2.076724 0.015568 1
0.191361 -2.054511 0.020757 1
0.182930 -2.102729 0.009612 15
0.176038 -2.107492 0.008521 1
0.171477 -2.131578 0.002940 1
0.161245 -2.109208 0.008134 1
0.151667 -2.059293 0.019719 1
0.141549 -2.060388 0.019455 1
0.137676 -2.092139 0.012071 1
0.127086 -2.061867 0.019077 1
0.122991 -2.093589 0.011687 1
0.117541 -2.113669 0.006994 1
0.110125 -2.114336 0.006800 1
0.133395 2.311090 -0.021518 1
0.138690 2.279246 -0.014263 1
0.146207 2.278520 -0.014071 1
0.153721 2.277768 -0.013879 1
0.161628 2.276950 -0.013677 1
0.169533 2.276105 -0.013475 1
0.177829 2.275187 -0.013263 1
0.185727 2.274285 -0.013061 1
0.225168 2.269361 -0.012055 15
0.232651 2.268348 -0.011864 1
0.248395 2.266133 -0.011463 1
0.264516 2.263750 -0.011053 1
0.272374 2.262545 -0.010853 1
0.280227 2.261313 -0.010653 1
0.310813 2.256245 -0.009877 1
0.344284 2.349443 -0.031270 1
0.340496 2.282679 -0.016241 1
0.342499 2.250543 -0.009073 1
0.350311 2.249066 -0.008875 1
0.388897 2.241354 -0.007898 1
0.412604 2.236271 -0.007299 15
0.443224 2.229312 -0.006526 15
0.466414 2.223746 -0.005941 1
0.474131 2.221836 -0.005747 1
0.550533 2.201374 -0.003827 15
0.865759 2.192161 -0.018209 1
1.037199 2.109780 -0.013995 15
1.173072 2.031804 -0.010689 1
1.242800 1.986968 -0.009005 1
1.330699 1.925337 -0.006895 15
1.450815 1.956903 -0.026212 1
1.471098 1.940809 -0.025730 15
1.781111 1.644488 -0.018496 15
2.017561 1.327664 -0.013216 15
2.095644 1.194367 -0.011548 15
2.287994 -0.215994 0.012232 1
2.183537 -0.269560 0.031896 1
1.834801 -1.227477 0.020378 1
1.817325 -1.254049 0.019857 1
1.808448 -1.267242 0.019593 1
1.799705 -1.280046 0.019334 1
1.724965 -1.382475 0.017134 1
1.879106 -1.788418 0.029282 1
1.700964 -1.830071 0.043658 11
1.492481 -2.010838 0.037798 1
1.485677 -2.104880 0.023633 11
1.441032 -2.137146 0.022395 11
1.370944 -2.099632 0.034425 11
1.348767 -2.114684 0.033813 1
1.380856 -2.178444 0.020732 1
1.333896 -2.124589 0.033403 1
1.326435 -2.129503 0.033197 1
1.318956 -2.134390 0.032991 1
1.311460 -2.139252 0.032785 1
1.281688 -2.158197 0.031966 11
1.274110 -2.162928 0.031758 1
1.243633 -2.181587 0.030921 1
1.235973 -2.186185 0.030712 1
1.190069 -2.212988 0.029455 11
1.182300 -2.217399 0.029243 1
1.193910 -2.256012 0.021807 1
1.166716 -2.226139 0.028818 1
1.128280 -2.247090 0.027770 11
1.104573 -2.259592 0.027124 1
1.073162 -2.275672 0.026271 1
1.064775 -2.279874 0.026043 1
1.056774 -2.283847 0.025826 1
1.048758 -2.287792 0.025609 1
1.040729 -2.291708 0.025391 1
1.032686 -2.295597 0.025173 1
1.025033 -2.299266 0.024965 1
1.021000 -2.301186 0.024856 1
1.000785 -2.310683 0.024309 11
0.992676 -2.314432 0.024090 1
0.984554 -2.318153 0.023870 1
0.976420 -2.321846 0.023650 1
0.968272 -2.325510 0.023430 1
0.960520 -2.328964 0.023221 1
0.952347 -2.332573 0.023000 1
0.927755 -2.343227 0.022337 1
0.919945 -2.346547 0.022127 1
0.912123 -2.349841 0.021916 1
0.903465 -2.353451 0.021683 1
0.886939 -2.360241 0.021238 11
0.878657 -2.363592 0.021015 1
0.870365 -2.366915 0.020792 1
0.862476 -2.370044 0.020580 1
0.854160 -2.373310 0.020357 1
0.837496 -2.379755 0.019909 11
0.828729 -2.383092 0.019674 1
0.824133 -2.384827 0.019551 1
0.812835 -2.389048 0.019248 1
0.804454 -2.392140 0.019023 1
0.796062 -2.395203 0.018798 1
0.787659 -2.398237 0.018573 1
0.779667 -2.401092 0.018359 1
0.770823 -2.404217 0.018123 1
0.762389 -2.407162 0.017897 1
0.753944 -2.410079 0.017671 1
0.745913 -2.412822 0.017457 1
0.737449 -2.415680 0.017231 1
0.728976 -2.418509 0.017004 1
0.720492 -2.421309 0.016778 1
0.703496 -2.426819 0.016324 11
0.694984 -2.429529 0.016097 1
0.686462 -2.432210 0.015870 1
0.678357 -2.434729 0.015654 1
0.669818 -2.437351 0.015426 1
0.635139 -2.447668 0.014503 11
0.626984 -2.450016 0.014287 1
0.622689 -2.451242 0.014172 1
0.609790 -2.454873 0.013830 1
0.601180 -2.457256 0.013601 1
0.592993 -2.459492 0.013384 1
0.567524 -2.466262 0.012708 11
0.558875 -2.468497 0.012478 1
0.550218 -2.470702 0.012249 1
0.541553 -2.472877 0.012019 1
0.524635 -2.477031 0.011571 1
0.515514 -2.479220 0.011330 1
0.506385 -2.481376 0.011089 1
0.498119 -2.483297 0.010870 1
0.489846 -2.485191 0.010651 1
0.472410 -2.489089 0.010191 1
0.463681 -2.490992 0.009960 1
0.454947 -2.492865 0.009729 1
0.446205 -2.494707 0.009499 1
0.437457 -2.496518 0.009268 1
0.428703 -2.498300 0.009037 1
0.420381 -2.499963 0.008818 1
0.415999 -2.500828 0.008702 1
0.402405 -2.503459 0.008344 1
0.393627 -2.505118 0.008113 1
0.385282 -2.506665 0.007893 1
0.376493 -2.508264 0.007662 1
0.367698 -2.509832 0.007431 1
0.358898 -2.511369 0.007199 1
0.350093 -2.512876 0.006968 1
0.332466 -2.515797 0.006505 1
0.323646 -2.517211 0.006273 1
0.315261 -2.518526 0.006053 1
0.305990 -2.519947 0.005810 1
0.297155 -2.521269 0.005578 1
0.288315 -2.522560 0.005347 1
0.279913 -2.523758 0.005126 1
0.271065 -2.524988 0.004895 1
0.262213 -2.526188 0.004663 1
0.253356 -2.527357 0.004431 1
0.244496 -2.528495 0.004199 1
0.235631 -2.529602 0.003967 1
0.226763 -2.530678 0.003735 1
0.217891 -2.531723 0.003503 1
0.209015 -2.532737 0.003271 1
0.192142 -2.534579 0.002830 1
0.183257 -2.535503 0.002598 1
0.165476 -2.537258 0.002134 11
0.156582 -2.538090 0.001902 1
0.147684 -2.538889 0.001670 1
0.166908 2.682065 -0.007833 16
0.178058 2.694841 -0.010183 12
0.186953 2.693982 -0.009956 12
0.195428 2.689184 -0.008986 13
0.204770 2.688218 -0.008747 13
0.214331 2.689172 -0.008879 14
0.223454 2.682231 -0.007517 14
0.234894 2.698727 -0.010614 15
0.242572 2.683970 -0.007782 15
0.250185 2.673149 -0.005705 14
0.260704 2.677778 -0.006566 14
0.272899 2.698010 -0.010397 18
0.281463 2.690933 -0.009049 18
0.289239 2.681946 -0.007345 12
0.297707 2.674817 -0.005999 12
0.308737 2.685158 -0.007978 12
0.319125 2.687613 -0.008466 12
0.330891 2.701752 -0.011179 12
0.338414 2.688667 -0.008729 12
0.347754 2.687201 -0.008491 12
0.355651 2.679962 -0.007161 12
0.367466 2.695955 -0.010250 9
0.374150 2.706800 -0.012339 9
0.383442 2.677304 -0.006832 7
0.393793 2.681485 -0.007699 7
0.404536 2.687559 -0.008932 13
0.414702 2.687709 -0.009051 13
0.424039 2.685978 -0.008814 3
0.431858 2.676496 -0.007110 3
0.441842 2.680579 -0.007986 4
0.454670 2.696095 -0.011050 4
0.472779 2.736586 -0.018875 1
0.477435 2.711562 -0.014239 1
0.489320 2.721149 -0.016197 1
0.517632 2.803595 -0.032047 1
0.552589 2.695042 -0.012340 11
0.682430 2.661237 -0.009074 11
0.830399 2.647601 -0.011395 1
0.900533 2.588772 -0.003629 11
0.920912 2.614694 -0.009143 1
0.904131 2.545251 0.003985 1
0.916591 2.550958 0.002413 2
0.925447 2.547475 0.002633 2
0.932816 2.540312 0.003568 4
0.943564 2.540238 0.003082 4
0.955384 2.543937 0.001870 11
0.968756 2.551217 -0.000056 11
0.980221 2.554992 -0.001277 12
0.988322 2.549476 -0.000700 12
0.994846 2.540317 0.000590 12
1.006791 2.543785 -0.000620 12
1.014833 2.538184 -0.000045 15
1.028852 2.544969 -0.001955 15
1.034483 2.533904 -0.000312 20
1.037714 2.528173 0.000520 20
1.052874 2.527877 -0.000234 22
1.062849 2.527696 -0.000740 22
1.071185 2.523903 -0.000535 23
1.075788 2.510962 0.001459 23
1.086179 2.510486 0.000963 20
1.098268 2.513524 -0.000244 20
1.109543 2.514732 -0.001095 19
1.115703 2.505260 0.000185 19
1.120085 2.492236 0.002173 11
1.132210 2.495109 0.000966 11
1.142186 2.494613 0.000459 12
1.150844 2.490343 0.000672 12
1.159487 2.486043 0.000884 12
1.166760 2.477988 0.001814 12
1.177158 2.477134 0.001317 12
1.189377 2.479733 0.000113 12
1.197071 2.473555 0.000677 11
1.212078 2.481284 -0.001587 11
1.213796 2.464828 0.001086 7
1.224636 2.463552 0.000600 7
1.239736 2.471118 -0.001663 3
1.252078 2.473423 -0.002865 3
1.263075 2.474180 -0.003724 1
1.292084 2.516662 -0.012789 1
1.314323 2.504383 -0.012246 11
1.441995 2.544235 -0.027931 1
1.993733 2.117394 -0.014793 1
2.022564 2.088657 -0.014123 1
2.451272 -1.081806 0.027209 1
1.497602 -2.865010 0.013954 1
1.304102 -2.962794 0.008699 10
0.216006 -3.183284 -0.008724 1
0.239820 3.473707 -0.033246 1
0.252504 3.472526 -0.032921 1
0.263976 3.471417 -0.032627 1
0.275444 3.470270 -0.032334 1
0.287511 3.469022 -0.032026 1
0.299574 3.467732 -0.031717 1
0.312236 3.466331 -0.031394 1
0.324289 3.464955 -0.031086 1
0.336338 3.463536 -0.030778 1
0.347779 3.462149 -0.030486 1
0.360420 3.460572 -0.030164 1
0.372453 3.459027 -0.029857 1
0.384481 3.457440 -0.029551 1
0.395902 3.455894 -0.029260 1
0.407919 3.454225 -0.028953 1
0.419929 3.452514 -0.028648 1
0.432534 3.450673 -0.028327 1
0.444532 3.448876 -0.028021 1
0.456524 3.447037 -0.027716 1
0.468510 3.445157 -0.027412 1
0.479890 3.443332 -0.027122 1
0.491264 3.441469 -0.026833 1
0.497247 3.440473 -0.026681 1
0.527567 3.507530 -0.036990 1
0.527140 3.435338 -0.025923 1
0.539084 3.433212 -0.025620 1
0.551617 3.430933 -0.025302 1
0.563546 3.428721 -0.024999 1
0.575467 3.426467 -0.024697 1
0.586784 3.424287 -0.024410 1
0.598689 3.421952 -0.024109 1
0.610586 3.419575 -0.023808 1
0.622475 3.417157 -0.023507 1
0.634355 3.414697 -0.023207 1
0.646820 3.412070 -0.022891 1
0.658682 3.409525 -0.022592 1
0.681788 3.404444 -0.022008 1
0.693623 3.401778 -0.021709 1
0.705449 3.399069 -0.021411 1
0.717266 3.396320 -0.021112 1
0.729073 3.393529 -0.020815 1
0.764434 3.384911 -0.019924 10
0.775613 3.382104 -0.019642 1
0.846578 3.363363 -0.017858 1
1.905256 2.538102 0.049273 1
1.951475 2.587428 0.039955 1
1.895609 2.490180 0.055784 1
1.911707 2.492528 0.054328 1
1.937835 2.507095 0.050660 1
1.941516 2.493911 0.051972 1
1.923383 2.437066 0.060118 10
1.930062 2.410909 0.062726 10
2.044484 2.511352 0.042159 10
1.955073 2.389750 0.063317 1
1.962064 2.381140 0.063788 1
1.984639 2.390432 0.060953 1
1.987702 2.377262 0.062249 1
2.006441 2.381912 0.060242 1
2.051579 2.416054 0.052734 1
2.070116 2.420783 0.050722 1
2.113016 2.451511 0.043773 1
2.147733 2.473562 0.038468 1
2.158986 2.468704 0.038120 1
