# .PCD v.7 - Point Cloud Data file format
VERSION .7
FIELDS x y z intensity
SIZE 4 4 4 1
TYPE F F F U
COUNT 1 1 1 1
WIDTH 1556
HEIGHT 1
VIEWPOINT 0 0 0 1 0 0 0
POINTS 1556
DATA ascii
2.840682 12.735677 0.015170 39
2.887713 12.733593 0.013794 43
2.927113 12.712914 0.013901 40
3.168602 13.178289 -0.025213 8
3.176219 13.084109 -0.019160 9
3.120907 12.838805 -0.000925 14
3.057607 12.579396 0.018505 12
3.524562 13.537699 -0.061105 10
3.722334 13.746874 -0.081762 26
3.773278 13.623342 -0.075352 16
3.539906 12.997609 -0.025847 19
3.857925 13.575760 -0.075195 5
4.048748 13.414833 -0.071541 9
4.073623 13.247317 -0.061554 24
4.134083 13.261904 -0.064763 14
4.173279 13.233420 -0.064393 15
4.205154 13.190572 -0.062831 24
4.225937 13.126328 -0.059478 42
4.383131 13.328149 -0.078519 24
4.502909 13.459324 -0.091584 26
4.404078 13.164491 -0.068821 16
4.398383 13.045818 -0.061000 42
4.562148 13.252455 -0.080660 18
4.459504 12.963583 -0.058169 26
4.580904 13.088470 -0.070962 33
4.550514 12.932476 -0.059837 45
4.601737 12.927152 -0.061571 68
4.676207 12.963480 -0.066897 50
4.741281 12.982023 -0.070730 26
4.788942 12.968980 -0.071871 26
4.834625 12.952282 -0.072715 20
4.882255 12.938872 -0.073860 16
4.989519 12.932177 -0.077951 28
5.010949 12.873437 -0.075205 26
5.096969 12.929229 -0.082338 18
5.077323 12.801719 -0.073596 22
5.167764 12.859147 -0.081046 20
5.250429 12.902437 -0.087302 22
5.327256 12.930402 -0.092374 18
5.370949 12.908286 -0.092934 48
5.414604 12.890688 -0.093782 100
5.470858 12.888552 -0.096147 43
5.548433 12.919925 -0.101517 16
5.566499 12.856587 -0.098479 48
5.616436 12.843682 -0.099948 50
5.685813 12.860753 -0.104123 65
5.724999 12.830643 -0.104093 65
3.908906 9.895800 0.155582 2
3.924488 9.851997 0.157481 2
3.868861 9.702110 0.169013 2
3.844975 9.598011 0.176325 2
3.833127 9.519320 0.181553 1
3.813286 9.426626 0.187977 1
3.767964 9.298054 0.197718 1
3.753673 9.215764 0.203244 1
3.752600 9.153284 0.206964 1
3.767248 9.113731 0.208574 0
3.761808 9.049160 0.212608 0
3.787562 9.025891 0.212711 0
3.740942 8.902223 0.222169 0
3.747417 8.853221 0.224688 0
3.779516 8.839687 0.223887 0
3.792667 8.800334 0.225501 0
3.798484 8.751374 0.228021 0
3.782540 8.673716 0.233262 0
3.780518 8.615383 0.236692 0
3.826359 8.620721 0.234076 0
3.831148 8.571946 0.236599 0
3.902800 8.501448 0.236909 0
3.931428 8.484071 0.236406 0
3.979813 8.491600 0.233480 0
4.065503 8.438284 0.231961 14
4.101521 8.429572 0.230544 12
4.133727 8.418679 0.229439 12
4.171005 8.413805 0.227726 11
4.210906 8.406611 0.225991 11
4.255935 8.410565 0.223365 11
4.294637 8.404062 0.221637 11
4.334660 8.396281 0.219897 11
4.370827 8.386382 0.218469 2
4.466712 8.393202 0.212875 2
4.489868 8.367718 0.212963 1
4.556437 8.394191 0.207892 3
4.639073 8.432925 0.201274 6
4.683586 8.430669 0.198922 3
4.693495 8.389635 0.200527 4
4.796006 8.398995 0.194294 8
4.834002 8.391239 0.192557 9
4.930163 8.443624 0.184407 7
4.988732 8.399941 0.183326 14
5.115906 8.433405 0.174332 3
5.154315 8.424305 0.172583 6
5.178723 8.395306 0.172641 9
5.246176 8.413265 0.167824 3
5.287455 8.406441 0.165764 3
5.342543 8.408247 0.162457 3
5.393640 8.408201 0.159465 3
5.460434 8.426119 0.154649 3
5.513061 8.424184 0.151639 3
5.566018 8.427393 0.148346 3
5.610539 8.421950 0.145969 3
5.673536 8.431669 0.141740 3
5.736693 8.441037 0.137509 3
5.792682 8.440410 0.134181 3
5.850354 8.443588 0.130556 3
5.901054 8.442339 0.127555 3
5.974760 8.457206 0.122379 3
6.059030 8.483922 0.115986 2
6.152352 8.518279 0.108668 3
6.234279 8.541264 0.102573 2
6.306319 8.557134 0.097407 2
6.394630 8.584565 0.090690 1
6.484864 8.615619 0.083674 1
8.428226 10.301586 -0.114798 1
8.463614 10.267916 -0.115443 1
8.486939 10.223548 -0.114859 1
8.504087 10.173868 -0.113660 1
8.542063 10.142523 -0.114614 1
8.573915 10.105804 -0.114955 1
8.575391 10.042984 -0.112217 1
8.619031 10.016504 -0.113789 1
8.615409 9.953006 -0.110726 1
8.658806 9.926305 -0.112300 1
8.662359 9.866165 -0.109868 1
8.699386 9.834123 -0.110827 1
7.268074 8.592349 0.035333 1
7.320868 8.527735 0.034738 1
7.385663 8.472724 0.032906 1
7.438491 8.464028 0.029841 4
7.517706 8.473186 0.024286 4
7.595792 8.483549 0.018743 4
7.654635 8.472966 0.015330 2
7.728005 8.475932 0.010382 2
8.810886 9.252812 -0.093275 1
8.887221 9.251407 -0.098261 1
8.842798 9.158169 -0.091486 1
8.876174 9.127087 -0.092433 1
8.894889 9.082058 -0.091849 1
8.911618 9.032728 -0.090972 1
8.917095 8.978203 -0.089148 1
8.940273 8.939736 -0.089166 1
8.955005 8.892282 -0.088271 1
8.983862 8.852220 -0.088635 1
9.000105 8.808934 -0.088034 1
9.009673 8.761017 -0.086811 1
9.034787 8.718462 -0.086866 1
9.007401 8.639326 -0.081948 1
9.016286 8.591560 -0.080724 1
9.046009 8.555455 -0.081382 1
9.041363 8.498680 -0.078912 1
9.058871 8.451597 -0.078344 1
9.091438 8.417534 -0.079314 1
9.097363 8.365632 -0.077794 1
9.108432 8.320113 -0.076879 1
9.131859 8.277303 -0.076933 1
9.143836 8.229826 -0.076036 1
9.182402 8.199684 -0.077632 1
9.194047 8.152124 -0.076734 1
9.214345 8.112950 -0.076755 1
9.244615 8.080118 -0.077712 1
9.260361 8.032640 -0.077145 1
9.213761 7.949156 -0.070938 1
9.231170 7.905914 -0.070663 1
9.240417 7.860421 -0.069745 1
9.267707 7.823353 -0.070408 1
9.292645 7.782152 -0.070777 1
9.318499 7.746846 -0.071423 1
9.326015 7.695276 -0.070228 1
9.348160 7.657811 -0.070563 1
9.364451 7.614267 -0.070289 1
9.382878 7.574673 -0.070311 1
9.389624 7.523105 -0.069115 1
9.422718 7.489376 -0.070408 1
9.416424 7.435865 -0.068236 1
9.435349 7.394158 -0.068275 1
9.450637 7.350455 -0.068002 1
9.469250 7.308654 -0.068042 1
9.481810 7.260968 -0.067472 1
9.492003 7.217274 -0.066866 1
9.510131 7.175365 -0.066907 1
9.517556 7.127765 -0.066005 1
9.542404 7.089528 -0.066674 1
9.531830 7.032635 -0.064199 1
9.531608 6.981420 -0.062666 1
9.533674 6.934118 -0.061429 1
9.539102 6.888688 -0.060506 1
9.514402 6.823008 -0.056784 1
9.509737 6.770354 -0.054932 1
9.528814 6.732285 -0.055267 1
9.520175 6.677981 -0.053099 1
9.522034 6.629081 -0.051875 1
9.513909 6.572999 -0.049721 1
9.532331 6.534916 -0.050056 1
9.530004 6.484443 -0.048514 1
9.508499 6.427516 -0.045375 1
9.513884 6.378662 -0.044480 1
9.522679 6.331523 -0.043901 1
9.522197 6.285064 -0.042654 1
9.525158 6.240325 -0.041723 1
9.536121 6.196909 -0.041442 1
9.546922 6.153481 -0.041160 1
9.528410 6.097082 -0.038346 1
9.549787 6.058553 -0.039013 1
9.546326 6.006769 -0.037481 1
9.556417 5.963409 -0.037198 1
9.565486 5.922052 -0.036898 1
9.541369 5.866680 -0.033742 1
9.558292 5.826500 -0.034092 1
9.552985 5.777076 -0.032539 1
9.558535 5.732303 -0.031936 1
9.564731 5.685537 -0.031351 1
9.591304 5.651768 -0.032637 1
9.592666 5.605497 -0.031716 1
9.541935 5.538745 -0.026343 1
9.543609 5.446807 -0.024496 11
9.559836 5.404612 -0.024862 11
9.615393 5.381943 -0.028696 4
9.601609 5.282341 -0.025590 1
9.612010 5.242599 -0.025604 1
9.604271 5.194003 -0.024040 1
9.565596 5.136731 -0.019906 1
9.542406 5.083104 -0.017063 1
9.502861 4.979108 -0.012009 4
9.494066 4.931285 -0.010438 4
9.493305 4.884140 -0.009522 4
9.495461 4.840323 -0.008908 8
9.496789 4.798539 -0.008276 9
9.506198 4.757277 -0.008300 9
9.515457 4.715995 -0.008325 6
9.513180 4.671041 -0.007389 5
9.495524 4.621328 -0.005171 4
9.530931 4.588465 -0.007437 2
9.490067 4.531834 -0.003295 1
9.520788 4.499670 -0.005224 1
9.486535 4.447741 -0.001702 1
9.494687 4.406622 -0.001724 1
9.480329 4.356733 0.000163 1
9.504049 4.318112 -0.001160 1
9.484335 4.271284 0.001084 1
9.491290 4.232226 0.001081 1
9.510190 4.194377 0.000096 1
9.521277 4.154316 -0.000246 1
9.497599 4.104804 0.002306 1
9.508373 4.064787 0.001965 1
9.495881 4.018620 0.003554 1
9.510214 3.979616 0.002891 1
9.512316 3.939574 0.003211 1
9.468406 3.885798 0.007380 1
9.451339 3.839124 0.009296 1
9.453444 3.797367 0.009602 1
9.451522 3.754690 0.010231 1
9.449441 3.712061 0.010860 1
9.454965 3.671304 0.010844 1
9.448689 3.627847 0.011797 1
9.446136 3.585351 0.012428 1
9.443427 3.542905 0.013060 1
9.444454 3.501366 0.013369 1
9.445331 3.459852 0.013678 1
9.457755 3.420852 0.013017 1
9.462241 3.380163 0.013004 1
9.466581 3.339472 0.012990 1
9.380895 3.280624 0.020423 1
9.404437 3.244123 0.018793 1
9.396556 3.201390 0.019754 1
9.384599 3.157990 0.021040 1
9.388151 3.117640 0.021030 1
9.387277 3.078550 0.021362 1
9.410165 3.041758 0.019730 1
9.393675 2.997887 0.021343 1
9.384874 2.955518 0.022308 1
9.403431 2.917904 0.021000 1
9.374668 2.872345 0.023591 1
9.385077 2.833405 0.022933 1
9.399291 2.795041 0.021950 1
9.397616 2.754152 0.022268 1
9.387912 2.712101 0.023237 1
9.378052 2.670139 0.024206 1
9.383821 2.630548 0.023875 1
9.393399 2.591496 0.023217 1
9.387044 2.550223 0.023863 1
9.396346 2.511132 0.023205 1
9.342005 2.465719 0.027781 1
9.323331 2.423242 0.029408 1
9.328238 2.383845 0.029079 1
9.309258 2.341582 0.030708 1
9.317841 2.302695 0.030053 1
9.306481 2.261529 0.031031 1
9.322714 2.223491 0.029723 1
9.295208 2.180742 0.032010 1
9.319098 2.143472 0.030048 1
9.299226 2.101741 0.031682 1
9.291105 2.061296 0.032337 1
9.294749 2.022013 0.032010 1
9.274429 1.980617 0.033648 1
9.257931 1.939711 0.034960 1
9.265124 1.900867 0.034307 1
9.244361 1.859825 0.035949 1
9.263062 1.823844 0.034329 1
9.269854 1.784942 0.033676 1
9.189135 1.738169 0.040226 1
9.179594 1.700430 0.040904 1
9.173905 1.663002 0.041255 1
9.168309 1.621735 0.041574 1
9.166439 1.582672 0.041582 1
9.156469 1.543233 0.042247 1
9.162200 1.506549 0.041613 1
9.156025 1.465437 0.041935 1
9.145640 1.426160 0.042602 1
9.143085 1.387246 0.042611 1
9.124456 1.347841 0.043938 1
9.121572 1.310964 0.043964 1
9.094750 1.269638 0.045936 1
9.103563 1.233150 0.044975 1
9.088375 1.194232 0.045976 1
9.025247 1.152789 0.050921 1
9.017750 1.114349 0.051266 1
9.014091 1.077911 0.051297 1
8.998360 1.039529 0.052303 1
9.010399 1.001287 0.050998 1
8.998386 0.963020 0.051676 1
8.966297 0.923048 0.053991 1
8.958017 0.886889 0.054355 1
8.961577 0.850630 0.053728 1
8.960999 0.812505 0.053416 1
8.944305 0.772794 0.054412 1
8.947393 0.732732 0.053754 1
8.934502 0.696883 0.054452 1
8.921492 0.661116 0.055151 1
8.932137 0.620828 0.053831 1
8.910840 0.583552 0.055179 1
8.897380 0.546094 0.055865 1
8.903703 0.507841 0.054892 1
8.894056 0.472196 0.055262 1
8.840405 0.436959 0.059270 1
8.802456 0.399340 0.061937 1
8.796434 0.363883 0.061979 1
8.778126 0.325446 0.062988 1
-14.108750 1.029814 -0.016535 1
-14.092617 1.072107 -0.014906 1
-14.100259 1.114534 -0.015199 1
-14.103765 1.156960 -0.015172 1
-14.095162 1.199205 -0.014185 1
-14.114318 1.241971 -0.015438 1
-14.085490 1.283715 -0.012853 1
-14.104347 1.326586 -0.014106 1
-14.103191 1.366851 -0.013777 1
-14.093860 1.408955 -0.012792 1
-14.120242 1.452363 -0.014682 1
-14.110614 1.494471 -0.013697 1
-14.096857 1.536338 -0.012394 1
-14.102869 1.579081 -0.012687 1
-14.096786 1.621251 -0.012023 1
-14.110460 1.664491 -0.012954 1
-14.096119 1.706190 -0.011653 1
-14.101532 1.749040 -0.011945 1
-14.118730 1.792725 -0.013193 1
-14.108071 1.832484 -0.012229 1
-14.089025 1.875835 -0.010595 1
-14.097814 1.919075 -0.011206 1
-14.082601 1.960479 -0.009909 1
-14.111131 2.003319 -0.012126 1
-14.091658 2.044342 -0.010511 1
-14.079800 2.088074 -0.009516 1
-14.167425 2.136831 -0.016495 1
-14.087973 2.172081 -0.010119 1
-14.079621 2.216117 -0.009443 1
-14.146899 2.263757 -0.014828 1
-14.067311 2.296032 -0.008477 1
-14.070398 2.341277 -0.008753 1
-14.136938 2.391745 -0.014116 1
-14.128039 2.433766 -0.013456 1
-14.130870 2.477194 -0.013748 1
-14.050726 2.508102 -0.007408 1
-14.033247 2.550867 -0.006102 1
-14.019847 2.591945 -0.005131 1
-14.022111 2.635104 -0.005425 1
-14.087700 2.685024 -0.010794 1
-14.041965 2.723793 -0.007277 1
-14.016142 2.763050 -0.005359 1
-14.009907 2.805118 -0.005021 1
-13.988084 2.842633 -0.003438 1
-13.981900 2.882504 -0.003119 1
-13.970976 2.925914 -0.002451 1
-13.972042 2.969119 -0.002746 1
-13.957224 3.009707 -0.001780 1
-13.962276 3.051501 -0.002408 1
-13.947180 3.092001 -0.001443 1
-14.026153 3.149279 -0.008037 1
-13.951502 3.181298 -0.002332 1
-13.940275 3.220316 -0.001701 1
-13.936362 3.262859 -0.001682 1
-13.916638 3.302374 -0.000405 1
-13.994595 3.361048 -0.006989 1
-13.898915 3.472315 -0.000335 13
-13.890644 3.511887 -0.000020 12
-13.862304 3.549320 0.001879 4
-13.883128 3.640995 -0.000598 1
-13.920505 3.693141 -0.004030 1
-13.848944 3.808108 0.000406 26
-13.839062 3.849585 0.000734 24
-13.817414 3.888187 0.002001 13
-13.854954 3.985493 -0.002037 1
-13.844981 4.024917 -0.001726 1
-13.838738 4.065306 -0.001728 1
-13.831274 4.109831 -0.001697 1
-13.812633 4.149191 -0.000746 1
-13.813667 4.191593 -0.001373 1
-13.798601 4.231892 -0.000736 1
-13.775142 4.272053 0.000541 1
-13.771897 4.313370 0.000225 1
-13.771757 4.357856 -0.000386 1
-13.756720 4.395895 0.000233 1
-13.740358 4.437984 0.000884 1
-13.632030 4.494899 0.008379 2
-13.612738 4.531261 0.009304 1
-13.630825 4.581293 0.007133 1
-13.622053 4.623190 0.007140 2
-13.597919 4.660273 0.008392 1
-13.638250 4.717846 0.004357 1
-13.670732 4.773294 0.000945 1
-13.649235 4.813705 0.001902 1
-13.628273 4.851974 0.002841 1
-13.622992 4.893172 0.002521 2
-13.620656 4.937691 0.001907 1
-13.621924 4.983532 0.000983 1
-13.616181 5.024786 0.000664 1
-13.628402 5.074668 -0.001191 1
-13.640416 5.124683 -0.003044 1
-13.592148 5.153330 0.000061 1
-13.576839 5.195930 0.000392 1
-13.554626 5.233708 0.001326 1
-13.529294 5.267979 0.002552 1
-13.506847 5.305540 0.003484 1
-13.517096 5.357696 0.001646 1
-13.476494 5.386035 0.004107 1
-13.467775 5.431082 0.003815 1
-13.434432 5.461973 0.005655 1
-13.422491 5.503455 0.005655 1
-13.395576 5.539011 0.006891 1
-13.401859 5.587818 0.005346 1
-13.363596 5.618724 0.007505 1
-13.333449 5.650461 0.009031 1
-13.342935 5.700803 0.007177 1
-13.310904 5.736332 0.008731 1
-13.291454 5.772391 0.009329 1
-13.282057 5.815038 0.009016 1
-13.257847 5.851372 0.009936 1
-13.229010 5.887973 0.011177 1
-13.201775 5.920505 0.012387 1
-13.196330 5.962594 0.011749 1
-13.168880 5.994944 0.012958 1
-13.155005 6.035673 0.012949 1
-13.130092 6.071412 0.013863 1
-13.123187 6.115359 0.013239 1
-13.090781 6.147582 0.014765 1
-13.075444 6.190028 0.014769 1
-13.049128 6.227322 0.015694 1
-13.028125 6.262345 0.016281 1
-13.014201 6.300742 0.016254 1
-12.938203 6.311457 0.021456 1
-12.980494 6.379526 0.016533 1
-12.961642 6.417957 0.016825 1
-12.942656 6.456321 0.017117 1
-12.919971 6.492830 0.017714 1
-12.826965 6.491311 0.024423 1
-12.875211 6.563666 0.018891 1
-12.798986 6.572510 0.024078 1
-12.783000 6.612144 0.024059 1
-12.815337 6.679541 0.019769 1
-12.743542 6.687555 0.024629 1
-12.727135 6.727032 0.024607 1
-12.685991 6.753250 0.026725 1
-12.676356 6.796350 0.026090 1
-12.666551 6.839453 0.025455 1
-12.708974 6.911425 0.020239 1
-12.594129 6.896616 0.028765 1
-12.584949 6.937687 0.028114 1
-12.557204 6.970813 0.029003 1
-12.543222 7.011708 0.028671 1
-12.539464 7.058530 0.027423 1
-12.497528 7.083438 0.029529 1
-12.486558 7.126204 0.028890 1
-12.478857 7.170989 0.027946 1
-12.515581 7.242218 0.023042 1
-12.428656 7.240174 0.029103 1
-12.399967 7.272560 0.029984 1
-12.446203 7.350327 0.024170 1
-10.062873 5.980462 0.234269 3
-9.953930 5.951920 0.242689 2
-13.697175 7.561800 0.087901 1
-13.667237 7.598801 0.088726 1
-13.654531 7.645545 0.088256 1
-13.627790 7.684334 0.088821 1
-13.597466 7.721020 0.089643 1
-13.587719 7.769638 0.088914 1
-13.553685 7.804112 0.089992 1
-13.549262 7.858766 0.088761 1
-13.525241 7.899173 0.089063 1
-13.509130 7.941598 0.088833 1
-13.477995 7.977724 0.089649 1
-13.456964 8.019964 0.089691 1
-10.023103 5.960964 0.348478 1
-9.847007 5.926775 0.359702 2
-9.761363 5.913040 0.365065 1
-9.678493 5.894704 0.370394 2
-9.597142 5.918162 0.374394 2
-9.509635 5.899091 0.379990 2
-9.454542 5.975659 0.380830 26
-9.354216 5.946223 0.387442 15
-9.310423 5.954128 0.389686 11
-9.213067 5.962430 0.394936 15
-9.182545 5.978640 0.396148 8
-9.115956 5.969617 0.400178 3
-9.042981 5.955608 0.404718 15
-8.972398 5.979472 0.407897 2
-8.955830 6.002696 0.408067 2
-8.896229 5.996710 0.411573 3
-8.843212 5.995065 0.414564 7
-8.799953 6.000187 0.416785 6
-8.763166 6.009809 0.418493 8
-8.716784 6.012092 0.420967 5
-8.680057 6.021289 0.422672 4
-8.636972 6.025484 0.424886 4
-8.600298 6.034269 0.426587 4
-8.560473 6.040434 0.428542 4
-8.511203 6.039072 0.431261 4
-8.465175 6.039876 0.433723 4
-8.422365 6.042879 0.435928 3
-8.393043 6.054401 0.437102 4
-8.356573 6.061942 0.438794 5
-8.320130 6.069290 0.440484 5
-8.279716 6.075046 0.442435 5
-8.227828 6.069426 0.445395 4
-8.198592 6.080085 0.446563 4
-8.156129 6.081553 0.448755 3
-8.113730 6.082787 0.450946 7
-8.083666 6.094010 0.452117 4
-8.047482 6.099953 0.453796 4
-8.005235 6.100550 0.455982 4
-7.969137 6.106091 0.457657 4
-7.942165 6.119238 0.458569 4
-7.894025 6.113996 0.461258 4
-7.852913 6.112691 0.463429 4
-7.819993 6.120080 0.464845 3
-7.787093 6.127302 0.466259 4
-7.754213 6.134356 0.467672 4
-7.721356 6.141244 0.469083 4
-7.679622 6.139951 0.471254 4
-7.643881 6.143794 0.472916 4
-7.608183 6.147449 0.474577 4
-7.569592 6.148217 0.476489 4
-7.533992 6.151490 0.478146 4
-7.502258 6.156333 0.479543 4
-7.474571 6.168411 0.480445 4
-7.436172 6.168427 0.482351 5
-7.401634 6.170041 0.483997 5
-7.368220 6.176133 0.485401 5
-7.321382 6.167246 0.488061 5
-7.294706 6.177577 0.488951 5
-7.262318 6.182200 0.490344 5
-7.233713 6.188542 0.491477 5
-7.204216 6.195667 0.492616 5
-7.164347 6.190453 0.494757 5
-7.134012 6.198162 0.495899 6
-7.107403 6.207663 0.496781 6
-7.076115 6.210445 0.498161 6
-7.043954 6.213965 0.499546 6
-7.009057 6.214453 0.501182 9
-6.971454 6.211882 0.503068 4
-6.939438 6.214891 0.504449 4
-6.901975 6.211942 0.506332 4
-6.867328 6.211704 0.507962 8
-6.843637 6.222963 0.508583 8
-6.912441 6.371487 0.499003 2
-6.899968 6.393770 0.498613 1
-6.744243 6.260231 0.511558 2
-6.707120 6.256141 0.513432 2
-6.675410 6.257804 0.514802 2
-6.646398 6.262295 0.515920 5
-6.620974 6.268826 0.516779 9
-6.592005 6.273055 0.517895 7
-6.549957 6.262091 0.520265 19
-6.539372 6.287138 0.519620 17
-6.515666 6.297030 0.520231 5
-6.494537 6.309860 0.520589 21
-6.475953 6.325654 0.520696 8
-6.441903 6.323045 0.522307 4
-6.397696 6.308004 0.524920 7
-6.366383 6.308089 0.526278 6
-6.330978 6.301093 0.528130 4
-6.299795 6.300859 0.529485 2
-6.271182 6.303573 0.530589 2
-6.245108 6.309260 0.531441 2
-6.236501 6.336653 0.530539 1
-6.245134 6.385935 0.527884 1
-6.079193 6.328287 0.537533 108
-6.058118 6.339462 0.537878 108
-6.039433 6.353732 0.537972 108
-6.021636 6.367229 0.538061 109
-6.000459 6.378177 0.538404 109
-5.981639 6.392246 0.538497 109
-5.967515 6.412670 0.538089 110
-5.955659 6.436280 0.537431 112
-5.924885 6.434057 0.538770 114
-5.903532 6.444626 0.539110 115
-5.884480 6.458356 0.539199 116
-5.863064 6.468768 0.539537 116
-5.850844 6.492136 0.538877 115
-5.834883 6.508273 0.538711 111
-5.806479 6.508662 0.539796 73
-5.796289 6.535185 0.538885 46
-5.785962 6.561705 0.537973 22
-5.773248 6.584920 0.537311 13
-5.760418 6.608115 0.536649 9
-5.746231 6.627313 0.536231 7
-5.735400 6.653780 0.535318 6
-5.726633 6.683569 0.534157 5
-5.719895 6.716704 0.532746 5
-5.710792 6.746516 0.531585 5
-5.699359 6.772981 0.530672 2
-5.700724 6.819596 0.528265 2
-5.698543 6.858904 0.526353 2
-5.695112 6.898912 0.524444 2
-5.682962 6.925440 0.523531 2
-5.677001 6.962123 0.521872 2
-5.672926 7.002233 0.519963 2
-5.668617 7.042387 0.518055 4
-5.642796 7.095474 0.516227 22
-5.648225 7.148111 0.513317 24
-5.657310 7.212428 0.509670 30
-5.660841 7.270649 0.506524 22
-5.679204 7.352459 0.501637 16
-5.681018 7.406844 0.498737 17
-5.700414 7.492464 0.493603 15
-5.710510 7.560304 0.489708 13
-8.423714 12.410380 0.144392 32
-8.378048 12.413224 0.145754 34
-8.322613 12.407654 0.147873 24
-8.265363 12.398343 0.150238 29
-8.217850 12.406276 0.151361 30
-8.164554 12.408084 0.152985 30
-8.117108 12.415610 0.154105 32
-8.066033 12.411316 0.155961 34
-8.018673 12.418447 0.157078 35
-7.969480 12.421853 0.158441 39
-7.922330 12.424014 0.159796 43
-7.871243 12.428053 0.161162 43
-7.822203 12.430848 0.162520 40
-7.769784 12.421748 0.164614 40
-7.722683 12.427693 0.165721 37
-7.675611 12.433449 0.166827 35
-7.626799 12.435437 0.168179 35
-7.576283 12.433640 0.169776 33
-7.529341 12.438810 0.170878 36
-7.480698 12.440197 0.172225 48
-7.435555 12.448587 0.173075 54
-7.387004 12.449586 0.174419 46
-7.335422 12.438605 0.176499 48
-7.288713 12.442816 0.177592 48
-7.240369 12.443215 0.178932 45
-7.193746 12.447048 0.180022 48
-7.147160 12.450694 0.181111 49
-7.097346 12.446870 0.182693 49
-7.058105 12.455653 0.183276 45
-7.009637 12.459642 0.184365 45
-6.964399 12.470750 0.184959 45
-6.921993 12.471752 0.186032 48
-6.872481 12.466977 0.187606 45
-6.824622 12.465672 0.188932 51
-6.781467 12.475217 0.189516 54
-6.732175 12.469854 0.191086 48
-6.686019 12.471671 0.192161 36
-6.641415 12.477002 0.192987 30
-6.595337 12.478460 0.194059 33
-6.552793 12.482643 0.194878 30
-6.512671 12.498601 0.194960 25
-6.460849 12.484678 0.197015 28
-6.413507 12.481703 0.198328 39
-6.371960 12.493447 0.198652 33
-6.320469 12.478913 0.200702 24
-6.271940 12.471635 0.202258 24
-6.227686 12.475386 0.203071 19
-6.176572 12.460232 0.205117 19
-6.131073 12.459868 0.206175 21
-6.095087 12.485625 0.205505 19
-6.054288 12.491748 0.206063 24
-6.023417 12.532327 0.204405 22
-5.984438 12.550207 0.204225 28
-5.949282 12.579282 0.203305 49
-5.899088 12.571143 0.204851 42
-5.854845 12.573466 0.205653 43
-5.822732 12.605256 0.204479 42
-5.782187 12.618666 0.204540 31
-5.746529 12.647121 0.203613 25
-5.707873 12.659611 0.203669 43
-5.665932 12.668813 0.203972 42
-5.620389 12.666436 0.205013 40
-5.572545 12.656256 0.206545 42
-5.528320 12.657337 0.207337 39
-5.479515 12.642965 0.209113 40
-5.442263 12.666654 0.208425 39
-5.396995 12.663415 0.209459 37
-5.352906 12.663836 0.210245 33
-5.306654 12.656417 0.211523 39
-5.268108 12.675707 0.211076 34
-5.228286 12.682765 0.211365 31
-5.185351 12.686400 0.211900 36
-5.138239 12.674470 0.213419 42
-5.097456 12.685490 0.213459 36
-5.051530 12.677068 0.214729 36
-5.008723 12.680058 0.215260 36
-4.967921 12.690626 0.215297 36
-4.919239 12.670090 0.217301 45
-4.880406 12.688091 0.216843 42
-4.836717 12.686581 0.217614 42
-4.795893 12.696548 0.217646 42
-4.754108 12.702488 0.217923 36
-4.706840 12.684959 0.219675 39
-4.666023 12.694473 0.219703 36
-4.624557 12.691701 0.220467 36
-4.581674 12.701385 0.220494 31
-4.539083 12.702663 0.221010 34
-4.494330 12.683835 0.222754 37
-4.455182 12.700417 0.222284 36
-4.413494 12.705144 0.222551 33
-4.372608 12.713634 0.222571 69
-4.332948 12.717653 0.222834 51
-4.289971 12.726268 0.222853 36
-4.244430 12.710814 0.224344 37
-4.202025 12.710871 0.224851 31
-4.162429 12.714314 0.225110 28
-4.113555 12.678738 0.227828 27
-4.074892 12.697967 0.227101 41
-4.036817 12.721000 0.226128 39
-3.995196 12.724241 0.226382 35
-3.953577 12.727334 0.226636 35
-3.914010 12.729939 0.226888 46
-3.871757 12.728804 0.227385 46
-3.830163 12.731460 0.227635 44
-3.787961 12.730023 0.228130 42
-3.747592 12.740276 0.227886 44
-3.703654 12.726696 0.229116 34
-3.658686 12.705050 0.230836 37
-3.619483 12.722764 0.230097 39
-3.581679 12.736109 0.229602 31
-3.540690 12.741694 0.229598 33
-3.497090 12.727345 0.230822 35
-3.456636 12.736595 0.230569 31
-3.415156 12.737782 0.230807 38
-3.375257 12.734613 0.231291 41
-3.336129 12.755340 0.230297 41
-3.291474 12.728333 0.232253 44
-3.252259 12.748780 0.231257 41
-3.210383 12.745275 0.231735 38
-3.169772 12.753537 0.231474 33
-3.128725 12.757685 0.231458 37
-3.087282 12.757715 0.231686 33
-3.044020 12.737722 0.233144 42
-3.003381 12.745408 0.232878 49
-2.964074 12.744823 0.233104 55
-2.919381 12.728525 0.234311 49
-2.880291 12.755681 0.232812 45
-2.840098 12.742740 0.233773 48
-2.799374 12.749720 0.233501 45
-2.757099 12.764664 0.232735 44
-2.716527 12.775339 0.232215 27
-2.675889 12.785875 0.231694 35
-2.636333 12.780210 0.232157 37
-2.595840 12.794456 0.231387 34
-2.553649 12.776663 0.232585 30
-2.512711 12.782648 0.232305 30
-2.471566 12.784503 0.232270 33
-2.430256 12.782224 0.232480 37
-2.389693 12.799749 0.231458 31
-2.348358 12.797184 0.231666 37
-2.306928 12.790483 0.232118 56
-2.267920 12.795557 0.231833 45
-2.224403 12.784629 0.232527 34
-2.183480 12.797452 0.231745 31
-2.142223 12.794166 0.231947 35
-2.103148 12.798694 0.231657 42
-2.062052 12.811095 0.230872 31
-2.020770 12.803391 0.231316 27
-1.979529 12.787560 0.232252 44
-1.938304 12.823484 0.229985 35
-1.896977 12.831318 0.229441 28
-1.856229 12.767146 0.233329 45
-1.814700 12.802638 0.231058 31
-1.775363 12.814065 0.230267 37
-1.733884 12.825320 0.229471 33
-1.692414 12.832438 0.228921 27
-1.651100 12.831429 0.228862 30
-1.610144 12.818304 0.229542 30
-1.568485 12.828978 0.228741 31
-1.526746 12.839505 0.227939 31
-1.487793 12.830022 0.228372 24
-1.443729 12.844163 0.227318 27
-1.403127 12.826334 0.228238 33
-1.361231 12.836277 0.227432 28
-1.319260 12.846071 0.226624 27
-1.280883 12.827935 0.227544 37
-1.240800 12.805565 0.228707 45
-1.198814 12.814931 0.227895 34
-1.155942 12.836099 0.226342 34
-1.114619 12.833217 0.226268 33
-1.073306 12.830191 0.226193 30
-1.031067 12.838961 0.225376 37
-0.989735 12.835643 0.225298 31
-0.948075 12.836159 0.224973 34
-0.910179 12.840873 0.224407 31
-0.867376 12.853035 0.223338 27
-0.825069 12.837025 0.223992 26
-0.786112 12.809152 0.225390 39
-0.741210 12.840721 0.223083 22
-0.698184 12.852272 0.222009 27
-0.659746 12.840082 0.222420 28
-0.616615 12.851336 0.221344 31
-0.573637 12.842364 0.221497 30
-0.531818 12.841413 0.221159 33
-0.488515 12.852201 0.220078 30
-0.446634 12.850950 0.219738 30
-0.409917 12.842175 0.219900 33
-0.368046 12.840647 0.219557 31
-0.323554 12.842639 0.218961 33
-0.279025 12.844464 0.218364 37
-0.237104 12.842472 0.218017 40
-0.199311 12.840947 0.217679 40
-0.157977 12.834726 0.217578 45
-0.112755 12.839873 0.216728 34
-0.066842 12.848789 0.215629 33
-0.023552 12.853927 0.214781 36
0.009101 12.820214 0.216418 45
0.055716 12.844753 0.214330 49
0.101863 12.853016 0.213225 51
0.146026 12.861467 0.212124 48
0.189563 12.865826 0.211270 42
0.231083 12.870408 0.210419 45
0.274731 12.874455 0.209562 37
0.316179 12.866579 0.209447 40
0.361967 12.869908 0.208581 37
0.406516 12.877390 0.207472 39
0.447486 12.877300 0.206863 46
0.489749 12.872731 0.206495 42
0.532829 12.871919 0.205878 45
0.575933 12.870951 0.205259 48
0.619061 12.869826 0.204639 46
0.660491 12.860748 0.204514 48
0.702440 12.863677 0.203649 45
0.748580 12.865513 0.202771 45
0.789994 12.855984 0.202642 45
0.833877 12.866227 0.201277 40
0.882715 12.887464 0.199160 45
0.927220 12.880841 0.198772 46
0.971552 12.882316 0.197893 37
1.006240 12.844897 0.199497 49
1.056314 12.877560 0.196634 39
1.101832 12.874153 0.195992 37
1.149330 12.886565 0.194362 43
1.196953 12.898790 0.192730 40
1.239511 12.899819 0.191849 45
1.275795 12.869316 0.192950 54
1.327845 12.896428 0.190318 42
1.373667 12.900254 0.189178 42
1.418466 12.900064 0.188284 43
1.464408 12.903543 0.187141 48
1.509298 12.903014 0.186244 37
1.555356 12.906145 0.185097 49
1.602621 12.912924 0.183700 37
1.647663 12.911876 0.182799 31
1.694169 12.922748 0.181158 30
1.738140 12.917543 0.180503 40
1.786902 12.927413 0.178850 36
1.832152 12.925673 0.177944 34
1.877434 12.923761 0.177035 31
1.930162 12.944457 0.174630 27
1.976838 12.945971 0.173469 22
2.144706 13.310907 0.148354 13
2.114988 13.080863 0.162408 16
2.137820 13.009883 0.165983 24
2.152399 12.916246 0.171057 16
2.172948 12.841502 0.174884 16
2.186386 12.747937 0.179959 15
2.209949 12.684505 0.183038 36
2.260200 12.696164 0.181119 34
2.309214 12.703864 0.179448 33
2.352866 12.709125 0.178042 33
2.402074 12.716446 0.176368 31
2.437337 12.686197 0.177193 31
2.490875 12.704361 0.174765 30
2.533146 12.692477 0.174337 33
2.584052 12.702772 0.172406 30
2.620514 12.675686 0.172976 30
2.674482 12.693028 0.170541 31
2.724178 12.699017 0.168856 30
2.776963 12.712202 0.166667 34
2.820845 12.702986 0.165980 36
2.867764 12.700986 0.164790 39
2.920865 12.713544 0.162596 33
2.958639 12.689073 0.162907 33
3.183509 13.105442 0.133122 26
3.143954 12.896612 0.145967 26
3.044337 12.552650 0.168101 19
3.311620 13.054565 0.132269 56
3.374621 13.083571 0.128802 22
3.424898 13.083108 0.127342 19
3.377038 12.863968 0.140950 16
3.500894 13.027037 0.128184 4
3.986960 13.518722 0.086141 3
3.896126 13.217050 0.105542 4
4.150993 13.523928 0.080682 8
4.185870 13.484607 0.081712 5
4.256914 13.301958 0.089335 42
4.323380 13.326424 0.085827 22
4.351784 13.276005 0.087611 15
4.473578 13.406307 0.076532 5
4.580220 13.404606 0.073039 12
4.424953 13.008007 0.099554 5
4.820970 13.329361 0.068780 19
4.854089 13.292835 0.069556 28
4.929965 13.227567 0.070323 21
4.946996 13.158306 0.073361 19
5.005264 13.161838 0.071087 15
5.031724 13.109784 0.072860 22
5.304747 13.482152 0.043492 13
5.021224 12.898812 0.084257 7
5.349077 13.358953 0.048287 9
5.446121 13.132995 0.056360 3
5.557992 13.031062 0.057340 42
3.741043 9.915152 0.285969 1
3.728930 9.828062 0.290850 1
3.733658 9.767959 0.293699 1
3.671804 9.541297 0.307541 3
3.668491 9.471692 0.311160 3
3.673637 9.415488 0.313762 3
3.673998 9.352731 0.316874 3
3.671748 9.286772 0.320242 4
3.675868 9.230816 0.322848 3
3.672871 9.165071 0.326219 5
3.676314 9.109285 0.328826 6
3.684012 9.060119 0.330925 5
3.682239 8.997945 0.334044 5
3.691654 8.952157 0.335890 6
3.691531 8.893414 0.338756 8
3.709733 8.860681 0.339582 8
3.713708 8.808532 0.341939 9
3.724457 8.766119 0.343532 9
3.730244 8.717298 0.345635 9
3.740517 8.674944 0.347229 10
3.758786 8.646401 0.347809 10
3.785459 8.626390 0.347612 14
3.793859 8.585022 0.349216 15
3.809528 8.548015 0.350289 16
3.833423 8.524663 0.350347 16
3.864559 8.510704 0.349636 10
3.960279 8.471205 0.347242 112
3.973899 8.434884 0.348323 25
4.009828 8.426575 0.347094 15
4.058319 8.433626 0.344582 14
4.089288 8.418761 0.343864 13
4.125289 8.409945 0.342631 12
4.153676 8.391733 0.342168 11
4.194773 8.388758 0.340419 10
4.234635 8.386667 0.338679 10
4.274554 8.379166 0.337174 10
4.315799 8.375607 0.335420 10
4.354499 8.368817 0.333922 10
4.382805 8.349752 0.333452 2
4.455571 8.387083 0.328368 2
4.477366 8.357506 0.328656 3
4.520131 8.351837 0.326883 2
4.681679 8.432641 0.315629 2
4.688922 8.388627 0.317213 3
4.775327 8.380379 0.313412 16
4.806461 8.362703 0.312671 6
4.918945 8.438175 0.303944 4
5.151165 8.422468 0.293208 3
5.163198 8.383225 0.294266 5
5.216738 8.386962 0.291441 3
5.267600 8.387560 0.288872 3
5.315753 8.385046 0.286561 3
5.365497 8.386401 0.284000 5
5.425075 8.394697 0.280647 5
5.479143 8.397036 0.277809 5
5.536154 8.401892 0.274710 4
5.576201 8.389661 0.273166 3
5.639117 8.399533 0.269542 5
5.699325 8.406280 0.266176 5
5.762549 8.415462 0.262546 3
5.811496 8.410510 0.260214 3
5.860502 8.405306 0.257879 3
5.921191 8.410796 0.254501 3
5.980717 8.417337 0.251134 3
6.041668 8.422170 0.247750 3
6.096882 8.421253 0.244885 3
6.152186 8.420041 0.242017 3
6.204626 8.415849 0.239408 3
6.277871 8.430106 0.234970 3
6.333485 8.427954 0.232094 3
6.395146 8.430812 0.228694 3
6.450947 8.428041 0.225813 3
6.517528 8.436986 0.221898 3
6.582552 8.441455 0.218228 4
6.644693 8.442947 0.214816 4
6.706948 8.444096 0.211401 4
6.772351 8.447493 0.207721 4
6.837882 8.450522 0.204039 4
6.900486 8.450615 0.200615 4
6.978509 8.463161 0.195879 4
7.038301 8.459957 0.192710 4
7.099955 8.460546 0.189291 4
7.151961 8.447511 0.186888 2
7.236769 8.463483 0.181614 2
7.290734 8.453889 0.178958 2
7.390163 8.483074 0.172379 4
7.489386 8.505898 0.166027 4
7.560961 8.460304 0.163613 22
7.682727 8.498924 0.155410 7
7.722792 8.473292 0.154034 6
7.747531 8.441139 0.153740 3
7.894094 8.499135 0.143434 1
7.952052 8.488770 0.140487 4
8.003675 8.473299 0.138065 3
8.116104 8.502888 0.130636 1
10.910816 10.516962 -0.097064 2
10.956827 10.481427 -0.098528 2
10.976950 10.426869 -0.097884 2
10.945126 10.334833 -0.093019 2
10.958190 10.275748 -0.091845 2
10.980746 10.223641 -0.091463 2
10.996582 10.166876 -0.090553 2
11.026914 10.123857 -0.090943 2
11.035777 10.062473 -0.089504 2
11.054214 10.007958 -0.088858 2
11.069139 9.951163 -0.087947 2
11.049314 9.874143 -0.084369 2
11.065235 9.815205 -0.083477 2
11.062810 9.747409 -0.081239 2
11.116508 9.717404 -0.083504 2
11.096950 9.638642 -0.079941 2
11.135532 9.601872 -0.081127 2
11.135402 9.536473 -0.079152 2
11.161774 9.488538 -0.079298 2
11.104033 9.386573 -0.072809 2
11.143328 9.347356 -0.074016 2
11.160824 9.297449 -0.073610 2
11.166056 9.236733 -0.072161 2
11.174410 9.178193 -0.070977 2
11.177144 9.113203 -0.069281 2
11.195183 9.061032 -0.068894 2
11.211620 9.011133 -0.068487 2
11.188268 8.934145 -0.064904 2
11.205618 8.882042 -0.064516 2
11.222765 8.829914 -0.064127 2
11.229397 8.771679 -0.062939 2
11.239226 8.715508 -0.062016 2
11.241922 8.655357 -0.060560 2
11.267241 8.611533 -0.060950 2
11.290269 8.563332 -0.061095 2
11.295762 8.505220 -0.059904 2
11.313625 8.457305 -0.059761 2
11.322154 8.401200 -0.058836 2
11.293320 8.321556 -0.054990 2
11.297807 8.263727 -0.053795 1
11.316075 8.213587 -0.053671 1
11.334154 8.163408 -0.053547 1
11.335488 8.110300 -0.052310 1
11.347364 8.054034 -0.051670 1
11.366071 8.001493 -0.051565 1
11.369204 7.943855 -0.050368 1
11.390958 7.901944 -0.050738 1
11.400771 7.848005 -0.050077 1
11.431713 7.804944 -0.051026 1
11.373437 7.716807 -0.045260 1
11.387262 7.662536 -0.044885 1
11.417595 7.619447 -0.045833 1
11.422714 7.563909 -0.044900 1
11.426473 7.510753 -0.043945 1
11.451589 7.468060 -0.044605 1
11.456091 7.412586 -0.043671 1
11.478399 7.365713 -0.044082 1
11.498034 7.314716 -0.044246 1
11.505528 7.260958 -0.043580 1
11.526221 7.216268 -0.043972 1
11.533327 7.162511 -0.043305 1
11.543857 7.110428 -0.042908 1
11.572391 7.066520 -0.043861 1
11.499727 6.974720 -0.037271 1
11.502246 6.919655 -0.036330 1
11.499862 6.865398 -0.035098 1
11.524939 6.817606 -0.035800 1
11.530494 6.764215 -0.035129 1
11.538518 6.714770 -0.034707 1
11.539992 6.659888 -0.033764 1
11.532900 6.604354 -0.032257 1
11.557047 6.556380 -0.032959 1
11.502457 6.479025 -0.027947 1
11.509457 6.429866 -0.027521 1
11.495921 6.367131 -0.025508 1
11.525713 6.324530 -0.026731 1
11.521926 6.268691 -0.025510 1
11.524446 6.218181 -0.024812 1
11.523955 6.163929 -0.023861 1
11.541904 6.116827 -0.024269 1
11.466296 6.034573 -0.017876 1
11.453870 5.976548 -0.016104 1
11.467420 5.928315 -0.016237 1
11.473297 5.877318 -0.015826 1
11.471472 5.823639 -0.014869 1
11.467770 5.774719 -0.013870 1
11.461778 5.719857 -0.012639 1
11.424334 5.596663 -0.008302 5
11.447860 5.552484 -0.009251 5
11.470198 5.460934 -0.009471 1
11.432624 5.396563 -0.006047 1
11.409814 5.285862 -0.003021 8
11.401878 5.231919 -0.001779 8
11.405153 5.181667 -0.001359 10
11.399895 5.131413 -0.000369 8
11.406610 5.082414 -0.000221 8
11.420786 5.035728 -0.000622 8
11.419503 4.984427 0.000075 7
11.433337 4.937697 -0.000325 5
11.456679 4.842993 -0.000851 1
11.446982 4.789605 0.000397 1
11.460136 4.742781 -0.000003 1
11.442351 4.687420 0.001797 1
11.474401 4.645852 0.000021 1
11.463927 4.592726 0.001272 1
11.460963 4.541759 0.001974 1
11.465528 4.492873 0.002126 1
11.469917 4.443997 0.002277 1
11.466392 4.393173 0.002981 1
11.462675 4.342415 0.003685 1
11.389020 4.274563 0.009357 1
11.392619 4.226064 0.009513 1
11.396044 4.177579 0.009669 1
11.387092 4.128702 0.010674 1
11.374614 4.076691 0.011937 1
11.393061 4.031896 0.010989 1
11.352950 3.973919 0.014190 1
11.363257 3.927427 0.013796 1
11.385102 3.883437 0.012571 1
11.402899 3.838497 0.011623 1
11.373677 3.783649 0.013999 1
11.312968 3.722603 0.018595 1
11.318488 3.675462 0.018481 1
11.292528 3.622096 0.020586 1
11.329024 3.581164 0.018252 1
11.310526 3.529508 0.019804 1
11.295752 3.478750 0.021080 1
11.300406 3.431738 0.020968 1
11.304479 3.387040 0.020875 1
11.285233 3.335850 0.022432 1
11.289383 3.288917 0.022321 1
11.285498 3.240646 0.022767 1
11.293246 3.194395 0.022378 1
11.237818 3.137861 0.026447 1
11.320081 3.103693 0.020764 1
11.260323 3.046894 0.025115 1
11.247670 2.997733 0.026122 1
11.215101 2.945756 0.028526 1
11.229718 2.900896 0.027582 1
11.196772 2.849258 0.029989 1
11.234777 2.807675 0.027369 1
11.201468 2.756296 0.029779 1
11.211483 2.710857 0.029115 1
11.221341 2.665371 0.028451 1
11.187199 2.616748 0.030884 1
11.185121 2.567597 0.031041 1
11.194485 2.522162 0.030378 1
11.183866 2.474441 0.031116 1
11.109363 2.422151 0.036359 1
11.102351 2.375257 0.036820 1
11.099142 2.328837 0.037001 1
11.079885 2.280883 0.038305 1
11.084285 2.235355 0.037926 1
11.048792 2.186158 0.040356 1
11.056836 2.141091 0.039698 1
11.056773 2.095307 0.039601 1
11.036664 2.047919 0.040911 1
11.048207 2.003163 0.039972 1
11.023785 1.955675 0.041566 1
11.038830 1.913460 0.040364 1
11.042100 1.865809 0.039969 1
11.045052 1.820415 0.039593 1
11.051827 1.775252 0.038935 1
11.042383 1.731415 0.039424 1
10.953345 1.678863 0.045520 1
10.939705 1.632986 0.046276 1
10.905869 1.588535 0.048464 1
10.919909 1.541885 0.047227 1
10.897809 1.495979 0.048552 1
10.883362 1.455003 0.049350 1
10.864942 1.409514 0.050394 1
10.858389 1.362271 0.050573 1
10.775877 1.313159 0.056130 1
-16.389952 1.030869 -0.031027 1
-16.397730 1.081283 -0.031162 1
-16.389372 1.131595 -0.030201 1
-16.396797 1.182062 -0.030336 1
-16.388088 1.232315 -0.029377 1
-16.387182 1.282671 -0.028965 1
-16.414028 1.333688 -0.030467 1
-16.408779 1.384025 -0.029781 1
-16.383411 1.433716 -0.027730 1
-16.389780 1.484328 -0.027865 1
-16.408028 1.532920 -0.028840 1
-16.386034 1.585042 -0.027044 1
-16.383898 1.635389 -0.026633 1
-16.377718 1.683020 -0.025971 1
-16.403009 1.737296 -0.027448 1
-16.392372 1.787261 -0.026493 1
-16.381708 1.834643 -0.025560 1
-16.394632 1.885962 -0.026239 1
-16.379498 1.935554 -0.025014 1
-16.392063 1.986976 -0.025693 1
-16.388523 2.037341 -0.025284 1
-16.380829 2.087391 -0.024604 1
-16.365004 2.136766 -0.023381 1
-16.360941 2.187037 -0.022973 1
-16.372608 2.238670 -0.023652 1
-16.372164 2.289324 -0.023516 1
-16.359623 2.338874 -0.022566 1
-16.346910 2.388351 -0.021618 1
-16.341970 2.438557 -0.021212 1
-16.349022 2.487475 -0.021639 1
-16.331831 2.536406 -0.020422 1
-16.318441 2.585676 -0.019476 1
-16.304882 2.634872 -0.018531 1
-16.295118 2.684460 -0.017857 1
-16.301332 2.733427 -0.018285 1
-16.295187 2.783472 -0.017882 1
-16.288548 2.835994 -0.017459 1
-16.274132 2.884946 -0.016517 1
-16.271751 2.932934 -0.016405 1
-16.257004 2.981772 -0.015465 1
-16.257895 3.032789 -0.015603 1
-16.270449 3.085571 -0.016550 1
-16.243341 3.132545 -0.014803 1
-16.235804 3.182384 -0.014403 1
-16.243862 3.234675 -0.015080 1
-16.153481 3.319557 -0.009193 11
-16.149227 3.369742 -0.009065 22
-16.101524 3.412513 -0.005982 8
-16.233622 3.537817 -0.015396 1
-16.185404 3.580470 -0.012315 1
-16.172380 3.629376 -0.011651 1
-16.167028 3.679707 -0.011524 1
-16.153664 3.728520 -0.010860 1
-16.151878 3.779583 -0.011002 1
-16.126429 3.825965 -0.009536 1
-16.113062 3.872125 -0.008895 1
-16.099035 3.920695 -0.008235 1
-16.104368 3.973320 -0.008912 1
-16.078287 4.019320 -0.007451 1
-15.994102 4.049962 -0.002001 1
-15.975029 4.099644 -0.001058 1
-15.940757 4.143272 0.000932 1
-15.922469 4.187829 0.001833 1
-15.934572 4.241970 0.000618 1
-16.013075 4.309390 -0.005151 1
-15.899244 4.390546 0.001793 1
-15.875695 4.436298 0.002977 1
-15.849340 4.476107 0.004388 1
-15.833247 4.523578 0.005036 1
-15.828584 4.573975 0.004886 1
-15.854624 4.632478 0.002607 1
-15.837996 4.679926 0.003255 1
-15.870647 4.743237 0.000466 1
-15.865189 4.793871 0.000317 1
-15.859546 4.844514 0.000167 1
-15.854399 4.892738 -0.000001 1
-15.840031 4.943632 0.000398 1
-15.841512 4.996480 -0.000282 1
-15.817389 5.036708 0.000855 1
-15.703698 5.055613 0.008126 1
-15.685627 5.102411 0.008767 1
-15.662853 5.150365 0.009691 1
-15.640645 5.195821 0.010595 1
-15.606853 5.237613 0.012291 1
-15.585105 5.280441 0.013174 1
-15.576922 5.332771 0.013035 1
-15.554111 5.377819 0.013935 1
-15.546328 5.427717 0.013777 1
-15.530783 5.475110 0.014147 1
-15.504504 5.516287 0.015289 1
-15.499992 5.567367 0.014866 1
-15.472631 5.610723 0.016025 1
-15.448902 5.655248 0.016920 1
-15.428795 5.700981 0.017549 1
-15.394310 5.738963 0.019214 1
-15.388117 5.792196 0.018806 1
-15.371300 5.839035 0.019169 1
-15.328929 5.873889 0.021357 1
-15.304339 5.917755 0.022245 1
-15.289956 5.968021 0.022361 1
-15.283729 6.018744 0.021932 1
-15.252088 6.057207 0.023325 1
-15.238070 6.105003 0.023421 1
-15.225680 6.148134 0.023480 1
-15.140752 6.168133 0.028563 1
-15.107784 6.208216 0.029968 1
-15.093222 6.255558 0.030060 1
-15.085887 6.305859 0.029626 1
-15.029404 6.338808 0.032618 1
-15.031871 6.395820 0.031414 1
-15.012949 6.441411 0.031765 1
-14.984748 6.477736 0.032866 1
-14.972886 6.526288 0.032691 1
-14.946174 6.568521 0.033563 1
-14.919326 6.610636 0.034434 1
-14.906967 6.659034 0.034258 1
-14.876174 6.699347 0.035388 1
-14.853551 6.740516 0.035977 1
-14.815228 6.777289 0.037627 1
-14.820413 6.833681 0.036143 1
-14.806192 6.884100 0.035981 1
-14.763835 6.918838 0.037889 1
-14.758595 6.968016 0.037169 1
-14.730456 7.009245 0.038031 1
-14.709394 7.053781 0.038371 1
-14.680981 7.094788 0.039231 1
-14.656028 7.137411 0.039829 1
-14.630933 7.179933 0.040426 1
-14.602115 7.220591 0.041282 1
-14.584985 7.264250 0.041341 1
-14.552328 7.302910 0.042455 1
-14.544491 7.354026 0.041749 1
-14.543561 7.408793 0.040522 1
-14.496260 7.439890 0.042673 1
-14.484325 7.489121 0.042225 1
-14.458054 7.530943 0.042815 1
-14.435172 7.574524 0.043145 1
-14.408615 7.616150 0.043733 1
-14.381920 7.657670 0.044320 1
-14.344555 7.693384 0.045683 1
-14.338626 7.746130 0.044714 1
-14.330169 7.794832 0.043987 1
-14.295896 7.832157 0.045088 1
-14.782023 7.372701 0.110330 1
-14.759691 7.417414 0.110670 1
-14.740765 7.463853 0.110772 1
-14.707446 7.502972 0.111819 1
-14.698857 7.554740 0.111210 1
-14.679432 7.601004 0.111310 1
-14.645694 7.639796 0.112355 1
-14.622429 7.684031 0.112689 1
-14.604882 7.734149 0.112567 1
-14.578955 7.774149 0.113119 1
-14.551711 7.816248 0.113687 1
-14.552358 7.873561 0.112367 1
-14.510793 7.907833 0.113877 1
-14.477336 7.943592 0.114897 1
-14.465726 7.997226 0.114299 1
-14.427308 8.032975 0.115569 1
-14.410849 8.078226 0.115408 1
-14.392982 8.125614 0.115264 1
-14.368023 8.168965 0.115589 1
-14.349812 8.216252 0.115443 1
-14.317652 8.255404 0.116236 1
-14.288806 8.296455 0.116794 1
-14.266680 8.341489 0.116880 1
-14.258073 8.394696 0.116027 1
-10.135761 5.951597 0.397956 0
-9.947995 5.914252 0.408933 1
-9.869721 5.904171 0.413360 1
-9.788231 5.891485 0.418017 1
-9.706926 5.878291 0.422670 2
-9.662557 5.925785 0.423773 2
-9.545514 5.886331 0.430982 2
-9.491571 5.888826 0.433750 3
-9.444383 5.895383 0.436049 6
-9.409986 5.947508 0.436435 9
-9.323001 5.926781 0.441531 16
-9.285886 5.939037 0.443121 19
-9.225667 5.935367 0.446343 15
-9.221549 5.969729 0.445597 13
-9.236991 6.017742 0.443451 4
-9.094871 5.956419 0.452496 10
-9.038274 5.953779 0.455476 3
-8.994827 5.960020 0.457521 2
-8.975068 5.981003 0.457924 2
-8.895951 5.961258 0.462527 2
-8.859146 5.971410 0.464100 8
-8.809437 5.971971 0.466602 10
-8.781485 5.989956 0.467483 7
-8.742390 5.995947 0.469275 5
-8.699253 6.000529 0.471307 5
-8.656166 6.004870 0.473337 4
-8.625883 6.018591 0.474436 4
-8.573330 6.015250 0.477158 3
-8.530394 6.018885 0.479182 5
-8.493839 6.027157 0.480741 3
-8.454152 6.032787 0.482529 3
-8.417651 6.040662 0.484084 4
-8.378920 6.044752 0.485861 4
-8.339350 6.049754 0.487645 4
-8.293584 6.049557 0.489890 4
-8.258114 6.055513 0.491430 4
-8.217802 6.060961 0.493217 4
-8.184608 6.070147 0.494531 3
-8.132917 6.063948 0.497231 6
-8.100688 6.071659 0.498534 4
-8.057499 6.073671 0.500544 4
-8.025328 6.081024 0.501845 4
-7.992285 6.089272 0.503151 4
-7.949247 6.090631 0.505156 4
-7.916264 6.098505 0.506460 3
-7.881168 6.102568 0.507985 3
-7.842206 6.104860 0.509747 4
-7.805410 6.110594 0.511285 4
-7.769547 6.115114 0.512813 4
-7.730737 6.116794 0.514570 4
-7.692881 6.117265 0.516319 4
-7.657158 6.121207 0.517842 4
-7.625331 6.126657 0.519127 4
-7.595584 6.135629 0.520188 4
-7.553187 6.134620 0.522175 4
-7.518528 6.136858 0.523686 4
-7.485938 6.142610 0.524972 5
-7.450464 6.145464 0.526487 5
-7.418839 6.149924 0.527764 5
-7.385445 6.156126 0.529054 6
-7.347214 6.155683 0.530794 5
-7.321447 6.165196 0.531608 5
-7.291005 6.173674 0.532664 5
-7.250064 6.169898 0.534630 5
-7.220589 6.177114 0.535676 5
-7.189200 6.180461 0.536945 6
-7.156940 6.184565 0.538218 6
-7.122808 6.184773 0.539713 6
-7.092528 6.192287 0.540761 6
-7.060377 6.195906 0.542031 6
-7.040312 6.209927 0.542377 9
-6.999870 6.204655 0.544331 6
-6.962293 6.202044 0.546055 6
-6.933061 6.207909 0.547090 6
-6.892869 6.202030 0.549040 7
-6.863718 6.207575 0.550073 9
-6.845488 6.224658 0.550191 8
-6.906205 6.364417 0.542201 2
-6.912618 6.407314 0.540258 4
-6.832889 6.355711 0.545622 2
-6.698223 6.245988 0.555559 2
-6.663878 6.244641 0.557041 2
-6.640213 6.255056 0.557609 3
-6.611248 6.259383 0.558632 4
-6.596392 6.277779 0.558509 8
-6.550775 6.264611 0.560904 6
-6.554164 6.303972 0.559184 8
-6.499182 6.277552 0.562482 12
-6.466834 6.278953 0.563733 9
-6.440618 6.285504 0.564522 5
-6.404136 6.279706 0.566221 4
-6.376346 6.282148 0.567230 4
-6.347666 6.285230 0.568244 2
-6.321556 6.291259 0.569029 2
-6.300509 6.303357 0.569358 2
-6.284464 6.321575 0.569232 1
-6.273353 6.345966 0.568651 1
-6.238118 6.338408 0.570337 2
-6.112538 6.330670 0.575493 105
-6.092948 6.345852 0.575594 107
-6.074239 6.360244 0.575689 107
-6.054001 6.370677 0.576006 107
-6.015012 6.360148 0.577918 106
-5.991463 6.367877 0.578465 106
-5.976003 6.384418 0.578326 106
-5.954786 6.395190 0.578644 110
-5.978429 6.467057 0.574657 115
-5.926382 6.435855 0.577919 116
-5.908312 6.448976 0.578005 118
-5.888289 6.463408 0.578099 121
-5.866854 6.473833 0.578414 118
-5.832513 6.463934 0.580082 108
-5.827164 6.497026 0.578812 103
-5.819347 6.526871 0.577768 50
-5.811369 6.556728 0.576724 22
-5.791925 6.570136 0.576810 14
-5.777911 6.589409 0.576439 11
-5.771783 6.622544 0.575168 8
-5.761017 6.649075 0.574350 4
-5.759967 6.688227 0.572623 2
-5.753290 6.721436 0.571352 2
-5.748620 6.758006 0.569855 3
-5.738367 6.788581 0.568815 4
-5.729975 6.817842 0.567765 5
-5.724723 6.854490 0.566268 5
-5.712823 6.881066 0.565449 4
-5.705053 6.914382 0.564177 4
-5.708747 6.963977 0.561774 3
-5.694217 6.987195 0.561180 2
-5.694263 7.034166 0.559007 2
-5.685678 7.067591 0.557735 2
-5.697657 7.135150 0.554211 2
-5.693687 7.179583 0.552268 2
-5.697771 7.233046 0.549641 3
-5.704521 7.294123 0.546569 3
-5.714946 7.362205 0.543047 2
-5.726064 7.429779 0.539521 1
-5.743656 7.511971 0.535100 2
-5.739654 7.560411 0.532934 2
-8.418292 12.395696 0.221791 57
-8.368683 12.400756 0.223051 43
-8.315277 12.394033 0.224977 45
-8.265735 12.403263 0.226016 43
-8.216284 12.407689 0.227271 43
-8.164971 12.408400 0.228749 43
-8.115723 12.407818 0.230219 37
-8.066326 12.416210 0.231251 37
-8.022812 12.425808 0.232044 33
-7.975445 12.432757 0.233066 30
-7.926258 12.435974 0.234312 26
-7.877121 12.438988 0.235556 33
-7.831679 12.448906 0.236349 34
-7.781003 12.443389 0.238033 33
-7.734023 12.444794 0.239266 31
-7.688454 12.458731 0.239836 31
-7.643092 12.467916 0.240624 44
-7.601499 12.479526 0.241180 41
-7.561380 12.499144 0.241292 30
-7.515988 12.507832 0.242075 34
-7.475772 12.527152 0.242185 41
-7.433778 12.542722 0.242517 44
-7.379860 12.532835 0.244417 42
-7.327764 12.526333 0.246090 46
-7.294172 12.559504 0.245298 44
-7.249157 12.562595 0.246292 35
-7.203809 12.570070 0.247065 35
-7.150299 12.559150 0.248957 39
-7.100173 12.555296 0.250399 46
-7.053356 12.558543 0.251392 42
-7.000193 12.546963 0.253279 41
-6.947172 12.535152 0.255164 39
-6.916289 12.574517 0.253914 42
-6.874285 12.588067 0.254230 41
-6.832246 12.601464 0.254544 44
-6.794772 12.625772 0.254186 42
-6.753139 12.634352 0.254717 33
-6.703442 12.628819 0.256146 38
-6.655335 12.626783 0.257350 41
-6.614708 12.643099 0.257434 33
-6.559340 12.622132 0.259753 37
-6.502149 12.601715 0.262074 44
-6.446328 12.572021 0.264832 46
-6.421618 12.628628 0.262452 57
-6.373903 12.625457 0.263647 55
-6.332506 12.632548 0.264166 41
-6.282123 12.621531 0.265805 41
-6.238760 12.629047 0.266326 44
-6.189938 12.621389 0.267738 30
-6.152036 12.643596 0.267362 28
-6.095288 12.613002 0.270112 44
-6.061340 12.646199 0.269064 28
-6.015399 12.645353 0.270024 34
-5.966915 12.636776 0.271429 41
