# .PCD v.7 - Point Cloud Data file format
VERSION .7
FIELDS x y z intensity
SIZE 4 4 4 1
TYPE F F F U
COUNT 1 1 1 1
WIDTH 1479
HEIGHT 1
VIEWPOINT 0 0 0 1 0 0 0
POINTS 1479
DATA ascii
-40.981266 -39.213970 -0.462902 36
-30.805576 -29.047377 -0.092706 15
-41.403172 -39.078514 -0.466976 37
-41.742695 -39.152508 -0.473982 37
-41.829258 -38.969418 -0.471712 37
-28.135126 -25.404577 0.023994 12
-28.170233 -25.267002 0.026147 12
-41.302631 -37.180161 -0.427398 35
-41.643002 -36.985508 -0.429230 35
-41.783173 -36.860294 -0.429119 35
-29.686195 -25.787699 -0.009393 13
-24.424271 -20.939964 0.173784 8
-24.529724 -20.753952 0.175610 8
-31.936199 -27.057222 -0.072121 14
-32.017838 -26.944729 -0.071348 14
-34.184380 -28.620287 -0.140588 18
-32.389923 -26.897865 -0.076827 14
-28.602131 -23.512730 0.052956 11
-32.559265 -26.685270 -0.075699 14
-29.442545 -23.904797 0.030979 12
-29.599272 -23.872623 0.028863 12
-38.529015 -30.627279 -0.253939 25
-32.277058 -25.385351 -0.046341 14
-32.296333 -25.227100 -0.043742 14
-39.260010 -30.578640 -0.265923 26
-32.226910 -24.657272 -0.031999 27
-30.294106 -22.987097 0.033061 36
-30.338953 -22.863789 0.034510 12
-36.474037 -27.401409 -0.158038 20
-36.623245 -27.324457 -0.159326 20
-35.048401 -25.946522 -0.106046 17
-33.125088 -24.325861 -0.042110 14
-47.634827 -34.942501 -0.495498 40
-47.933163 -34.915966 -0.500446 40
-50.757648 -36.738056 -0.584354 45
-35.365273 -25.283651 -0.099962 16
-35.521111 -25.218531 -0.101666 17
-38.686722 -27.309437 -0.196617 22
-35.819595 -25.076639 -0.104662 17
-35.880512 -24.942299 -0.103440 17
-35.927803 -24.798645 -0.101815 17
-35.216232 -24.127449 -0.076974 15
-39.061050 -26.610645 -0.191382 22
-34.360855 -23.198736 -0.045034 14
-39.433907 -26.483992 -0.196169 22
-35.376602 -23.554037 -0.070122 15
-35.355412 -23.370617 -0.066605 30
-35.433243 -23.254051 -0.066096 15
-36.591972 -23.850887 -0.098035 17
-41.538525 -26.917948 -0.243149 25
-36.486450 -23.266306 -0.086252 16
-36.547070 -23.135014 -0.085228 16
-36.637569 -23.022867 -0.085103 16
-38.306858 -23.914619 -0.131729 19
-38.630638 -23.940466 -0.138363 19
-37.827641 -23.255699 -0.111748 18
-38.037376 -23.220667 -0.115220 18
-41.181938 -24.969582 -0.204249 23
-38.653099 -23.248474 -0.127571 19
-54.803493 -32.791386 -0.593936 46
-39.439186 -23.369186 -0.144766 20
-54.329037 -32.010380 -0.572252 45
-45.210724 -26.406996 -0.305523 30
-54.326504 -31.517458 -0.564413 45
-43.278690 -24.885811 -0.243758 26
-43.618450 -24.888794 -0.250478 26
-55.615074 -31.027309 -0.582149 46
-55.646091 -30.799223 -0.579263 46
-55.917877 -30.704357 -0.583206 46
-49.830090 -27.135586 -0.407922 36
-48.521465 -26.210659 -0.367859 34
-51.399879 -27.324940 -0.442104 38
-51.565678 -27.191557 -0.443436 39
-46.725437 -24.436537 -0.305380 30
-49.752644 -25.809467 -0.386541 35
-51.847744 -26.676582 -0.441500 39
-56.719257 -28.954802 -0.573158 46
-53.929043 -27.313643 -0.492844 42
-52.151421 -26.194004 -0.440613 39
-53.847378 -26.807825 -0.483877 41
-56.656830 -27.955751 -0.557456 45
-55.780426 -27.290916 -0.530121 44
-42.439857 -20.599699 -0.162971 22
-42.363987 -20.397997 -0.158572 22
-42.453060 -20.267294 -0.158559 22
-42.538101 -20.134499 -0.158447 22
-42.604591 -19.992882 -0.157843 22
-42.649155 -19.849726 -0.156780 22
-42.514378 -19.607239 -0.150666 21
-42.601288 -19.484377 -0.150779 21
-42.697872 -19.348581 -0.150928 21
-42.946060 -19.126127 -0.153069 44
-43.162354 -19.041689 -0.156432 22
-43.944580 -19.218645 -0.175064 23
-44.514866 -19.289999 -0.187893 24
-45.306927 -19.451550 -0.206551 25
-45.721077 -19.447819 -0.215160 26
-46.637608 -19.650892 -0.236990 27
-50.172771 -18.225380 -0.294182 31
-50.059109 -17.995859 -0.289040 31
-50.015312 -17.782700 -0.285601 62
-50.031971 -17.600643 -0.283838 93
-50.032803 -17.413507 -0.281691 62
-50.071762 -17.249022 -0.280638 93
-50.117744 -17.086990 -0.279777 93
-50.187721 -16.914284 -0.279326 93
-50.287495 -16.751190 -0.279643 62
-50.407925 -16.613049 -0.280700 31
-50.543209 -16.479136 -0.282139 31
-52.339073 -16.848070 -0.325112 34
-53.393551 -16.972874 -0.349348 35
-17.573462 -5.622622 0.551789 1
-17.436672 -5.520741 0.555848 1
-17.363907 -5.441394 0.558269 1
-17.398485 -5.393201 0.558015 1
-17.444466 -5.348057 0.557476 1
-17.382401 -5.272809 0.559606 1
-17.235121 -5.174899 0.563831 1
-17.234091 -5.117540 0.564433 1
-17.185759 -5.050587 0.566165 1
-17.208172 -4.996925 0.566206 1
-17.229712 -4.945812 0.566236 1
-17.331789 -4.917951 0.564261 1
-17.306519 -4.854692 0.565433 1
-17.281651 -4.788990 0.566614 1
-17.236431 -4.721466 0.568257 1
-17.210373 -4.658955 0.569425 1
-17.219095 -4.604923 0.569739 1
-17.239862 -4.497700 0.570274 36
-17.259287 -4.393024 0.570797 3
-17.274879 -4.340590 0.570923 3
-17.301455 -4.293265 0.570754 1
-17.305527 -4.235517 0.571175 1
-17.320580 -4.182881 0.571301 1
-17.151789 -4.090178 0.575865 1
-17.573687 -4.121937 0.566188 1
-17.148798 -3.982369 0.576854 1
-17.594450 -4.015861 0.566624 1
-17.412262 -3.925114 0.571453 1
-17.497026 -3.885112 0.569890 1
-17.629412 -3.850384 0.567214 1
-17.351774 -3.744796 0.574285 1
-17.711359 -3.754908 0.566151 1
-17.886381 -3.728275 0.562441 1
-32.769897 -6.155121 0.209588 8
-45.626026 -8.144218 -0.094367 21
-45.738739 -7.998137 -0.095769 21
-45.881378 -7.863908 -0.097947 21
-62.355076 -9.582565 -0.481275 45
-53.527130 -7.789644 -0.269516 32
-52.661938 -7.496161 -0.247947 31
-52.685349 -7.310436 -0.247190 31
-42.590168 -5.920929 -0.009798 16
-42.559380 -5.773630 -0.008106 16
-42.640118 -5.632159 -0.008985 16
-42.528782 -5.476287 -0.005439 16
-36.988976 -4.743602 0.124597 11
-36.178478 -4.416212 0.145028 22
-36.198101 -4.297651 0.145328 33
-36.204807 -4.183862 0.145881 33
-36.207687 -4.063740 0.146551 33
-36.321712 -3.953170 0.144635 11
-36.829948 -3.874174 0.133587 11
-52.808479 -2.523289 -0.222232 31
-52.801674 -2.336749 -0.221208 31
-52.761997 -2.158428 -0.219489 31
-52.825653 -1.982367 -0.220145 31
-35.635151 -1.545301 0.172738 10
-35.028992 -1.420521 0.187066 10
-34.846203 -1.309373 0.191697 30
-34.763077 -1.188554 0.194092 40
-34.731483 -1.074138 0.195280 59
-35.315151 -1.087510 0.375654 9
4.461663 -0.127496 0.826339 1
4.484708 -0.148522 0.825893 3
4.463768 -0.173148 0.826224 12
4.481426 -0.216818 0.825830 0
4.480218 -0.239925 0.825808 0
4.478796 -0.261884 0.825791 0
4.469607 -0.286986 0.825904 0
4.484051 -0.308264 0.825602 0
4.494328 -0.328923 0.825374 0
4.492837 -0.353140 0.825347 0
4.495011 -0.374674 0.825259 0
4.489261 -0.398113 0.825308 0
4.515285 -0.418563 0.824793 0
4.525311 -0.440602 0.824560 0
4.531276 -0.463043 0.824397 0
4.521035 -0.484546 0.824526 0
4.542798 -0.505745 0.824080 0
4.512646 -0.530983 0.824553 0
4.530350 -0.553717 0.824173 0
4.563858 -0.574348 0.823514 0
4.537360 -0.597920 0.823922 0
4.546776 -0.620255 0.823688 0
4.540210 -0.644711 0.823733 0
4.553459 -0.666898 0.823427 0
4.542667 -0.690379 0.823548 0
4.507822 -0.714905 0.824096 0
4.504751 -0.735526 0.824085 0
4.553656 -0.756304 0.823138 0
4.518565 -0.780504 0.823688 0
4.567326 -0.801665 0.822740 0
4.576041 -0.824353 0.822504 0
4.608696 -0.847622 0.821835 0
4.621251 -0.870421 0.821528 0
4.629706 -0.892224 0.821296 0
4.670117 -0.915900 0.820482 0
4.670438 -0.939184 0.820388 0
4.734645 -0.959566 0.819156 0
4.742898 -1.006568 0.818823 3
4.762899 -1.030135 0.818369 17
4.754816 -1.054881 0.818414 40
4.758660 -1.077314 0.818252 43
4.774414 -1.101098 0.817869 43
4.794100 -1.123868 0.817418 42
4.817687 -1.148034 0.816890 42
4.853155 -1.173829 0.816139 42
4.864568 -1.198061 0.815827 38
14.218404 -1.494514 0.646383 103
14.244624 -1.552041 0.645650 102
14.226678 -1.608162 0.645713 85
14.250137 -1.722640 0.644753 7
14.291526 -1.781413 0.643727 7
14.300748 -1.838879 0.643282 5
14.438694 -1.955148 0.640230 108
14.459278 -2.013971 0.639564 112
14.459695 -2.071673 0.639263 103
14.435968 -2.127777 0.639399 42
34.192604 -6.000884 0.263339 11
33.580982 -6.043328 0.273960 10
33.317822 -6.131979 0.278070 10
33.347225 -6.262270 0.276694 10
36.675709 -7.586462 0.208621 12
36.554028 -7.704345 0.209957 12
33.879299 -7.621882 0.257903 11
33.612320 -7.701362 0.262052 11
38.337872 -8.733800 0.171033 14
38.212551 -8.855436 0.172355 14
38.689018 -10.276259 0.153138 16
39.421413 -12.278636 0.123843 18
39.493614 -12.766242 0.118358 18
39.260139 -12.855872 0.121611 18
39.604706 -13.104180 0.113453 18
40.400475 -15.434584 0.078200 21
40.135571 -15.517030 0.081917 21
39.849281 -15.573917 0.086237 20
39.560532 -15.636320 0.090536 20
39.950111 -15.938084 0.080953 20
39.897770 -16.084427 0.080392 20
40.032852 -16.298899 0.075970 21
40.103127 -16.491047 0.072858 21
40.115318 -16.654242 0.071010 21
40.273903 -16.881235 0.066037 22
40.419266 -17.096451 0.061397 22
40.453407 -17.287594 0.058866 22
40.038326 -17.297058 0.065747 21
39.682411 -17.318405 0.071503 21
39.280209 -17.335827 0.078066 20
38.906429 -17.345146 0.084228 20
38.542175 -17.372297 0.090034 19
38.088547 -17.352266 0.097822 18
37.789200 -17.376253 0.102559 18
37.382637 -17.386183 0.109225 17
36.974930 -17.376534 0.116109 17
36.592720 -17.366865 0.122561 16
36.284557 -17.386284 0.127461 15
35.901207 -17.386972 0.133803 15
35.530605 -17.367022 0.140150 14
35.200340 -17.393400 0.145313 14
34.898083 -17.414356 0.150065 13
34.577103 -17.417200 0.155318 13
34.220860 -17.409586 0.161259 12
33.945152 -17.436237 0.165485 12
33.702389 -17.476231 0.169012 12
33.535934 -17.550154 0.170897 12
33.521446 -17.694490 0.169487 12
33.477474 -17.825230 0.168706 12
33.295906 -17.890329 0.170913 12
33.038017 -17.910034 0.174879 12
32.759453 -17.925539 0.179221 12
32.438129 -17.918165 0.184515 12
32.196133 -17.947790 0.188083 12
31.868483 -17.933050 0.193549 11
31.583595 -17.930161 0.198178 11
31.321110 -17.944057 0.202239 11
31.041143 -17.947212 0.206701 11
30.786434 -17.961472 0.210617 11
30.503658 -17.959373 0.215171 11
30.231920 -17.961092 0.219495 11
29.974703 -17.968613 0.223509 11
29.727840 -17.972778 0.227391 10
29.470743 -17.969805 0.231517 10
29.200514 -17.965036 0.235866 10
28.948792 -17.975517 0.239726 10
28.703335 -17.973663 0.243631 10
28.462793 -17.986839 0.247265 10
28.215075 -17.987331 0.251162 10
27.984608 -17.988951 0.254767 10
27.741594 -17.995649 0.258498 9
27.528625 -17.997309 0.261814 9
27.300621 -18.016253 0.265138 9
27.074909 -18.014437 0.268684 9
26.832785 -18.008226 0.272536 9
26.614656 -18.007793 0.275933 9
26.390919 -18.016012 0.279298 9
26.163626 -18.013773 0.282847 9
25.960167 -18.017744 0.285939 9
25.747204 -18.021217 0.289178 9
25.531157 -18.021313 0.292502 17
25.322241 -18.024334 0.295671 17
25.117447 -18.035088 0.298667 17
24.915504 -18.033037 0.301783 17
24.713875 -18.029835 0.304903 8
24.513357 -18.039059 0.307834 16
24.322433 -18.040030 0.310722 8
24.138878 -18.051029 0.313357 16
23.935509 -18.047789 0.316478 16
23.742489 -18.049957 0.319363 16
23.576393 -18.068729 0.321609 16
23.370644 -18.059795 0.324824 7
23.201366 -18.067650 0.327254 15
23.006535 -18.069788 0.330140 7
22.818302 -18.068661 0.332966 7
22.656380 -18.078058 0.335247 15
22.475286 -18.079411 0.337919 15
22.297756 -18.082006 0.340515 14
7.177416 -7.512379 0.712896 0
7.079790 -7.490992 0.714639 2
6.933696 -7.434017 0.717597 3
6.843200 -7.415945 0.719183 8
6.765869 -7.406739 0.720447 14
6.688711 -7.397073 0.721713 18
6.627806 -7.398833 0.722575 29
6.569222 -7.397256 0.723450 33
6.514907 -7.403141 0.724153 36
6.444699 -7.396677 0.725263 42
6.377823 -7.392220 0.726293 43
6.323780 -7.397104 0.727000 47
6.261420 -7.392917 0.727957 51
6.213858 -7.402087 0.728503 57
6.150585 -7.398678 0.729458 51
6.093719 -7.399858 0.730251 54
6.040076 -7.403205 0.730963 48
5.985394 -7.407650 0.731672 50
5.923675 -7.401485 0.732637 51
5.873395 -7.406432 0.733272 52
5.820081 -7.408575 0.733989 52
5.769937 -7.412965 0.734626 53
5.713698 -7.411980 0.735427 52
5.660633 -7.413243 0.736148 53
5.612658 -7.420688 0.736702 53
5.561981 -7.418740 0.737434 56
5.512202 -7.421752 0.738077 56
5.459460 -7.421891 0.738802 56
5.406808 -7.421740 0.739528 60
5.360282 -7.426550 0.740092 65
5.310806 -7.428478 0.740738 62
5.264404 -7.432786 0.741304 54
5.212084 -7.431533 0.742034 54
5.171780 -7.440664 0.742437 56
5.122589 -7.441559 0.743088 59
5.070519 -7.439500 0.743821 56
5.028526 -7.444025 0.744314 57
4.988402 -7.452271 0.744721 60
4.945373 -7.457595 0.745211 58
4.899469 -7.459970 0.745784 59
4.853633 -7.462102 0.746357 58
4.804962 -7.461245 0.747015 58
4.759276 -7.462885 0.747590 59
4.722317 -7.472594 0.747920 61
4.679622 -7.476564 0.748415 62
4.634115 -7.477525 0.748993 64
4.591539 -7.481048 0.749490 63
4.546174 -7.481543 0.750071 62
4.504851 -7.483483 0.750573 63
4.466414 -7.488050 0.750994 64
4.422942 -7.491838 0.751490 57
4.386274 -7.499977 0.751826 57
4.350760 -7.506831 0.752166 59
4.310215 -7.512857 0.752582 62
4.269204 -7.513607 0.753089 60
4.220455 -7.510556 0.753755 51
4.178459 -7.511952 0.754260 51
4.142024 -7.518947 0.754600 56
4.105615 -7.525766 0.754941 55
4.069233 -7.532412 0.755282 51
4.027003 -7.527973 0.755880 39
3.979884 -7.522479 0.756555 22
3.943663 -7.528548 0.756899 15
0.067759 -3.301814 0.876004 9
0.063256 -3.311271 0.875898 11
0.044183 -3.306891 0.876205 16
0.025568 -3.302049 0.876513 28
0.009656 -3.300106 0.876739 28
-0.008454 -3.294722 0.877049 33
-0.024676 -3.292950 0.877274 41
-0.044896 -3.284011 0.877670 56
-0.058413 -3.285089 0.877812 55
-0.071516 -3.285762 0.877956 56
-0.087182 -3.283317 0.878183 59
-0.097270 -3.286585 0.878245 59
-0.115831 -3.281254 0.878556 59
-0.128441 -3.281328 0.878702 61
-0.138885 -3.284757 0.878763 67
-0.154388 -3.281945 0.878992 63
-0.162295 -3.288373 0.878970 65
-0.182758 -3.279194 0.879367 65
-0.193152 -3.282398 0.879429 65
-0.203545 -3.285558 0.879492 68
-0.218492 -3.282078 0.879723 70
-0.228863 -3.285132 0.879786 77
-0.241686 -3.284983 0.879933 51
-0.296951 -3.261873 0.880962 0
-0.302380 -3.270997 0.880859 0
-0.295471 -3.295820 0.880337 0
-0.324508 -3.272581 0.881073 0
-0.347417 -3.259690 0.881556 0
-0.388330 -3.220278 0.882713 0
-0.403077 -3.216187 0.882947 0
-0.452883 -3.163380 0.884441 0
-0.401755 -3.249758 0.882322 0
-0.427711 -3.228982 0.882978 0
-0.491188 -3.156332 0.884978 0
-0.528498 -3.119016 0.886055 0
-0.515277 -3.153683 0.885281 0
-0.517815 -3.165175 0.885096 0
-0.494960 -3.231934 0.883630 0
-0.489414 -3.290860 0.882483 0
-0.490740 -3.306131 0.882213 0
-0.509689 -3.294660 0.882618 0
-0.513279 -3.306554 0.882432 0
-0.531317 -3.294416 0.882839 0
-0.537507 -3.303151 0.882738 0
-0.530469 -3.331867 0.882130 0
-0.568418 -3.289628 0.883297 0
-0.578471 -3.291222 0.883366 0
-0.586409 -3.296170 0.883350 1
-0.596461 -3.297686 0.883419 2
-0.606507 -3.299160 0.883488 2
-0.611999 -3.307187 0.883389 8
-0.630703 -3.295127 0.883796 10
-0.640704 -3.296459 0.883866 14
-0.652339 -3.294074 0.884021 17
-0.666366 -3.288422 0.884261 17
-0.676308 -3.289609 0.884331 17
-0.682236 -3.297677 0.884232 19
-0.693780 -3.295098 0.884388 27
-0.705688 -3.292694 0.884543 34
-0.711663 -3.300680 0.884444 35
-0.723144 -3.297963 0.884601 40
-0.731104 -3.302406 0.884587 40
-0.749131 -3.289530 0.884997 40
-0.755143 -3.297391 0.884899 44
-0.762703 -3.301507 0.884887 49
-0.774463 -3.298768 0.885044 56
-0.782825 -3.303245 0.885030 55
-0.794143 -3.300198 0.885188 59
-0.800253 -3.307935 0.885090 60
-0.810092 -3.308561 0.885162 60
-0.819921 -3.309146 0.885235 63
-0.827919 -3.313251 0.885223 64
-0.842764 -3.302858 0.885552 60
-0.852138 -3.303110 0.885625 63
-0.859131 -3.311080 0.885527 63
-0.868906 -3.311463 0.885600 63
-0.877870 -3.311414 0.885675 64
-0.887622 -3.311719 0.885749 65
-0.897363 -3.311984 0.885823 63
-0.908813 -3.308600 0.885982 63
-0.918917 -3.308968 0.886056 63
-0.926914 -3.312728 0.886045 64
-0.939573 -3.305391 0.886290 60
-0.946288 -3.312896 0.886194 63
-0.952641 -3.320200 0.886098 63
-0.961519 -3.319834 0.886174 63
-0.971990 -3.320153 0.886248 64
-0.980842 -3.319716 0.886324 63
-0.991287 -3.319950 0.886398 63
-0.998518 -3.323107 0.886389 63
-1.008146 -3.322916 0.886465 64
-1.016191 -3.326365 0.886455 64
-1.028917 -3.318733 0.886702 65
-1.038893 -3.318588 0.886778 64
-1.047650 -3.317901 0.886855 64
-1.054160 -3.324911 0.886760 63
-1.062615 -3.328362 0.886751 65
-1.074752 -3.320328 0.886999 65
-1.084268 -3.319828 0.887076 67
-1.092302 -3.323011 0.887067 69
-1.098894 -3.329891 0.886973 68
-1.110246 -3.325716 0.887136 71
-1.120752 -3.321183 0.887299 68
-1.130205 -3.320497 0.887376 67
-1.137243 -3.327416 0.887283 69
-1.145303 -3.330413 0.887275 67
-1.156123 -3.325872 0.887438 65
-1.167861 -3.317378 0.887688 67
-1.174537 -3.324033 0.887595 69
-1.182585 -3.326900 0.887588 70
-1.191563 -3.325825 0.887666 70
-1.200928 -3.324854 0.887745 67
-1.210275 -3.323847 0.887824 72
-1.219606 -3.322802 0.887903 69
-1.226380 -3.329304 0.887810 70
-1.236960 -3.324398 0.887975 69
-1.242522 -3.334648 0.887797 70
-1.255529 -3.322058 0.888134 69
-1.262352 -3.328452 0.888042 71
-1.272823 -3.323386 0.888207 70
-1.280869 -3.325911 0.888202 70
-1.288923 -3.328407 0.888196 72
-1.298510 -3.322978 0.888362 71
-1.306554 -3.325413 0.888357 75
-1.313467 -3.331653 0.888265 64
-1.323792 -3.326360 0.888432 74
-1.332959 -3.324866 0.888512 70
-1.342107 -3.323335 0.888593 72
-1.350152 -3.325617 0.888588 72
-1.358205 -3.327872 0.888583 71
-1.367323 -3.326241 0.888664 74
-1.375378 -3.328436 0.888660 71
-1.384472 -3.326738 0.888741 70
-1.393948 -3.325111 0.888822 70
-1.400995 -3.331084 0.888732 71
-1.409250 -3.329080 0.888815 70
-1.417315 -3.331128 0.888811 72
-1.426351 -3.329267 0.888893 75
-1.434416 -3.331255 0.888889 72
-1.443424 -3.329328 0.888971 72
-1.451490 -3.331257 0.888968 71
-1.459561 -3.333158 0.888964 72
-1.468536 -3.331133 0.889047 72
-1.476607 -3.332974 0.889044 75
-1.485554 -3.330883 0.889126 74
-1.493624 -3.332665 0.889124 75
-1.501701 -3.334419 0.889121 72
-1.510611 -3.332232 0.889204 72
-1.517467 -3.337757 0.889116 72
-1.525966 -3.339510 0.889113 69
-1.535640 -3.333309 0.889283 70
-1.543718 -3.334916 0.889280 71
-1.553322 -3.328642 0.889450 72
-1.560234 -3.334039 0.889362 74
-1.569048 -3.331629 0.889446 72
-1.576401 -3.337053 0.889359 71
-1.583787 -3.342454 0.889271 72
-1.592588 -3.339954 0.889356 69
-1.601368 -3.337421 0.889440 74
-1.608796 -3.342742 0.889353 77
-1.616907 -3.344094 0.889352 75
-1.625254 -3.341403 0.889437 79
-1.634388 -3.338811 0.889522 77
-1.642485 -3.340073 0.889521 77
-1.649991 -3.345262 0.889434 75
-1.658287 -3.342453 0.889520 79
-1.666396 -3.343632 0.889519 77
-1.674510 -3.344782 0.889519 77
-1.683168 -3.341942 0.889604 77
-1.690749 -3.346998 0.889518 79
-1.698874 -3.348063 0.889518 77
-1.707503 -3.345133 0.889604 79
-1.715621 -3.346139 0.889605 77
-1.723272 -3.351089 0.889519 74
-1.731411 -3.352041 0.889519 72
-1.739554 -3.352965 0.889520 74
-1.747700 -3.353860 0.889521 70
-1.755868 -3.346686 0.889693 74
-1.763992 -3.347524 0.889694 74
-1.772136 -3.352354 0.889609 70
-1.779905 -3.357117 0.889524 70
-1.787657 -3.357834 0.889526 70
-1.796574 -3.354612 0.889613 68
-1.804726 -3.355308 0.889614 70
-1.812560 -3.359962 0.889530 70
-1.820730 -3.360602 0.889532 69
-1.828493 -3.361184 0.889533 65
-1.837353 -3.357808 0.889621 71
-1.845515 -3.358361 0.889624 68
-1.853679 -3.358886 0.889626 69
-1.861437 -3.359359 0.889628 70
-1.869382 -3.363821 0.889544 70
-1.877974 -3.364284 0.889547 70
-1.886352 -3.360702 0.889636 72
-1.893525 -3.365042 0.889552 69
-1.901712 -3.365400 0.889555 70
-1.910263 -3.377748 0.889300 72
-1.918909 -3.366057 0.889561 69
-1.926155 -3.370297 0.889478 69
-1.934471 -3.366544 0.889567 69
-1.943073 -3.366768 0.889571 68
-1.951183 -3.370951 0.889489 67
-1.959049 -3.367101 0.889578 67
-1.967653 -3.367236 0.889582 67
-1.975028 -3.367326 0.889585 67
-1.983576 -3.375400 0.889418 67
-1.991402 -3.371442 0.889508 65
-2.000021 -3.367459 0.889598 68
-2.008216 -3.367445 0.889602 65
-2.016467 -3.375400 0.889435 68
-2.024319 -3.379331 0.889354 70
-2.032500 -3.375233 0.889444 70
-2.040791 -3.379104 0.889363 68
-2.048860 -3.370951 0.889540 72
-2.056753 -3.374774 0.889459 60
-2.064973 -3.374562 0.889464 55
-2.072819 -3.362329 0.889727 69
-2.081127 -3.354053 0.889904 58
-2.089274 -3.353756 0.889909 52
-2.097013 -3.353447 0.889915 59
-2.104799 -3.345104 0.890092 64
-2.113109 -3.348719 0.890012 74
-2.121029 -3.344316 0.890103 79
-2.129143 -3.343880 0.890109 83
-2.137660 -3.343391 0.890116 80
-2.146020 -3.346888 0.890036 82
-2.154142 -3.346364 0.890043 82
-2.161857 -3.345840 0.890049 85
-2.170267 -3.349249 0.889970 89
-2.178397 -3.348641 0.889976 88
-2.187164 -3.355977 0.889812 89
-2.195317 -3.355309 0.889819 89
-2.203061 -3.354649 0.889826 89
-2.211570 -3.357909 0.889747 89
-2.220105 -3.361137 0.889669 89
-2.228276 -3.360355 0.889676 88
-2.236847 -3.363523 0.889598 87
-2.244610 -3.358705 0.889691 88
-2.253223 -3.365833 0.889528 87
-2.262740 -3.376858 0.889279 86
-2.272750 -3.387798 0.889031 87
-2.281486 -3.390802 0.888954 86
-2.289761 -3.389806 0.888962 83
-2.298032 -3.388780 0.888970 72
-2.307519 -3.403697 0.888636 76
-2.315839 -3.402609 0.888645 83
-2.324986 -3.401379 0.888655 82
-2.333297 -3.400230 0.888664 80
-2.341604 -3.399052 0.888673 86
-2.350489 -3.401802 0.888597 83
-2.359398 -3.404518 0.888521 84
-2.368713 -3.415235 0.888273 84
-2.375414 -3.398001 0.888625 70
-2.384791 -3.408655 0.888378 83
-2.394845 -3.415120 0.888217 82
-2.401875 -3.405840 0.888398 82
-2.412495 -3.420260 0.888066 80
-2.420598 -3.414793 0.888162 80
-2.428956 -3.413311 0.888173 76
-2.435869 -3.403931 0.888353 75
-2.447854 -3.422052 0.887938 80
-2.456237 -3.420474 0.887949 77
-2.463853 -3.414941 0.888045 77
-2.471020 -3.409466 0.888140 67
-2.480933 -3.415649 0.887981 57
-2.489293 -3.413956 0.887992 64
-2.498043 -3.416235 0.887918 72
-2.506823 -3.414394 0.887930 75
-2.518546 -3.428248 0.887601 76
-2.525239 -3.418611 0.887783 73
-2.537085 -3.432377 0.887455 76
-2.544621 -3.426587 0.887552 75
-2.552122 -3.420774 0.887649 75
-2.562320 -3.426621 0.887491 76
-2.570718 -3.424643 0.887503 75
-2.580983 -3.430412 0.887346 77
-2.592246 -3.440023 0.887104 83
-2.599726 -3.434060 0.887201 86
-2.607729 -3.432058 0.887214 84
-2.617136 -3.433796 0.887142 80
-2.626563 -3.435499 0.887070 77
-2.636009 -3.437164 0.886998 80
-2.645474 -3.438794 0.886927 80
-2.656003 -3.444246 0.886771 82
-2.663404 -3.438085 0.886869 83
-2.672491 -3.439725 0.886798 75
-2.681355 -3.437244 0.886812 75
-2.690888 -3.438697 0.886742 76
-2.700439 -3.440112 0.886671 77
-2.709586 -3.441613 0.886600 73
-2.718035 -3.439122 0.886615 70
-2.728779 -3.444261 0.886460 72
-2.737237 -3.441702 0.886475 71
-2.746865 -3.442935 0.886405 76
-2.756510 -3.444131 0.886335 77
-2.766172 -3.445289 0.886266 76
-2.775852 -3.446409 0.886197 76
-2.783087 -3.439882 0.886297 73
-2.791929 -3.441211 0.886226 75
-2.804994 -3.449541 0.885990 76
-2.814741 -3.450508 0.885922 76
-2.825790 -3.455224 0.885769 77
-2.832989 -3.448544 0.885869 76
-2.841461 -3.445621 0.885885 77
-2.850824 -3.446592 0.885817 75
-2.863299 -3.454915 0.885580 76
-2.875843 -3.463180 0.885344 76
-2.882578 -3.456502 0.885444 72
-2.891503 -3.453251 0.885462 72
-2.904159 -3.461375 0.885227 70
-2.914078 -3.461950 0.885160 70
-2.922597 -3.458744 0.885177 73
-2.935389 -3.466715 0.884942 71
-2.943498 -3.463600 0.884959 72
-2.952449 -3.460126 0.884978 71
-2.965974 -3.472005 0.884658 73
-2.978964 -3.479765 0.884424 69
-2.989037 -3.480043 0.884358 70
-2.997619 -3.476576 0.884377 70
-3.009224 -3.480479 0.884228 69
-3.020868 -3.484331 0.884079 67
-3.032552 -3.488131 0.883930 64
-3.039605 -3.480828 0.884033 66
-3.051328 -3.484541 0.883884 62
-3.065534 -3.491503 0.883654 63
-3.076483 -3.495478 0.883505 73
-3.087158 -3.495178 0.883442 73
-3.096981 -3.495215 0.883377 71
-3.110948 -3.502129 0.883147 63
-3.120819 -3.502076 0.883082 54
-3.134887 -3.508868 0.882853 39
-3.148149 -3.515990 0.882622 27
-3.166959 -3.533731 0.882142 21
-3.184210 -3.547750 0.881745 13
-3.208410 -3.576140 0.881016 6
-14.487064 -26.951876 0.340016 20
-14.649167 -27.055611 0.336823 21
-14.749518 -27.042253 0.336370 7
-14.625204 -26.130690 0.355183 6
-15.124300 -26.886677 0.336702 7
-13.713696 -23.529016 0.412830 15
-13.872119 -23.640257 0.409465 5
-17.657173 -30.600615 0.245212 9
-24.873262 -42.811768 -0.047436 26
-15.861372 -25.718061 0.353717 19
-17.662882 -28.701120 0.281881 8
-15.086240 -23.969500 0.393560 5
-15.168269 -23.927149 0.393703 11
-18.039352 -28.697538 0.278881 8
-17.366751 -27.335339 0.310455 15
-14.184999 -21.556025 0.447106 8
-15.800159 -24.085072 0.385442 41
-15.874511 -24.035759 0.385749 5
-17.115595 -25.897703 0.339900 21
-17.166845 -25.786812 0.341559 56
-15.411149 -22.749153 0.414057 63
-15.484811 -22.698812 0.414368 15
-27.713139 -41.705547 -0.050025 27
-14.332265 -20.390631 0.467848 4
-14.378217 -20.313807 0.468879 46
-14.397728 -20.196596 0.470895 23
-14.471147 -20.163258 0.470858 15
-16.772028 -23.522972 0.387509 6
-16.699934 -23.235222 0.393513 5
-15.422956 -21.000856 0.446632 4
-18.254658 -25.043510 0.345741 7
-18.465012 -24.992085 0.344731 7
-19.240396 -25.934191 0.320133 7
-17.605061 -23.403564 0.382002 6
-19.960344 -26.215347 0.308141 8
-18.931917 -24.615446 0.347185 7
-21.085154 -27.401627 0.275695 9
-17.509878 -22.302643 0.402986 5
-31.461842 -41.152428 -0.074744 30
-17.304276 -21.564985 0.418336 5
-17.435925 -21.606394 0.416284 5
-19.066267 -23.607756 0.364076 6
-19.162876 -23.579685 0.363611 19
-26.294662 -32.700840 0.128630 13
-26.342766 -32.557880 0.130695 12
-26.322620 -32.305382 0.135398 12
-20.017141 -23.863913 0.349863 7
-18.798288 -22.166296 0.392480 6
-19.301846 -22.490692 0.381529 18
-22.489126 -26.265057 0.281831 17
-18.729994 -21.486921 0.405155 5
-18.549702 -21.122736 0.413433 49
-19.922604 -22.483231 0.375112 6
-18.328938 -20.170397 0.432359 10
-18.377453 -20.092045 0.433188 70
-18.384457 -19.959305 0.435400 35
-20.352446 -22.085096 0.377354 6
-20.394222 -21.984835 0.378616 6
-21.333200 -22.900492 0.352604 7
-19.786970 -21.016497 0.401872 5
-25.393097 -26.590927 0.244625 20
-22.152008 -22.894285 0.343564 7
-26.590601 -27.341064 0.218435 10
-25.560425 -26.053820 0.251755 10
-20.597696 -20.242636 0.405682 5
-23.114988 -22.692610 0.335872 7
-21.357323 -20.612974 0.390701 6
-23.247725 -22.376757 0.339513 7
-23.223083 -22.203577 0.342639 52
-23.237259 -22.070246 0.344647 7
-41.417660 -39.818703 -0.160585 38
-41.610065 -39.736786 -0.161551 38
-27.428181 -25.701748 0.235647 10
-27.591934 -25.687775 0.233904 10
-27.732786 -25.650835 0.232799 10
-41.746811 -38.799759 -0.148084 38
-41.753403 -38.542747 -0.144047 37
-41.881237 -38.401024 -0.143342 37
-28.606998 -25.785055 0.220013 11
-28.380663 -25.411613 0.228723 10
-27.959265 -24.687965 0.245370 10
-32.992744 -29.079670 0.113793 16
-27.954363 -24.353762 0.250688 10
-24.416864 -21.032385 0.346848 7
-30.304111 -25.760424 0.199289 11
-30.604748 -25.847597 0.194140 11
-31.569767 -26.504753 0.171763 12
-30.985325 -25.476749 0.194990 11
-31.079723 -25.383129 0.195206 11
-31.397123 -25.301777 0.192348 12
-29.598520 -23.654541 0.240533 10
-32.210972 -25.621218 0.176971 12
-32.284233 -25.505556 0.177753 12
-29.677340 -23.080057 0.248116 10
-31.129456 -23.906729 0.216727 11
-30.219036 -23.032541 0.241680 10
-32.300346 -24.486416 0.192673 12
-30.428953 -22.721277 0.243458 32
-30.526854 -22.638819 0.243352 10
-34.743870 -25.655176 0.142977 14
-34.313808 -25.155426 0.155997 13
-38.114708 -27.798460 0.066607 21
-38.204754 -27.669865 0.067240 21
-34.978123 -25.117744 0.147561 14
-33.427238 -23.816628 0.187226 12
-35.765450 -25.333284 0.133774 15
-35.798069 -25.178066 0.135531 15
-33.546844 -23.402973 0.191462 12
-33.791550 -23.410164 0.188001 12
-35.084808 -24.157223 0.159710 13
-37.159870 -25.235582 0.115978 17
-37.355530 -25.197870 0.113788 18
-34.577412 -23.131550 0.181014 12
-34.780445 -23.102608 0.178584 12
-34.870640 -22.996943 0.178776 12
-35.387035 -23.173948 0.169121 13
-35.447472 -23.046274 0.170014 13
-35.544250 -22.942516 0.170063 13
-34.835430 -22.316069 0.188542 12
-36.019344 -22.915594 0.163718 13
-36.361843 -22.966776 0.158177 14
-36.907787 -23.144287 0.148046 15
-36.774918 -22.890299 0.153324 15
-36.786594 -22.728552 0.155306 14
-40.394970 -24.794538 0.076369 22
-40.511810 -24.681309 0.076187 22
-41.184944 -24.906860 0.063557 23
-38.869236 -23.319069 0.117655 18
-37.746616 -22.470024 0.144909 16
-54.553234 -32.305977 -0.225681 47
-41.290852 -24.225241 0.070886 22
-41.309513 -24.051559 0.072850 22
-40.964390 -23.667017 0.082799 21
-58.148224 -33.392986 -0.291899 50
-47.906338 -27.296072 -0.064752 35
-47.764774 -27.003376 -0.058974 34
-55.897903 -31.372736 -0.233378 47
-58.744980 -32.689701 -0.291765 50
-59.110626 -32.632824 -0.296441 50
-48.819122 -26.723000 -0.070980 35
-46.973217 -25.505713 -0.028594 32
-46.909912 -25.278517 -0.024853 32
-47.586590 -25.438858 -0.036870 33
-48.176632 -25.547865 -0.046982 34
-50.009987 -26.307219 -0.083557 37
-48.633202 -25.384853 -0.051813 34
-49.784073 -25.763632 -0.073604 36
-49.780499 -25.561190 -0.071118 36
-55.173599 -28.085365 -0.182304 45
-55.314178 -27.923016 -0.182487 45
-58.307167 -29.199434 -0.242729 48
-56.435879 -28.013893 -0.200485 46
-56.822983 -27.979713 -0.205939 46
-55.834686 -27.260742 -0.182557 45
-43.786774 -21.207991 0.070762 24
-43.546787 -20.913471 0.077822 23
-43.146282 -20.545435 0.088165 22
-43.196102 -20.393181 0.089152 22
-43.100365 -20.173246 0.093126 22
-43.188454 -20.030859 0.093394 22
-43.320717 -19.934664 0.092454 22
-43.244453 -19.725891 0.095974 22
-43.016808 -19.433083 0.102755 21
-43.449921 -19.453938 0.095847 22
-43.697018 -19.389759 0.092744 22
-44.208088 -19.439249 0.084296 23
-44.826466 -19.531410 0.073708 24
-45.633915 -19.708937 0.059247 26
-45.971348 -19.672085 0.054406 26
-46.183239 -19.571182 0.052199 26
-68.825829 -28.804117 -0.399828 56
-50.681602 -18.341343 -0.005991 33
-50.481476 -18.079712 -0.000228 32
-50.503799 -17.907017 0.001105 32
-50.512436 -17.710915 0.002874 32
-50.513622 -17.522158 0.004680 32
-50.551987 -17.346342 0.005754 32
-50.601105 -17.174244 0.006611 32
-50.623013 -16.993267 0.007977 32
-50.678486 -16.823446 0.008688 32
-50.721943 -16.649769 0.009617 32
-52.058235 -16.895555 -0.014196 34
-17.447378 -5.562306 0.648798 1
-17.551769 -5.475282 0.647876 99
-17.490259 -5.399210 0.649545 78
-17.501604 -5.344039 0.649843 94
-17.493471 -5.283536 0.650500 40
-17.296120 -5.063119 0.655610 1
-17.429260 -4.980408 0.654127 14
-17.447554 -4.924812 0.654290 4
-17.444899 -4.869696 0.654789 3
-17.446594 -4.812900 0.655227 3
-17.307493 -4.724965 0.658230 1
-17.250309 -4.654819 0.659738 1
-17.270695 -4.603392 0.659815 1
-17.338287 -4.559991 0.659048 1
-17.334955 -4.502886 0.659554 1
-17.330812 -4.448524 0.660050 1
-17.342690 -4.394989 0.660271 1
-17.354382 -4.341414 0.660492 1
-17.361973 -4.286966 0.660784 1
-17.342529 -4.224100 0.661585 1
-17.494663 -4.199467 0.659250 1
-17.552717 -4.154845 0.658622 1
-17.614031 -4.113358 0.657913 1
-17.657373 -3.951892 0.658375 1
-17.671450 -3.897943 0.658529 1
-17.743885 -3.857309 0.657613 1
-18.009695 -3.847550 0.653254 1
-20.991430 -4.302436 0.600352 2
-45.635300 -8.412890 0.160651 20
-45.766064 -8.113258 0.160526 41
-45.901173 -7.977975 0.159185 20
-76.993767 -12.637691 -0.392018 60
-62.538975 -9.330041 -0.128290 46
-55.824677 -8.217053 -0.008591 37
-55.996223 -8.048230 -0.010407 37
-52.909752 -7.465854 0.045046 32
-42.805901 -6.041913 0.223558 15
-42.652431 -5.879035 0.227133 14
-42.692993 -5.739870 0.227294 14
-40.292828 -5.326071 0.270143 12
-37.091145 -4.842047 0.326886 10
-36.193905 -4.502954 0.343974 20
-36.209843 -4.383967 0.344390 30
-36.221386 -4.264534 0.344875 30
-36.232510 -4.145061 0.345361 20
-36.203377 -4.022054 0.346537 9
-52.890450 -2.651372 0.071344 32
-53.115978 -2.471084 0.068346 32
-53.120747 -2.292650 0.069065 32
-38.546337 -1.802183 0.317931 11
-35.533669 -1.626461 0.369696 9
-35.199757 -1.498708 0.375898 9
-35.037140 -1.392559 0.379101 9
-34.970345 -1.265199 0.380764 9
4.439514 -0.027397 0.864759 0
4.474579 -0.045117 0.864297 0
4.505308 -0.061381 0.863890 0
4.484272 -0.111839 0.864024 0
4.487246 -0.133347 0.863936 0
4.493276 -0.178657 0.863751 0
4.508077 -0.199828 0.863519 0
4.510900 -0.222550 0.863426 0
4.529529 -0.243393 0.863146 0
4.532199 -0.266190 0.863053 0
4.578385 -0.282957 0.862450 0
4.592846 -0.304629 0.862215 0
4.599280 -0.327229 0.862075 0
4.410650 -0.369647 0.864238 0
4.432784 -0.390079 0.863912 0
4.422996 -0.413665 0.863962 0
4.456939 -0.433193 0.863493 0
4.458947 -0.455736 0.863402 0
4.472833 -0.477282 0.863168 0
4.470700 -0.500200 0.863124 0
4.480450 -0.522178 0.862938 0
4.478076 -0.543964 0.862898 0
4.523586 -0.563508 0.862283 0
4.497202 -0.588139 0.862524 0
4.558546 -0.607051 0.861718 0
4.595881 -0.627811 0.861196 0
4.521332 -0.655083 0.862010 0
4.626294 -0.670088 0.860684 0
4.559673 -0.698858 0.861395 0
4.580731 -0.720850 0.861063 0
4.605711 -0.742816 0.860682 0
4.618628 -0.765415 0.860445 0
4.583419 -0.787480 0.860794 0
4.648189 -0.809586 0.859927 0
4.612899 -0.833807 0.860267 0
4.613507 -0.856892 0.860174 0
4.622033 -0.879809 0.859984 0
4.654432 -0.900036 0.859514 0
4.634813 -0.923556 0.859662 0
4.711098 -0.945877 0.858648 0
4.735321 -0.970298 0.858258 0
4.747456 -0.994940 0.858013 0
4.799497 -1.018481 0.857286 0
4.755470 -1.039714 0.857736 0
4.767350 -1.064553 0.857490 1
4.747167 -1.086796 0.857644 2
4.762873 -1.111742 0.857350 2
4.786525 -1.134573 0.856966 1
4.798079 -1.158506 0.856725 1
4.813548 -1.182617 0.856433 0
4.820933 -1.206618 0.856240 0
14.257182 -1.578395 0.739867 100
14.243140 -1.634686 0.739789 55
14.221028 -1.687725 0.739820 20
14.210478 -1.746815 0.739681 15
14.235942 -1.801913 0.739121 11
14.261071 -1.860027 0.738549 9
14.382575 -1.981024 0.736509 4
14.455660 -2.094869 0.735083 82
14.459785 -2.152853 0.734755 30
37.257603 -6.067968 0.438376 7
36.786808 -6.152011 0.443594 7
33.507660 -6.210906 0.482792 6
33.429985 -6.325933 0.483069 6
33.364407 -6.568810 0.482454 19
33.413502 -7.716082 0.474983 6
33.424751 -7.974708 0.473240 100
49.324306 -12.198544 0.256718 16
48.406326 -12.183046 0.267738 15
48.999161 -14.950059 0.241885 17
49.682373 -15.525156 0.229766 18
49.310810 -15.604603 0.233553 18
48.706127 -15.624219 0.240496 17
49.220921 -16.355154 0.229144 18
49.454136 -16.620893 0.224463 18
49.893940 -17.150686 0.215400 19
49.429081 -17.203274 0.220415 19
49.250317 -17.343853 0.221434 19
48.709557 -17.366802 0.227539 18
48.127441 -17.372534 0.234247 17
47.557304 -17.378162 0.240809 16
46.975426 -17.366398 0.247633 15
46.463326 -17.383713 0.253420 14
45.932781 -17.391190 0.259488 13
45.395218 -17.392551 0.265678 12
44.865788 -17.393002 0.271774 12
44.363338 -17.399282 0.277506 12
43.910385 -17.419748 0.282551 12
43.461624 -17.438612 0.287553 11
42.923122 -17.421621 0.293863 11
42.486610 -17.438465 0.298727 11
42.067513 -17.441277 0.303499 11
41.688889 -17.482803 0.307488 11
41.440521 -17.562613 0.309673 10
41.412365 -17.725639 0.308660 10
41.342594 -17.872726 0.308246 10
40.996849 -17.911308 0.311858 10
40.587402 -17.913692 0.316486 10
40.157665 -17.922318 0.321287 10
39.744705 -17.909170 0.326072 10
39.383389 -17.948191 0.329830 10
38.978767 -17.933157 0.334526 9
38.590904 -17.939142 0.338849 9
38.186539 -17.952002 0.343293 9
37.843792 -17.971607 0.346980 9
37.459545 -17.954733 0.351439 9
37.084568 -17.955612 0.355637 9
36.784061 -17.994513 0.358665 9
36.394611 -17.975996 0.363180 8
36.021019 -17.969860 0.367405 8
35.681454 -17.984316 0.371064 8
35.381672 -18.006538 0.374205 8
34.994274 -17.978737 0.378757 8
34.674152 -17.994932 0.382165 8
34.342224 -17.987858 0.385906 8
34.043316 -17.994108 0.389158 7
33.706326 -17.995584 0.392867 7
33.415409 -18.001495 0.396022 7
33.096684 -17.999601 0.399550 7
32.789185 -18.000954 0.402918 7
32.500050 -18.009201 0.406017 7
32.207703 -18.013861 0.409178 7
31.929440 -18.016142 0.412201 7
31.634897 -18.023098 0.415354 7
31.365108 -18.033207 0.418202 7
31.091518 -18.032206 0.421190 6
30.812365 -18.041035 0.424141 6
30.535994 -18.034836 0.427198 6
30.278282 -18.043818 0.429904 6
30.027969 -18.054964 0.432505 6
29.753304 -18.051340 0.435504 13
29.493126 -18.053617 0.438285 6
29.240347 -18.058119 0.440960 12
28.987391 -18.053728 0.443718 6
28.752825 -18.064846 0.446125 12
28.511063 -18.063356 0.448725 12
28.253248 -18.065126 0.451461 12
28.023149 -18.073830 0.453828 12
27.834522 -18.097794 0.455600 11
27.550035 -18.079050 0.458804 11
27.327353 -18.080414 0.461150 11
27.085230 -18.082552 0.463690 11
26.867123 -18.090326 0.465915 11
26.644968 -18.080647 0.468352 11
26.411251 -18.089579 0.470720 5
26.194113 -18.093348 0.472961 10
25.980276 -18.090927 0.475224 10
25.766768 -18.087276 0.477493 10
25.547634 -18.092016 0.479730 10
25.354746 -18.091656 0.481742 10
25.146822 -18.107080 0.483745 10
24.941774 -18.109615 0.485844 10
24.743397 -18.108414 0.487908 10
24.538980 -18.108555 0.490017 9
24.341599 -18.111832 0.492017 9
24.161259 -18.124882 0.493735 9
23.961111 -18.123680 0.495800 9
23.774620 -18.130140 0.497641 9
23.575104 -18.126614 0.499716 9
23.399145 -18.137548 0.501394 9
23.213175 -18.134077 0.503321 9
23.027824 -18.136189 0.505179 8
22.836180 -18.132677 0.507156 8
22.661295 -18.139441 0.508850 8
22.486666 -18.145191 0.510548 8
22.318560 -18.147993 0.512208 8
22.134666 -18.144827 0.514087 8
21.967361 -18.152216 0.515681 8
21.800303 -18.158646 0.517280 8
21.620541 -18.154724 0.519112 8
21.470161 -18.170998 0.520430 8
21.300631 -18.172203 0.522097 4
6.784636 -7.531628 0.781953 3
6.698888 -7.512876 0.783004 10
6.621823 -7.502341 0.783879 14
6.553372 -7.500084 0.784575 18
6.477775 -7.487175 0.785458 20
6.403276 -7.479205 0.786274 23
6.352213 -7.486462 0.786691 31
6.289715 -7.482157 0.787347 28
6.221937 -7.477910 0.788051 27
6.163956 -7.473943 0.788656 24
6.104704 -7.477826 0.789184 16
6.048926 -7.477137 0.789728 21
5.989003 -7.475029 0.790326 21
5.936526 -7.476247 0.790815 21
5.875687 -7.474869 0.791411 18
5.825345 -7.479406 0.791838 21
5.770043 -7.477201 0.792388 19
5.710649 -7.473481 0.792993 21
5.660551 -7.477157 0.793423 21
5.604423 -7.475386 0.793972 19
5.553353 -7.479819 0.794400 21
5.501579 -7.478735 0.794897 20
5.443851 -7.472140 0.795513 22
5.399062 -7.480965 0.795827 21
5.341547 -7.473778 0.796445 22
5.298010 -7.480807 0.796765 24
5.248543 -7.482289 0.797204 24
5.202131 -7.486176 0.797585 24
5.149847 -7.484453 0.798085 25
5.094705 -7.479752 0.798645 27
5.058501 -7.489731 0.798857 27
5.014169 -7.496565 0.799179 27
4.965157 -7.496499 0.799624 28
4.917360 -7.494961 0.800074 26
4.871431 -7.497121 0.800462 28
4.819770 -7.493532 0.800969 27
4.782674 -7.503480 0.801181 27
4.739829 -7.507701 0.801513 27
4.697037 -7.511702 0.801845 27
4.645714 -7.507102 0.802356 27
4.600209 -7.507830 0.802749 29
4.563308 -7.516761 0.802966 29
4.515095 -7.514220 0.803420 30
4.483364 -7.523325 0.803587 31
4.438111 -7.523179 0.803983 30
4.395742 -7.525648 0.804322 32
4.356229 -7.530762 0.804601 30
4.319542 -7.538552 0.804822 32
4.275694 -7.536426 0.805226 34
4.233557 -7.538059 0.805567 34
4.194240 -7.542378 0.805850 33
4.154969 -7.546502 0.806133 33
4.121212 -7.556270 0.806298 33
4.083597 -7.564015 0.806520 34
4.042867 -7.563585 0.806869 31
3.995658 -7.558109 0.807334 34
3.964719 -7.570127 0.807442 35
3.920357 -7.567175 0.807850 35
3.886776 -7.575897 0.808018 30
3.845222 -7.575510 0.808368 30
3.821154 -7.596889 0.808294 18
3.781972 -7.594122 0.808652 20
3.745833 -7.599203 0.808883 20
3.709729 -7.604111 0.809115 14
3.673661 -7.608848 0.809348 10
3.637629 -7.613414 0.809581 9
3.599046 -7.614759 0.809876 3
-0.056266 -3.325665 0.894617 3
-0.074595 -3.320169 0.894835 17
-0.110758 -3.293042 0.895475 16
-0.113613 -3.305792 0.895332 24
-0.124139 -3.309269 0.895370 33
-0.114069 -3.337191 0.894927 57
-0.162390 -3.293988 0.895871 42
-0.180352 -3.287910 0.896091 42
-0.193264 -3.287992 0.896190 53
-0.203673 -3.291147 0.896230 61
-0.219023 -3.287967 0.896390 63
-0.234329 -3.284708 0.896551 63
-0.249590 -3.281369 0.896712 68
-0.264806 -3.277951 0.896873 74
-0.277550 -3.277635 0.896974 102
-0.280612 -3.290010 0.896833 67
-0.298162 -3.283212 0.897056 22
-0.329888 -3.271961 0.897444 0
-0.371343 -3.232971 0.898274 0
-0.393235 -3.219265 0.898620 0
-0.398188 -3.227819 0.898541 0
-0.502101 -3.100595 0.901016 0
-0.525292 -3.082776 0.901425 0
-0.532863 -3.088167 0.901408 0
-0.514762 -3.129247 0.900721 0
-0.586289 -3.042630 0.902410 0
-0.543203 -3.119848 0.901053 0
-0.525590 -3.161155 0.900366 0
-0.523293 -3.178981 0.900107 0
-0.508374 -3.217214 0.899480 0
-0.504523 -3.258018 0.898895 1
-0.485022 -3.302694 0.898147 1
-0.493399 -3.308231 0.898129 0
-0.560465 -3.223076 0.899763 0
-0.511588 -3.315337 0.898156 0
-0.411411 -3.507699 0.894817 0
-0.650566 -3.147896 0.901416 0
-0.421993 -3.528611 0.894599 0
-0.558924 -3.364146 0.897799 0
-0.530048 -3.430880 0.896678 0
-0.612598 -3.312559 0.898872 0
-0.643257 -3.279669 0.899532 0
-0.655247 -3.277519 0.899641 0
-0.650927 -3.302859 0.899257 0
-0.648790 -3.324806 0.898935 0
-0.658855 -3.326051 0.898982 0
-0.686900 -3.296075 0.899583 0
-0.678558 -3.328185 0.899077 0
-0.698474 -3.311916 0.899432 0
-0.704520 -3.319930 0.899356 0
-0.722709 -3.307203 0.899650 0
-0.722547 -3.325420 0.899390 0
-0.742160 -3.308834 0.899747 0
-0.732932 -3.344817 0.899178 0
-0.759672 -3.313825 0.899782 0
-0.769177 -3.314401 0.899832 0
-0.785505 -3.304984 0.900064 0
-0.791624 -3.312747 0.899990 1
-0.805192 -3.306317 0.900162 1
-0.798460 -3.338883 0.899655 2
-0.818955 -3.317955 0.900076 2
-0.828399 -3.318295 0.900126 5
-0.827814 -3.340423 0.899804 9
-0.852039 -3.312315 0.900349 13
-0.858270 -3.319891 0.900275 17
-0.869437 -3.316488 0.900388 18
-0.879615 -3.317022 0.900438 19
-0.887640 -3.320919 0.900426 21
-0.897408 -3.321181 0.900477 22
-0.908879 -3.317790 0.900590 24
-0.918609 -3.317966 0.900640 30
-0.921567 -3.332601 0.900444 34
-0.936357 -3.321828 0.900681 38
-0.947729 -3.318254 0.900794 40
-0.953301 -3.325191 0.900723 42
-0.963398 -3.325364 0.900774 42
-0.973079 -3.325315 0.900826 44
-0.982748 -3.325226 0.900878 45
-0.992403 -3.325098 0.900930 48
-1.002045 -3.324931 0.900982 53
-1.008521 -3.332077 0.900910 56
-1.018162 -3.331842 0.900963 60
-1.027385 -3.331399 0.901016 61
-1.038939 -3.327564 0.901131 71
-1.048525 -3.327207 0.901184 73
-1.056182 -3.330350 0.901175 74
-1.064253 -3.333630 0.901166 73
-1.073822 -3.333170 0.901220 74
-1.087797 -3.321516 0.901460 74
-1.093973 -3.328252 0.901390 74
-1.102037 -3.331400 0.901381 73
-1.112981 -3.327054 0.901497 75
-1.123483 -3.322507 0.901614 77
-1.130116 -3.329296 0.901544 77
-1.138587 -3.332469 0.901536 77
-1.149431 -3.327956 0.901653 74
-1.158460 -3.327007 0.901708 77
-1.170591 -3.318644 0.901887 79
-1.177678 -3.325435 0.901817 84
-1.185328 -3.328150 0.901810 85
-1.193390 -3.330979 0.901803 84
-1.202767 -3.330000 0.901859 86
-1.212128 -3.328984 0.901914 87
-1.220193 -3.331720 0.901907 86
-1.230395 -3.326705 0.902026 87
-1.236796 -3.333043 0.901957 86
-1.249399 -3.324548 0.902138 88
-1.258674 -3.323347 0.902194 87
-1.267128 -3.321853 0.902251 86
-1.275168 -3.324398 0.902245 87
-1.283216 -3.326914 0.902239 86
-1.292447 -3.325578 0.902296 88
-1.302062 -3.324328 0.902352 88
-1.311256 -3.322919 0.902409 88
-1.320031 -3.321355 0.902467 88
-1.327351 -3.327671 0.902399 88
-1.334305 -3.333849 0.902331 84
-1.344859 -3.324388 0.902514 88
-1.353713 -3.326886 0.902509 89
-1.358830 -3.336614 0.902379 87
-1.370887 -3.327483 0.902562 89
-1.378139 -3.329448 0.902558 88
-1.387231 -3.327739 0.902616 88
-1.396304 -3.325995 0.902674 89
-1.403358 -3.331961 0.902608 88
-1.412822 -3.330256 0.902666 89
-1.420083 -3.332089 0.902662 88
-1.428158 -3.334100 0.902659 89
-1.438534 -3.328408 0.902780 88
-1.445260 -3.334146 0.902714 88
-1.453342 -3.336069 0.902710 89
-1.462335 -3.334067 0.902770 89
-1.472200 -3.328132 0.902892 89
-1.479786 -3.333953 0.902826 89
-1.487463 -3.335666 0.902823 89
-1.494699 -3.341349 0.902757 88
-1.504047 -3.339274 0.902817 89
-1.512969 -3.337077 0.902877 89
-1.521870 -3.334846 0.902937 89
-1.528753 -3.340339 0.902872 89
-1.537638 -3.338048 0.902933 88
-1.545733 -3.339647 0.902931 88
-1.554184 -3.337214 0.902991 89
-1.562276 -3.338756 0.902990 89
-1.570373 -3.340270 0.902988 88
-1.578475 -3.341755 0.902986 88
-1.586583 -3.343212 0.902984 89
-1.596069 -3.336761 0.903108 89
-1.602812 -3.346042 0.902981 88
-1.610935 -3.347414 0.902980 88
-1.619062 -3.348758 0.902979 89
-1.627193 -3.350074 0.902978 88
-1.635948 -3.347410 0.903040 89
-1.644679 -3.344713 0.903102 88
-1.651984 -3.345818 0.903101 89
-1.660105 -3.347018 0.903101 89
-1.668231 -3.348191 0.903100 89
-1.676911 -3.345373 0.903163 89
-1.685030 -3.346487 0.903162 89
-1.693676 -3.343607 0.903225 89
-1.700772 -3.352596 0.903100 88
-1.708916 -3.353626 0.903100 89
-1.718027 -3.346688 0.903225 89
-1.725683 -3.351630 0.903163 89
-1.733824 -3.352573 0.903164 90
-1.741937 -3.357508 0.903101 88
-1.750523 -3.354418 0.903165 89
-1.757859 -3.355191 0.903166 89
-1.766410 -3.352042 0.903229 89
-1.773783 -3.360805 0.903105 89
-1.782327 -3.357598 0.903169 89
-1.790131 -3.362328 0.903107 89
-1.798995 -3.355076 0.903234 89
-1.807148 -3.355764 0.903236 89
-1.814673 -3.364397 0.903112 89
-1.823159 -3.361042 0.903176 89
-1.831620 -3.357656 0.903241 89
-1.839508 -3.362219 0.903180 88
-1.847944 -3.358774 0.903245 89
-1.855864 -3.363283 0.903184 89
-1.863868 -3.359755 0.903249 88
-1.872228 -3.364232 0.903189 88
-1.880412 -3.364664 0.903192 88
-1.888597 -3.365067 0.903194 88
-1.896784 -3.365442 0.903197 88
-1.904563 -3.365771 0.903200 88
-1.912752 -3.366090 0.903203 88
-1.921077 -3.362383 0.903269 89
-1.929134 -3.366642 0.903209 88
-1.937326 -3.366875 0.903213 88
-1.945426 -3.371078 0.903153 89
-1.953713 -3.367255 0.903220 89
-1.961907 -3.367403 0.903223 89
-1.969640 -3.371516 0.903164 89
-1.978260 -3.371611 0.903169 89
-1.986469 -3.371673 0.903173 89
-1.994669 -3.375705 0.903114 89
-2.002477 -3.371711 0.903181 89
-2.010687 -3.371688 0.903185 89
-2.018928 -3.375635 0.903127 89
-2.027105 -3.371556 0.903194 89
-2.035374 -3.375446 0.903136 89
-2.043522 -3.371309 0.903204 89
-2.051818 -3.375142 0.903146 88
-2.060141 -3.378945 0.903089 89
-2.068375 -3.378721 0.903094 88
-2.076479 -3.374470 0.903162 88
-2.084697 -3.374189 0.903167 88
-2.093230 -3.381872 0.903048 87
-2.100480 -3.377572 0.903115 88
-2.109078 -3.385197 0.902996 86
-2.118145 -3.392771 0.902877 74
-2.125788 -3.380362 0.903071 84
-2.133615 -3.379932 0.903077 88
-2.141783 -3.371442 0.903208 88
-2.150500 -3.378916 0.903090 84
-2.158465 -3.374386 0.903159 86
-2.166118 -3.365839 0.903290 87
-2.173305 -3.357298 0.903421 89
-2.182181 -3.360635 0.903366 89
-2.190351 -3.359985 0.903373 87
-2.198180 -3.355321 0.903442 84
-2.205572 -3.350667 0.903511 79
-2.214437 -3.357901 0.903394 77
-2.223385 -3.361081 0.903339 78
-2.231556 -3.360287 0.903347 76
-2.239314 -3.363527 0.903291 76
-2.247494 -3.362677 0.903299 74
-2.257794 -3.373637 0.903121 82
-2.266458 -3.376697 0.903066 84
-2.274322 -3.379821 0.903011 84
-2.284937 -3.398705 0.902708 84
-2.292673 -3.389706 0.902841 77
-2.301952 -3.396605 0.902725 79
-2.310866 -3.403522 0.902609 81
-2.319069 -3.398403 0.902681 84
-2.327628 -3.405314 0.902564 81
-2.335810 -3.400137 0.902636 85
-2.344274 -3.402969 0.902582 84
-2.354179 -3.409604 0.902468 84
-2.362518 -3.408353 0.902477 84
-2.370239 -3.403121 0.902549 84
-2.378768 -3.405830 0.902496 84
-2.387735 -3.408441 0.902443 84
-2.396070 -3.407073 0.902453 85
-2.405737 -3.413563 0.902339 84
-2.413673 -3.412204 0.902349 84
-2.422021 -3.410746 0.902359 86
-2.430364 -3.409258 0.902369 86
-2.440566 -3.415532 0.902256 84
-2.448926 -3.413980 0.902267 86
-2.456862 -3.412478 0.902277 86
-2.465211 -3.410868 0.902288 85
-2.474332 -3.413153 0.902237 86
-2.484266 -3.419324 0.902124 84
-2.492639 -3.417619 0.902136 86
-2.502243 -3.419712 0.902086 86
-2.510617 -3.417944 0.902097 84
-2.518985 -3.416147 0.902109 78
-2.529507 -3.426132 0.901935 87
-2.537903 -3.424269 0.901946 86
-2.548066 -3.430176 0.901835 78
-2.556477 -3.428249 0.901847 79
-2.564880 -3.426292 0.901859 87
-2.572857 -3.424405 0.901871 88
-2.585009 -3.437941 0.901637 84
-2.592492 -3.432000 0.901711 97
-2.599941 -3.426036 0.901785 88
-2.611280 -3.435560 0.901614 86
-2.620703 -3.437285 0.901565 86
-2.630731 -3.442955 0.901454 73
-2.639185 -3.440738 0.901468 74
-2.647019 -3.434516 0.901543 85
-2.657541 -3.439962 0.901434 72
-2.667047 -3.441508 0.901386 72
-2.676572 -3.443017 0.901338 72
-2.686356 -3.448577 0.901228 72
-2.694830 -3.446167 0.901242 70
-2.705257 -3.447322 0.901196 72
