# .PCD v.7 - Point Cloud Data file format
VERSION .7
FIELDS x y z intensity
SIZE 4 4 4 1
TYPE F F F U
COUNT 1 1 1 1
WIDTH 1504
HEIGHT 1
VIEWPOINT 0 0 0 1 0 0 0
POINTS 1504
DATA ascii
41.448814 -12.568468 1.916997 11
39.740189 -12.270457 1.878889 10
39.924416 -12.477231 1.883359 10
39.390884 -12.486839 1.871689 10
40.659668 -12.998829 1.900608 10
40.471813 -13.090151 1.896710 10
29.510180 -10.099885 1.650089 5
29.451431 -10.201974 1.649059 5
40.149204 -13.484921 1.890642 10
37.642178 -12.894139 1.834493 9
37.623463 -13.039407 1.834478 9
37.887104 -13.271578 1.840852 9
37.107101 -13.181539 1.823663 9
38.433834 -13.749079 1.854096 10
38.386036 -13.873613 1.853435 10
37.120667 -13.628973 1.825302 9
37.861160 -14.029102 1.842571 10
37.838306 -14.175686 1.842552 10
40.729107 -15.279330 1.908539 11
36.974957 -14.185462 1.823982 9
38.175186 -14.755139 1.851775 10
36.451229 -14.308319 1.813155 9
36.431049 -14.451692 1.813242 9
37.586739 -15.010852 1.840076 10
37.374432 -15.082863 1.835804 9
37.528229 -15.293561 1.839902 10
37.702347 -15.505431 1.844451 10
37.547703 -15.613467 1.841586 10
36.166370 -15.255298 1.810713 9
37.482304 -15.903305 1.841387 10
37.445072 -16.046724 1.841203 10
37.604050 -16.257862 1.845483 10
35.467056 -15.585984 1.797282 9
35.546276 -15.767850 1.799767 9
37.847515 -16.832525 1.853191 10
111.953117 -46.700569 3.553603 63
111.485344 -46.973473 3.545029 63
36.473106 -16.755396 1.823885 9
112.085884 -48.146309 3.563270 63
37.635674 -17.554792 1.852171 10
93.205681 -49.978821 3.184653 63
93.165588 -50.378975 3.186511 63
93.146713 -50.770252 3.188765 63
92.675362 -50.945374 3.180492 63
92.422867 -51.234230 3.177418 63
8.234591 -6.508683 1.182835 0
8.017436 -6.439592 1.178015 0
7.949311 -6.447713 1.176715 0
7.796722 -6.451319 1.173710 0
7.613640 -6.393773 1.169663 0
7.383228 -6.305890 1.164460 0
7.364723 -6.338611 1.164339 0
7.259341 -6.321589 1.162136 0
7.220000 -6.341882 1.161517 0
7.136623 -6.334224 1.159823 0
7.118021 -6.366084 1.159705 0
7.064879 -6.377531 1.158756 0
6.887161 -6.316540 1.154814 0
7.050313 -6.456674 1.159098 0
6.994604 -6.463878 1.158074 0
6.941409 -6.474415 1.157129 0
6.963199 -6.530726 1.158009 0
7.260059 -6.757876 1.165595 0
7.236585 -6.788046 1.165393 0
7.020088 -6.696706 1.160476 0
6.934654 -6.682201 1.158718 0
6.896994 -6.704144 1.158185 0
6.853564 -6.720011 1.157492 0
6.817840 -6.738459 1.156972 0
6.386057 -6.500120 1.146709 0
6.350180 -6.518362 1.146189 0
6.330939 -6.547475 1.146082 0
6.258403 -6.540959 1.144658 0
6.181735 -6.533199 1.143147 0
6.159135 -6.559478 1.142960 0
6.086939 -6.551798 1.141540 0
6.051119 -6.568646 1.141026 0
5.994481 -6.608172 1.140339 1
5.941256 -6.614404 1.139411 0
5.973863 -6.679122 1.140623 0
5.987591 -6.728786 1.141347 0
5.957882 -6.749623 1.141000 0
5.960497 -6.793802 1.141472 0
5.979046 -6.849865 1.142354 0
7.102043 -7.719234 1.171310 0
7.113944 -7.777164 1.172095 0
5.923977 -6.937885 1.142216 0
5.925645 -6.982337 1.142688 0
5.924960 -7.023075 1.143083 0
5.894422 -7.043423 1.142738 0
5.876522 -7.073380 1.142720 0
5.902782 -7.137556 1.143845 0
5.916075 -7.192153 1.144642 0
5.916502 -7.237038 1.145113 0
5.913574 -7.279519 1.145503 0
5.966749 -7.366910 1.147357 0
5.978859 -7.422211 1.148152 0
5.981349 -7.470132 1.148703 0
6.020822 -7.548443 1.150229 0
6.076462 -7.638374 1.152165 0
5.991626 -7.615614 1.150440 0
5.996237 -7.666476 1.151071 0
36.725788 -54.423962 2.240259 40
36.913071 -55.058357 2.252131 41
36.549690 -54.969589 2.246071 41
36.118217 -54.761311 2.237362 40
16.973011 -57.925232 2.097339 30
16.786724 -57.995430 2.097341 31
16.587746 -58.060658 2.097183 31
16.421638 -58.227974 2.099111 31
15.856970 -57.111206 2.075136 28
15.760674 -57.489841 2.081390 29
15.491087 -57.318520 2.076543 29
15.242432 -57.244602 2.073620 28
15.087814 -57.442238 2.076257 29
14.902927 -57.506252 2.076283 29
14.890582 -58.227539 2.089399 30
14.813902 -58.708492 2.097745 31
14.636907 -58.813892 2.098624 31
14.724705 -59.891075 2.118913 32
14.509407 -59.914436 2.118094 32
13.978024 -58.754726 2.093716 30
13.789483 -58.897781 2.095288 31
13.965602 -60.358276 2.123204 33
13.682551 -60.086205 2.116628 32
-3.181074 -54.329021 1.967301 19
-3.355507 -54.600910 1.972722 19
-3.555918 -54.735493 1.975543 19
-4.142371 -60.606422 2.089257 30
-4.360582 -60.858330 2.094409 30
-4.550781 -60.658382 2.090844 30
-4.725098 -59.918030 2.076879 29
-4.921370 -59.928642 2.077404 29
-5.147241 -60.105236 2.081187 29
-5.370676 -60.397343 2.087204 29
-5.568280 -60.225533 2.084275 29
-5.779488 -60.284554 2.085823 29
-5.984279 -60.395393 2.088370 30
-6.146989 -59.750809 2.076341 28
-6.349590 -59.704067 2.075890 28
-5.451247 -12.310010 1.171179 18
-5.476845 -12.260296 1.170462 20
-5.518446 -12.255724 1.170688 17
-5.566101 -12.270060 1.171307 11
-5.196492 -7.891405 1.090426 0
-5.206352 -7.847064 1.089772 0
-5.109005 -7.521449 1.083211 0
-5.103872 -7.452927 1.081995 0
-5.130929 -7.448699 1.082212 0
-5.135712 -7.401837 1.081472 0
-5.135550 -7.348402 1.080570 0
-5.128314 -7.276059 1.079275 0
-5.085291 -7.136556 1.076462 0
-5.102994 -7.118620 1.076357 0
-5.067394 -7.002082 1.074015 0
-5.066208 -6.948712 1.073112 0
-5.072086 -6.909606 1.072528 0
-5.203539 -7.107108 1.077294 0
-5.212698 -7.070601 1.076794 0
-5.238404 -7.070491 1.077087 0
-5.254856 -7.048024 1.076906 0
-5.172608 -6.846960 1.072646 0
-5.190897 -6.836964 1.072695 0
-5.198639 -6.800735 1.072193 0
-5.212951 -6.779057 1.072009 0
-5.245749 -6.792772 1.072622 0
-5.223483 -6.704304 1.070919 0
-5.286971 -6.769398 1.072738 0
-5.320997 -6.782144 1.073356 0
-5.316995 -6.733637 1.072525 0
-5.236885 -6.548880 1.068572 0
-5.285590 -6.585192 1.069754 0
-5.317265 -6.594309 1.070293 0
-5.347095 -6.604441 1.070826 0
-5.469962 -6.763876 1.074903 0
-5.329840 -6.488711 1.068769 0
-5.500509 -6.721858 1.074622 0
-5.476200 -6.638186 1.072991 0
-6.207547 -7.562195 1.096930 0
-6.197731 -7.497128 1.095790 0
-6.253112 -7.532662 1.097072 0
-5.853732 -6.876350 1.081631 0
-5.980229 -7.022849 1.085576 0
-5.978940 -6.975666 1.084834 0
-5.998666 -6.962438 1.084898 1
-6.010406 -6.935204 1.084641 0
-6.033283 -6.924470 1.084789 0
-6.053866 -6.910356 1.084856 0
-6.074400 -6.896169 1.084924 0
-6.147543 -6.913367 1.086196 0
-6.036244 -6.712897 1.081639 0
-6.214149 -6.920066 1.087228 0
-6.169315 -6.814427 1.085023 0
-6.131836 -6.678595 1.082478 0
-6.106538 -6.602928 1.081000 0
-6.203576 -6.695331 1.083751 0
-6.183682 -6.625402 1.082439 0
-6.133528 -6.518064 1.080145 0
-6.292725 -6.688514 1.084942 0
-7.149270 -7.770489 1.113150 0
-6.975439 -7.495605 1.106625 0
-7.061648 -7.560428 1.108829 0
-7.072152 -7.526949 1.108504 0
-7.320858 -7.748604 1.115375 0
-6.365778 -6.464262 1.082809 0
-6.776556 -6.727391 1.092762 0
-7.018099 -6.973659 1.099903 0
-7.007792 -6.919520 1.098998 0
-7.010162 -6.880725 1.098504 0
-7.046243 -6.881384 1.099078 0
-7.016893 -6.806324 1.097596 0
-6.892391 -6.623094 1.093148 0
-6.970016 -6.672052 1.095040 0
-7.027499 -6.701334 1.096348 0
-7.065922 -6.704649 1.097006 0
-7.120456 -6.725624 1.098160 0
-7.196649 -6.770022 1.099976 0
-7.162850 -6.692695 1.098408 0
-7.179916 -6.671690 1.098408 0
-5.810877 -5.148937 1.056161 0
-5.806207 -5.115104 1.055643 4
-5.809546 -5.090114 1.055372 9
-5.735952 -4.983665 1.052783 1
-5.713973 -4.932893 1.051766 0
-5.705501 -4.896777 1.051162 1
-5.691276 -4.855006 1.050392 1
-5.685155 -4.821996 1.049870 1
-5.678849 -4.789076 1.049347 0
-5.663949 -4.747691 1.048575 0
-5.629111 -4.686559 1.047220 0
-5.624947 -4.656874 1.046779 0
-5.625656 -4.633541 1.046501 0
-5.624660 -4.606164 1.046145 0
-5.642859 -4.599096 1.046369 0
-5.578043 -4.510953 1.044176 0
-5.590206 -4.498442 1.044233 0
-5.587915 -4.472025 1.043873 0
-5.599941 -4.459480 1.043929 0
-5.614226 -4.450276 1.044067 0
-5.608715 -4.421182 1.043622 0
-5.626996 -4.413397 1.043849 0
-5.633547 -4.394637 1.043742 0
-5.611802 -4.353371 1.042873 0
-5.605725 -4.324531 1.042427 0
-5.611320 -4.306541 1.042316 0
-5.616835 -4.288552 1.042205 0
-5.601434 -4.251868 1.041507 0
-5.597763 -4.225975 1.041143 0
-5.593956 -4.200146 1.040780 0
-5.626062 -4.206059 1.041424 0
-5.616617 -4.174346 1.040895 0
-5.612489 -4.148612 1.040531 0
-5.668318 -4.175736 1.041847 0
-5.656709 -4.121595 1.041035 0
-6.782670 -5.019557 1.071519 0
-5.621819 -4.026296 1.039352 0
-5.641548 -4.021266 1.039662 0
-5.648385 -4.006640 1.039631 0
-5.652580 -3.988842 1.039518 0
-5.643734 -3.961640 1.039065 0
-5.663339 -3.956407 1.039375 0
-5.654791 -3.928660 1.038924 0
-5.668058 -3.918364 1.039065 0
-5.700176 -3.922821 1.039715 0
-5.662960 -3.873026 1.038500 0
-5.663404 -3.852884 1.038302 0
-5.679613 -3.844949 1.038528 0
-5.695811 -3.836936 1.038755 0
-5.708809 -3.826431 1.038897 0
-5.724977 -3.818272 1.039124 0
-5.757161 -3.821987 1.039778 0
-5.747633 -3.794578 1.039325 0
-5.747626 -3.774374 1.039127 0
-5.744294 -3.751848 1.038843 0
-5.714566 -3.690624 1.037677 5
-5.727119 -3.679965 1.037820 7
-5.739644 -3.669250 1.037962 7
-5.761952 -3.665381 1.038362 8
-5.774441 -3.654522 1.038505 8
-5.806623 -3.657273 1.039162 2
-5.825690 -3.650767 1.039477 0
-5.854667 -3.650923 1.040050 0
-6.386949 -3.991828 1.053663 0
-6.453712 -4.014430 1.055189 0
-5.878675 -3.608194 1.040141 0
-5.810194 -3.523280 1.038027 9
-5.815124 -3.508446 1.037996 9
-5.823785 -3.495114 1.038054 9
-5.825671 -3.477429 1.037940 9
-5.830852 -3.461910 1.037912 9
-5.839351 -3.448523 1.037970 8
-5.851190 -3.437232 1.038115 8
-5.866392 -3.428003 1.038346 5
-5.871371 -3.412389 1.038318 4
-5.883106 -3.400951 1.038463 3
-5.894395 -3.390141 1.038605 1
-5.974953 -3.419248 1.040485 0
-8.089889 -4.666865 1.093719 0
-6.656605 -3.743812 1.057033 0
-6.700672 -3.747611 1.057971 0
-6.734424 -3.745151 1.058650 0
-6.671442 -3.686152 1.056900 0
-6.673758 -3.665890 1.056796 0
-6.713884 -3.668003 1.057647 0
-6.712616 -3.645693 1.057456 0
-6.746253 -3.642766 1.058137 0
-6.779926 -3.639637 1.058818 0
-6.848770 -3.655401 1.060373 0
-6.893141 -3.657434 1.061319 0
-6.951691 -3.666729 1.062615 0
-7.003299 -3.671902 1.063738 0
-7.037303 -3.667444 1.064425 0
-7.021687 -3.636908 1.063888 0
-7.080529 -3.645063 1.065189 0
-7.370836 -3.771353 1.072185 0
-7.394668 -3.759832 1.072616 0
-7.389909 -3.733790 1.072346 0
-7.327785 -3.679241 1.070671 0
-7.745645 -3.862797 1.080761 0
-7.719626 -3.825115 1.079968 0
-7.729381 -3.805133 1.080054 0
-7.566137 -3.701798 1.075916 0
-7.622376 -3.704754 1.077144 0
-7.707149 -3.722030 1.079073 0
-7.669943 -3.679021 1.078016 0
-7.762132 -3.698981 1.080125 0
-7.846638 -3.687559 1.081890 1
-7.888708 -3.681959 1.082772 0
-8.071168 -3.714823 1.086923 0
-8.164733 -3.730636 1.089048 0
-8.280479 -3.755409 1.091708 0
-59.261436 -22.926336 2.308645 33
-59.479656 -22.780125 2.312882 33
-59.454117 -22.552906 2.311361 33
-59.510166 -22.345270 2.311759 33
-59.276287 -22.020082 2.305218 32
-59.492081 -21.871834 2.309462 32
-60.663616 -22.065327 2.336471 34
-60.605301 -21.583767 2.333348 34
-60.416019 -21.288620 2.328013 34
-60.533337 -20.872601 2.329186 33
-60.314480 -20.582996 2.323256 33
-64.747337 -21.814560 2.427551 40
-60.213512 -20.086788 2.319332 33
-60.275887 -19.882236 2.320093 33
-60.662373 -19.803942 2.328612 33
-60.963394 -19.662344 2.335014 34
-60.332729 -19.228052 2.319399 32
-83.212570 -22.394445 2.850840 63
-84.076149 -22.300383 2.870559 63
-84.409485 -22.080091 2.877853 63
-98.477737 -25.316851 3.208055 63
-85.342888 -21.730774 2.898820 63
-83.996506 -21.077400 2.866680 63
-82.674187 -20.455746 2.835170 63
-46.609966 -11.602664 1.987733 11
-46.218262 -11.346841 1.978318 11
-46.571815 -11.273666 1.986428 11
-46.560520 -11.107424 1.985973 11
-83.544281 -19.180662 2.853772 63
-83.638397 -18.902754 2.855681 63
-84.551712 -18.785986 2.876821 63
-86.686745 -18.936398 2.926653 63
-83.890633 -18.046429 2.860833 63
-85.371788 -18.051004 2.895368 63
-86.959816 -18.066685 2.932428 63
-85.994728 -17.568264 2.909636 63
-86.004845 -17.265854 2.909739 63
-88.525444 -17.455851 2.968733 63
-89.764488 -17.358168 2.997690 63
-89.381577 -16.672260 2.988611 63
-90.254906 -16.510946 3.009071 63
-88.486267 -15.873963 2.967619 63
-92.205078 -16.188700 3.054842 63
-87.356697 -15.067212 2.941233 63
-90.053352 -15.227032 3.004535 63
-89.393768 -14.792153 2.989186 63
-87.469070 -14.183263 2.944189 63
-87.676598 -13.909230 2.949213 63
-90.466835 -14.013366 3.014835 63
-90.543289 -13.709017 3.016841 63
-90.868202 -13.439160 3.024701 63
-91.077408 -13.151541 3.029874 63
-91.535423 -12.895736 3.040911 63
-88.788193 -12.223218 2.976756 63
-82.428932 -11.131281 2.827807 63
-90.332939 -11.796227 3.013708 63
-97.597481 -12.343950 3.184670 63
-97.835037 -12.033010 3.190696 63
-112.222038 -13.316115 3.529094 63
-112.455093 -12.951908 3.535144 63
-112.794327 -12.597444 3.543724 63
-114.206673 -12.349219 3.577563 63
-114.822601 -12.013709 3.592725 63
-114.549706 -11.590650 3.587022 63
-187.751556 -2.237295 5.354887 63
37.848991 8.131013 2.145799 13
37.937634 8.012051 2.147020 13
9.247148 0.513330 1.270621 0
9.240545 0.472483 1.270111 0
9.229576 0.433148 1.269494 0
9.250453 0.395939 1.269799 0
9.231519 0.353747 1.268941 0
9.240221 0.315006 1.268898 0
9.256733 0.277136 1.269086 0
9.264951 0.240246 1.269050 0
9.285399 0.200670 1.269346 0
9.265737 0.158774 1.268490 0
9.285500 0.123021 1.268801 0
9.293405 0.084010 1.268757 0
9.297194 0.044583 1.268597 0
9.276954 0.002976 1.267742 0
9.268339 -0.035469 1.267243 0
9.279680 -0.074139 1.267315 0
9.231107 -0.117680 1.265653 0
9.313924 -0.150763 1.267804 0
9.489050 -0.535779 1.270588 1
9.746378 -0.566002 1.277779 1
9.711933 -0.608271 1.276581 1
11.855348 -0.581337 1.337937 1
53.235073 -6.373966 2.504590 38
53.112877 -6.750753 2.500698 93
53.056782 -6.939247 2.498923 69
52.977261 -7.115176 2.496513 36
52.830166 -7.486653 2.492073 100
52.779499 -7.674627 2.490531 38
54.350105 -8.865618 2.534731 40
54.379215 -9.060337 2.535563 40
54.246624 -9.442480 2.531888 40
57.358948 -10.120477 2.620045 45
53.001461 -9.649021 2.496801 38
54.423866 -10.074086 2.537172 41
57.506176 -10.995286 2.624718 45
42.203243 -8.588709 2.191601 20
42.255344 -8.756728 2.193226 20
42.172981 -8.901325 2.191060 20
42.094078 -9.046158 2.189007 20
56.072304 -11.999401 2.585482 44
56.913124 -12.371499 2.609613 45
56.873165 -12.577070 2.608809 45
55.072021 -12.430528 2.558093 42
41.596703 -9.894747 2.176319 19
41.357964 -10.003874 2.169839 19
35.636074 -9.230220 2.008378 178
35.595490 -9.358943 2.007533 69
35.367241 -9.445270 2.001371 194
35.261158 -9.551287 1.998674 216
35.244362 -9.677515 1.998525 160
35.206146 -9.805629 1.997798 36
40.540699 -11.544661 2.150816 18
40.457180 -11.681402 2.148915 18
39.809387 -11.666239 2.130929 17
40.149479 -11.917488 2.141146 18
41.640926 -12.457610 2.184160 20
41.610504 -12.604316 2.183820 20
40.448174 -12.462277 2.151254 18
40.629665 -12.678957 2.157038 19
38.926151 -12.359049 2.108945 16
39.204021 -12.583291 2.117441 16
40.634312 -13.153416 2.158971 19
29.507729 -10.105874 1.841323 8
37.940765 -12.681298 2.083149 14
41.927425 -14.020168 2.197985 22
40.926510 -13.878913 2.169986 20
39.751003 -13.677800 2.136965 18
37.590652 -13.181453 2.075740 14
38.512337 -13.611738 2.102853 15
37.728210 -13.520253 2.081057 14
38.817444 -14.027571 2.113126 16
38.341789 -14.031276 2.100211 15
40.211929 -14.797294 2.154804 19
37.762505 -14.143896 2.085052 14
41.304298 -15.480702 2.187910 21
37.325222 -14.304708 2.074046 14
37.324032 -14.457410 2.074830 14
37.382717 -14.631163 2.077360 14
36.737186 -14.552017 2.059514 13
36.913544 -14.773850 2.065513 13
36.860203 -14.900124 2.064801 13
37.459663 -15.277524 2.083103 15
37.522346 -15.456330 2.085843 15
37.384243 -15.554085 2.082731 15
37.685448 -15.822826 2.092432 15
38.108719 -16.140392 2.105714 16
37.962296 -16.244715 2.102463 16
37.834293 -16.355381 2.099758 16
37.049065 -16.201950 2.077862 14
113.919624 -47.022675 4.324001 63
113.016113 -47.129444 4.300773 63
111.802582 -47.081535 4.268321 63
111.829193 -47.578552 4.272479 63
112.065147 -48.140476 4.282667 63
93.355240 -50.458569 3.817357 63
92.693138 -50.535419 3.801337 63
92.477325 -50.843266 3.798818 63
91.974548 -50.998131 3.787637 63
7.731997 -6.283210 1.235753 0
7.952285 -6.447328 1.242892 0
7.849192 -6.435794 1.240199 0
7.816244 -6.462385 1.239644 0
7.863506 -6.533687 1.241544 0
7.381829 -6.305336 1.227237 0
7.451186 -6.385771 1.229787 0
7.258885 -6.319414 1.224335 0
7.239404 -6.353313 1.224210 0
7.104153 -6.315566 1.220476 0
6.945108 -6.262828 1.216000 0
7.097950 -6.397305 1.221198 0
6.821492 -6.275538 1.213104 0
7.060196 -6.460688 1.220963 0
7.030891 -6.486068 1.220528 0
6.877687 -6.437893 1.216263 0
6.916625 -6.504462 1.217954 0
7.023177 -6.613503 1.221766 0
7.157203 -6.738706 1.226429 0
6.908045 -6.624249 1.219106 0
6.915449 -6.672438 1.219840 0
6.878820 -6.692759 1.219196 0
14.129505 -11.400764 1.448077 2
14.245663 -11.559920 1.452730 2
14.197240 -11.604984 1.452109 2
6.381369 -6.541210 1.205519 0
6.353022 -6.562341 1.205100 0
6.269504 -6.550682 1.202980 0
6.201376 -6.544564 1.201295 0
6.174460 -6.570094 1.200973 0
6.106504 -6.563314 1.199291 0
6.077230 -6.584771 1.198871 0
5.979208 -6.599777 1.196767 1
5.998913 -6.655230 1.197931 0
6.016058 -6.707174 1.198993 0
5.985406 -6.729539 1.198570 0
5.956697 -6.748978 1.198158 0
6.013323 -6.834461 1.200578 0
7.124010 -7.686668 1.237303 0
7.019021 -7.660792 1.234553 0
6.996953 -7.690663 1.234444 0
5.906779 -6.925249 1.199339 0
5.969201 -7.015314 1.201970 0
5.949279 -7.041707 1.201874 0
5.900657 -7.046208 1.200835 0
5.920798 -7.105419 1.202099 0
5.978570 -7.194209 1.204621 0
5.792977 -7.094195 1.199069 0
6.190039 -7.449762 1.212910 0
5.969947 -7.322061 1.206207 0
6.001078 -7.392191 1.207888 0
5.994386 -7.432590 1.208311 0
6.046606 -7.520765 1.210722 0
6.082800 -7.596763 1.212609 0
5.999085 -7.572850 1.210422 0
6.102626 -7.705066 1.214608 0
6.074165 -7.776865 1.215032 0
36.978294 -54.773441 2.636019 51
36.673641 -54.746902 2.630466 51
17.008242 -58.031754 2.450007 45
16.781536 -57.980541 2.446841 45
16.591288 -58.072365 2.447386 45
16.890446 -59.719810 2.488907 47
15.870095 -57.187160 2.420364 43
15.664357 -57.218674 2.419415 43
15.414743 -57.108139 2.414753 43
15.288047 -57.394142 2.420537 43
15.109726 -57.515373 2.422005 43
15.060230 -58.068962 2.434819 44
15.015003 -58.649734 2.448337 45
14.867488 -58.855553 2.452127 45
14.641315 -58.792049 2.448893 45
14.501900 -59.069023 2.454486 45
14.153395 -58.606499 2.440816 45
13.945905 -58.639408 2.440095 45
13.793143 -58.872166 2.444593 45
13.942518 -60.232037 2.478387 46
13.729599 -60.264133 2.477671 46
-3.365097 -54.617733 2.285755 35
-4.540200 -60.174820 2.426854 44
-4.731997 -59.850029 2.419066 43
-4.934721 -59.788212 2.417907 43
-5.155725 -60.269302 2.430405 44
-5.381250 -60.405052 2.434283 44
-5.586557 -60.533211 2.437949 44
-5.800614 -60.620094 2.440621 44
-5.948758 -59.716755 2.418376 43
-6.215635 -60.431816 2.436940 44
-6.401053 -60.261986 2.433181 44
-5.388632 -12.381605 1.241182 1
-5.444467 -12.281194 1.239287 11
-5.479422 -12.262069 1.239150 15
-5.523421 -12.265118 1.239626 16
-5.568692 -12.271808 1.240205 7
-5.202891 -7.772420 1.132054 0
-5.272515 -7.854406 1.134786 0
-5.208215 -7.663476 1.129701 0
-5.172449 -7.534165 1.126361 0
-5.159898 -7.451273 1.124360 0
-5.163905 -7.400242 1.123287 0
-5.168947 -7.357526 1.122414 0
-5.183844 -7.332145 1.122058 0
-5.283138 -7.470104 1.126444 0
-5.602095 -8.039063 1.143294 0
-5.134741 -7.078833 1.115835 0
-5.133670 -7.025313 1.114653 0
-5.133303 -6.971328 1.113473 0
-5.170932 -6.992139 1.114456 0
-5.181282 -6.963964 1.113993 0
-5.173521 -6.900040 1.112500 0
-5.172998 -6.850291 1.111420 0
-5.185633 -6.825158 1.111062 0
-5.266918 -6.921895 1.114323 0
-5.287497 -6.910455 1.114380 0
-5.317841 -6.916368 1.114954 0
-5.319621 -6.874028 1.114078 0
-5.256680 -6.716604 1.109789 0
-5.407358 -6.929798 1.116576 0
-5.271234 -6.648211 1.108559 0
-5.289877 -6.637332 1.108612 0
-5.328742 -6.656223 1.109604 0
-5.323848 -6.603339 1.108417 0
-5.347430 -6.598559 1.108682 0
-5.386596 -6.621647 1.109773 0
-5.358270 -6.531254 1.107445 0
-5.567913 -6.829569 1.116946 0
-5.430330 -6.562075 1.109221 0
-5.472932 -6.587387 1.110421 0
-5.909109 -6.958447 1.125102 0
-5.947494 -6.971423 1.126001 0
-5.987196 -6.988224 1.127001 0
-5.978975 -6.931147 1.125713 0
-5.996120 -6.909905 1.125575 0
-6.026907 -6.913128 1.126160 0
-6.071157 -6.931261 1.127274 0
-6.067945 -6.884871 1.126295 0
-6.071955 -6.804014 1.124760 0
-6.093124 -6.789051 1.124831 0
-6.166714 -6.849549 1.127303 0
-6.047263 -6.560931 1.119555 0
-6.277490 -6.833414 1.128938 0
-6.157273 -6.628913 1.122831 0
-6.181608 -6.620776 1.123109 0
-7.157681 -7.878047 1.164886 0
-7.191243 -7.872751 1.165390 0
-7.431605 -8.036181 1.172889 0
-7.333120 -7.859514 1.167728 0
-7.319911 -7.793685 1.166240 0
-6.558614 -6.428699 1.126521 0
-6.836223 -6.717601 1.137143 0
-6.856079 -6.700685 1.137221 0
-6.912399 -6.726124 1.138778 0
-6.898232 -6.669665 1.137484 0
-6.978408 -6.721810 1.139993 0
-6.985076 -6.689383 1.139545 0
-7.020738 -6.689909 1.140260 0
-7.029851 -6.660411 1.139918 0
-7.065536 -6.660669 1.140634 0
-7.103966 -6.663712 1.141456 0
-7.149570 -6.676323 1.142593 0
-7.107129 -6.590524 1.140239 0
-7.415083 -6.883137 1.151560 0
-7.274844 -6.691449 1.145390 0
-5.838261 -5.089512 1.088466 6
-5.813888 -5.035500 1.087041 3
-5.752572 -4.944797 1.084231 0
-5.755153 -4.920152 1.083866 0
-5.755501 -4.892011 1.083397 0
-5.752228 -4.861714 1.082819 0
-5.784569 -4.869209 1.083620 0
-5.761407 -4.819036 1.082296 0
-5.746411 -4.777566 1.081292 0
-5.668844 -4.674170 1.077942 0
-5.670203 -4.650094 1.077574 0
-5.654323 -4.609241 1.076566 0
-5.689727 -4.618798 1.077477 0
-5.641949 -4.547476 1.075295 0
-5.651356 -4.531970 1.075246 0
-5.635281 -4.490951 1.074239 0
-5.623560 -4.456862 1.073438 0
-5.620979 -4.430485 1.072961 0
-5.621179 -4.406899 1.072590 0
-5.618328 -4.380632 1.072112 0
-5.615338 -4.354427 1.071634 0
-5.624005 -4.339086 1.071584 0
-5.642061 -4.331161 1.071858 0
-5.605538 -4.276185 1.070198 0
-5.637719 -4.282267 1.071005 0
-5.633587 -4.256887 1.070523 0
-5.635877 -4.236236 1.070258 0
-5.641071 -4.218246 1.070100 0
-5.643171 -4.197632 1.069835 0
-5.642148 -4.174425 1.069462 0
-5.650104 -4.159084 1.069411 0
-6.764822 -5.088895 1.108502 0
-5.647528 -4.112838 1.068665 0
-5.661358 -4.102662 1.068829 0
-5.665959 -4.084733 1.068671 0
-5.652019 -4.051486 1.067866 0
-5.653320 -4.031090 1.067599 0
-5.700940 -4.048708 1.068950 0
-5.615287 -3.957603 1.065664 0
-5.616181 -3.937433 1.065396 0
-5.666911 -3.957290 1.066856 0
-5.674010 -3.941983 1.066804 0
-5.665357 -3.914273 1.066213 0
-5.691170 -3.913795 1.066810 0
-5.694936 -3.895981 1.066651 0
-5.711278 -3.887955 1.066924 0
-5.708575 -3.865247 1.066549 0
-5.721663 -3.854707 1.066714 0
-5.721966 -3.834464 1.066447 0
-5.728568 -3.819054 1.066396 0
-5.693428 -3.772570 1.064935 0
-5.728727 -3.778686 1.065859 0
-5.725442 -3.756186 1.065483 0
-5.732212 -3.740158 1.065434 0
-5.753885 -3.717024 1.065655 1
-5.766530 -3.706225 1.065821 4
-5.788936 -3.702302 1.066314 5
-5.795002 -3.686761 1.066263 4
-5.817404 -3.682648 1.066757 4
-5.839824 -3.678410 1.067251 1
-5.875442 -3.683107 1.068182 2
-5.864892 -3.656045 1.067587 0
-6.340430 -3.959344 1.083025 0
-6.463494 -4.020012 1.086803 0
-6.511051 -4.028034 1.088075 0
-5.734159 -3.492142 1.062358 0
-5.853041 -3.551548 1.066022 0
-5.885299 -3.553370 1.066846 0
-5.847118 -3.509381 1.065373 0
-5.865876 -3.502419 1.065760 0
-5.877888 -3.491058 1.065928 0
-5.893677 -3.481101 1.066209 0
-5.895041 -3.463925 1.066046 0
-6.618875 -3.828989 1.088465 0
-6.645767 -3.823177 1.089085 0
-6.713844 -3.841857 1.091023 0
-6.713350 -3.819260 1.090765 0
-6.612851 -3.737838 1.087315 0
-6.670636 -3.749968 1.088926 0
-6.770071 -3.785794 1.091860 0
-6.575197 -3.651506 1.085431 0
-6.629501 -3.661279 1.086933 0
-6.683929 -3.670704 1.088437 0
-6.675717 -3.644552 1.087955 0
-6.880487 -3.737133 1.094207 0
-6.770929 -3.654366 1.090526 0
-6.822178 -3.660743 1.091923 0
-6.887584 -3.674426 1.093765 0
-6.913957 -3.667687 1.094387 0
-6.951380 -3.665592 1.095346 0
-7.316614 -3.813207 1.106348 0
-7.347606 -3.805716 1.107093 0
-7.286720 -3.749411 1.104960 0
-7.538244 -3.854827 1.112581 0
-7.216039 -3.668111 1.102340 0
-7.360498 -3.719131 1.106633 0
-7.792539 -3.910110 1.119823 0
-7.752412 -3.865056 1.118354 0
-7.701272 -3.815037 1.116550 0
-7.567137 -3.725217 1.112186 0
-7.709353 -3.770958 1.116382 0
-7.628715 -3.707936 1.113683 0
-7.667442 -3.700966 1.114663 0
-7.795762 -3.738185 1.118420 0
-7.851380 -3.713360 1.119713 1
-7.925755 -3.723818 1.121804 1
-8.012140 -3.736656 1.124242 0
-8.127419 -3.763031 1.127571 0
-58.713371 -22.934023 2.651144 46
-59.140633 -22.858763 2.662491 46
-59.179058 -22.656422 2.662276 46
-59.250469 -22.466688 2.663075 46
-59.756100 -22.415047 2.676813 46
-59.950489 -22.245846 2.681201 47
-59.298668 -21.780552 2.660269 46
-59.182560 -21.512968 2.655465 46
-60.607300 -21.574501 2.695643 47
-60.701557 -21.389214 2.697251 47
-60.353485 -20.801752 2.684300 46
-60.441113 -20.604292 2.685720 47
-59.912735 -20.191423 2.668715 46
-61.115532 -20.360901 2.703458 47
-60.456001 -19.919495 2.682659 46
-60.362179 -19.675627 2.678818 46
-60.693810 -19.556078 2.687617 46
-60.749878 -19.337257 2.688175 46
-61.088566 -19.216799 2.697214 47
-61.026154 -18.983501 2.694395 47
-83.980774 -22.568087 3.363323 63
-84.055458 -22.281786 3.364511 63
-84.535912 -22.099115 3.377714 63
-98.733154 -25.024828 3.794870 63
-82.790955 -20.769573 3.323491 63
-46.680428 -11.777114 2.257690 22
-46.690453 -11.614628 2.257533 22
-46.059525 -11.310861 2.238524 21
-46.317272 -11.208062 2.245704 21
-46.549294 -11.089638 2.252119 22
-83.818932 -19.213875 3.349125 63
-85.146721 -19.189579 3.387503 63
-84.690498 -18.802790 3.373457 63
-84.510361 -18.477991 3.367568 63
-85.130554 -18.306271 3.385222 63
-85.220741 -18.007061 3.387285 63
-87.887428 -18.254910 3.465184 63
-88.793434 -18.106041 3.491274 63
-86.991722 -17.443399 3.437835 63
-86.922791 -17.122784 3.435362 63
-95.351288 -18.383621 3.682567 63
-86.401031 -16.429461 3.419254 63
-86.189262 -16.072159 3.412665 63
-86.278061 -15.799798 3.414968 63
-88.499023 -15.552073 3.479612 63
-90.257523 -15.530922 3.531003 63
-94.698669 -15.945580 3.661176 63
-94.216957 -15.537965 3.646851 63
-88.999260 -14.405490 3.493553 63
-87.151497 -13.817092 3.439210 63
-102.663422 -15.789193 3.894395 63
-91.465790 -13.827440 3.565703 63
-115.819832 -16.908590 4.280439 63
-90.542686 -13.065106 3.538608 63
-82.403130 -11.672107 3.299764 63
-82.453499 -11.378873 3.301317 63
-82.574654 -11.122964 3.304967 63
-82.680832 -10.850348 3.308212 63
-95.392792 -12.068502 3.681525 63
-95.365326 -11.751432 3.680922 63
-95.247200 -11.408195 3.677700 63
-124.105606 -14.170252 4.525355 63
-113.820992 -12.687664 4.223726 63
-114.483551 -12.340195 4.243621 63
-114.466621 -11.942072 4.243581 63
9.683146 -0.421886 1.412888 1
9.701138 -0.461909 1.413370 1
55.625565 -8.094486 3.246703 57
54.290535 -9.321129 3.195257 53
52.988647 -9.718404 3.144355 49
42.453350 -8.681517 2.723673 24
42.187595 -8.786676 2.713458 24
55.389908 -12.559258 3.248444 58
41.648285 -9.954884 2.696350 23
41.504963 -10.075953 2.691216 23
41.070366 -10.142450 2.674406 23
41.022655 -10.289367 2.673190 22
41.272945 -10.659881 2.684760 23
40.942795 -10.743783 2.672221 23
40.569740 -10.815639 2.657962 22
40.150375 -11.029470 2.642668 22
39.883831 -11.113006 2.632703 21
40.799557 -11.491872 2.670596 23
40.755009 -11.639275 2.669702 23
40.826225 -11.815804 2.673515 23
40.877365 -11.988008 2.676542 23
40.459705 -12.039211 2.660598 22
39.485619 -11.941111 2.622097 21
40.909191 -12.636763 2.681900 23
39.145496 -12.313567 2.611336 21
40.780888 -12.923175 2.678864 23
40.685246 -13.057243 2.676096 23
40.933365 -13.281041 2.687280 23
29.533279 -10.144529 2.224187 11
29.439886 -10.236552 2.221262 11
39.856285 -13.448917 2.646951 22
39.035667 -13.361263 2.614678 21
39.412956 -13.632519 2.631303 22
39.334324 -13.766396 2.629341 22
41.471977 -14.591933 2.718047 24
40.483009 -14.446091 2.678931 23
40.523468 -14.622306 2.681947 23
40.293224 -14.711564 2.673894 23
39.466537 -14.604026 2.641378 22
39.251957 -14.693352 2.633967 22
37.254669 -14.175955 2.553232 19
36.998856 -14.234221 2.544014 19
37.179379 -14.448021 2.552831 19
37.831566 -14.983014 2.582582 20
37.734943 -15.112873 2.580158 20
39.573082 -15.920184 2.657532 23
113.344627 -47.406898 5.758074 63
7.437384 -6.393661 1.355898 1
7.591902 -6.526065 1.363427 1
7.526693 -6.535149 1.361308 1
7.404781 -6.506288 1.356602 1
7.517485 -6.614413 1.362297 1
7.400647 -6.592191 1.357888 1
7.382123 -6.623333 1.357773 1
7.330712 -6.639122 1.356271 1
7.347642 -6.696103 1.357824 1
6.976623 -6.513786 1.341979 1
6.961763 -6.545620 1.342022 1
6.915266 -6.559991 1.340686 1
6.934119 -6.612854 1.342255 1
6.955114 -6.669597 1.343970 1
7.627899 -7.138766 1.375114 1
7.572828 -7.150779 1.373467 1
7.591677 -7.210165 1.375172 1
7.583420 -7.252324 1.375659 1
6.481753 -6.578103 1.326348 0
14.654430 -12.016950 1.700147 3
6.386181 -6.599539 1.323544 0
6.310218 -6.590940 1.320850 0
6.227792 -6.577405 1.317854 0
6.228176 -6.619584 1.318661 0
6.152542 -6.609845 1.315972 0
6.119831 -6.629180 1.315260 0
6.064119 -6.632372 1.313485 0
6.071654 -6.677435 1.314603 0
6.020198 -6.681120 1.312987 0
6.149460 -6.858015 1.320676 0
6.097644 -6.861621 1.319061 0
6.067509 -6.882801 1.318503 0
7.097270 -7.682230 1.367837 1
7.022500 -7.675977 1.365296 1
7.031300 -7.731271 1.366698 1
6.905426 -7.686104 1.361735 1
6.928807 -7.754804 1.363889 1
6.917981 -7.795601 1.364382 1
6.837145 -7.782963 1.361544 1
6.282755 -7.402354 1.336007 1
6.252076 -7.422434 1.335454 1
6.210786 -7.436431 1.334442 1
6.172640 -7.452692 1.333583 1
6.157534 -7.484722 1.333788 1
6.116180 -7.498195 1.332779 1
6.105984 -7.536503 1.333282 1
6.132898 -7.605002 1.335598 1
6.106771 -7.630824 1.335345 1
6.062028 -7.641323 1.334186 1
6.063513 -7.689805 1.335294 1
5.994121 -7.679533 1.332929 1
16.872980 -57.792805 3.139300 63
16.765806 -58.135555 3.149867 63
16.520752 -58.026390 3.143106 63
16.448496 -58.520180 3.159398 63
16.198179 -58.427994 3.153223 63
15.643186 -57.324623 3.108280 60
15.437115 -57.355312 3.106962 60
15.180795 -57.220875 3.099331 59
15.031910 -57.437397 3.105216 60
15.043870 -58.197525 3.131957 62
14.870168 -58.344864 3.135201 62
14.781509 -58.787262 3.149755 63
14.559793 -58.813789 3.148299 63
14.376477 -58.936630 3.150670 63
14.516495 -60.180286 3.195919 63
13.942145 -58.862839 3.143541 63
13.720636 -58.886158 3.142097 63
13.555604 -59.038353 3.145807 63
13.724917 -60.498981 3.199125 63
13.340799 -59.876595 3.173329 63
-3.234236 -54.641621 2.910253 42
-3.412438 -54.653214 2.910951 42
-4.581131 -59.939682 3.107232 60
-4.792230 -60.046104 3.111637 60
-5.010147 -60.067406 3.112969 60
-5.209034 -59.924820 3.108272 60
-5.415394 -60.105400 3.115471 61
-5.653386 -60.611790 3.134731 62
-5.860570 -60.586704 3.134451 62
-6.056708 -60.249126 3.122720 61
-5.408852 -12.421137 1.380764 1
-5.454369 -12.286232 1.376607 9
-5.486966 -12.259443 1.376080 13
-5.534123 -12.265654 1.376894 12
-5.583043 -12.283721 1.378150 4
-5.413604 -7.660789 1.219297 0
-5.455158 -7.684319 1.220852 0
-5.401320 -7.527582 1.214777 0
-5.377413 -7.427269 1.211097 0
-5.393363 -7.400730 1.210560 0
-5.364604 -7.293735 1.206578 0
-5.361760 -7.236244 1.204691 0
-5.381521 -7.220962 1.204600 0
-5.412771 -7.226633 1.205407 0
-5.424721 -7.197203 1.204718 0
-5.430656 -7.157298 1.203578 0
-5.433492 -7.109863 1.202142 0
-5.458675 -7.104790 1.202501 0
-5.478830 -7.093287 1.202558 0
-5.454986 -7.005556 1.199315 0
-6.010602 -7.912453 1.239278 0
-6.032609 -7.894963 1.239197 0
-6.084230 -7.924861 1.241221 0
-6.108304 -7.910563 1.241291 0
-5.500832 -6.797313 1.193825 0
-5.424158 -6.628736 1.186971 0
-5.543252 -6.780777 1.194239 0
-5.571760 -6.781962 1.194901 0
-5.534666 -6.677929 1.190902 0
-5.548002 -6.655408 1.190511 0
-5.574072 -6.653114 1.191023 0
-5.596844 -6.643343 1.191236 0
-5.632788 -6.658266 1.192498 0
-5.620997 -6.599247 1.190449 0
-5.642634 -6.589918 1.190661 0
-5.671821 -6.589879 1.191328 0
-5.711142 -6.606993 1.192745 0
-5.749649 -6.624555 1.194160 0
-5.833979 -6.707550 1.198593 0
-5.880755 -6.733811 1.200466 0
-5.954849 -6.799400 1.204150 0
-6.021389 -6.850674 1.207235 0
-6.048556 -6.846448 1.207755 0
-6.083893 -6.855915 1.208875 0
-6.825125 -7.864165 1.256182 0
-6.842038 -7.837503 1.255809 0
-6.862335 -7.813210 1.255592 0
-6.187451 -6.786985 1.209369 0
-6.109420 -6.636115 1.203095 0
-6.164569 -6.669999 1.205430 0
-6.219013 -6.704302 1.207763 0
-6.253186 -6.708748 1.208740 0
-7.013637 -7.677294 1.255402 0
-6.367677 -6.777637 1.213572 0
-6.404732 -6.784588 1.214703 0
-6.473582 -6.832529 1.217803 0
-6.488942 -6.810559 1.217574 0
-6.461387 -6.735774 1.214766 0
-6.491189 -6.732734 1.215445 0
-6.603923 -6.832164 1.221129 0
-6.609222 -6.797311 1.220295 0
-6.644379 -6.799881 1.221280 0
-6.674581 -6.796062 1.221963 0
-6.676031 -6.758837 1.220973 0
-6.723923 -6.776468 1.222718 0
-6.657405 -6.655189 1.217634 0
-6.751201 -6.727988 1.222113 0
-6.814746 -6.763442 1.224772 0
-6.821868 -6.731328 1.224091 0
-6.898733 -6.781456 1.227512 0
-6.934409 -6.782537 1.228503 0
-7.113723 -6.949925 1.237858 0
-7.090854 -6.879846 1.235359 0
-6.983944 -6.718513 1.228135 0
-7.141181 -6.857056 1.236128 0
-5.996071 -5.050716 1.157131 5
-5.979049 -5.005627 1.155512 2
-5.922087 -4.921242 1.151750 0
-5.910085 -4.882247 1.150435 0
-5.909272 -4.854580 1.149732 0
-5.948400 -4.866012 1.151172 0
-5.961798 -4.852205 1.151234 0
-5.929025 -4.794049 1.148845 0
-5.976879 -4.813417 1.150746 0
-6.033622 -4.840744 1.153109 0
-5.997436 -4.780084 1.150565 0
-5.873247 -4.637872 1.143418 0
-5.777421 -4.523756 1.137801 0
-5.760225 -4.483469 1.136326 0
-5.760491 -4.459531 1.135771 0
-5.863583 -4.530366 1.140588 0
-5.828326 -4.474018 1.138190 0
-5.849288 -4.468635 1.138711 0
-5.748402 -4.353566 1.132933 0
-5.924794 -4.485980 1.141450 0
-5.681420 -4.248257 1.128436 0
-5.897644 -4.413873 1.138957 0
-5.939105 -4.427077 1.140554 0
-5.778135 -4.264865 1.131839 0
-5.804643 -4.264625 1.132668 0
-5.834811 -4.266153 1.133655 0
-5.778801 -4.196167 1.130324 0
-5.749423 -4.150317 1.128376 0
-5.892643 -4.246899 1.135065 0
-5.802040 -4.149467 1.130035 0
-5.763420 -4.095706 1.127626 0
-5.910694 -4.193366 1.134475 0
-5.763007 -4.051803 1.126662 0
-5.839110 -4.091082 1.129963 0
-5.871714 -4.095064 1.131104 0
-5.860451 -4.064205 1.130082 0
-5.902523 -4.075351 1.131688 0
-5.954187 -4.093598 1.133759 0
-5.964889 -4.079777 1.133820 0
-5.816902 -3.944373 1.126144 0
-5.944791 -4.020564 1.131930 0
-5.773751 -3.849099 1.122759 0
-5.931639 -3.924815 1.129539 0
-5.996032 -3.951958 1.132232 0
-5.996964 -3.909937 1.131425 0
-5.919350 -3.833041 1.127296 0
-6.147248 -3.974732 1.137756 0
-6.030262 -3.870230 1.131764 0
-5.922413 -3.773471 1.126234 0
-5.892646 -3.732342 1.124430 1
-5.905375 -3.721011 1.124645 2
-5.924662 -3.714148 1.125171 2
-5.963768 -3.720687 1.126631 2
-5.969857 -3.704595 1.126536 1
-5.989158 -3.697404 1.127063 1
-6.015110 -3.694542 1.127902 0
-6.514632 -3.826667 1.147662 0
-6.534110 -3.795080 1.147799 0
-6.644598 -3.774316 1.151359 0
-6.671406 -3.768220 1.152212 0
-6.822501 -3.834498 1.158701 0
-6.609803 -3.667397 1.148351 0
-6.757930 -3.730426 1.154689 0
-6.836956 -3.753126 1.157895 0
-7.107442 -3.859110 1.169335 0
-6.980809 -3.766005 1.163293 0
-7.119629 -3.820443 1.169171 0
-7.104777 -3.789214 1.168149 0
-7.103849 -3.765697 1.167755 0
-7.300303 -3.847572 1.176159 0
-7.310137 -3.829053 1.176238 0
-7.210182 -3.752945 1.171444 0
-7.209048 -3.729208 1.171050 0
-7.317937 -3.762300 1.175533 0
-7.512530 -3.838332 1.183797 0
-7.451028 -3.782932 1.180731 0
-7.399923 -3.733380 1.178135 0
-7.563196 -3.791143 1.184990 0
-7.558496 -3.764628 1.184443 0
-7.603939 -3.762779 1.186102 0
-7.663820 -3.767624 1.188394 0
-7.716599 -3.768620 1.190371 0
-7.800696 -3.759366 1.193384 1
-7.868140 -3.766207 1.195997 1
-7.939328 -3.774292 1.198770 1
-8.014276 -3.783581 1.201703 0
-59.641685 -22.788507 3.392991 63
-59.597477 -22.542397 3.388745 63
-59.769711 -22.388714 3.393849 63
-60.106651 -22.283072 3.405847 63
-59.928688 -21.988964 3.396025 63
-60.106857 -21.824348 3.401338 63
-60.578453 -21.762804 3.419092 63
-60.601234 -21.529476 3.417761 63
-60.804855 -21.382113 3.424321 63
-61.331375 -21.090143 3.442215 63
-59.968224 -20.403799 3.382707 63
-60.145550 -20.237705 3.388188 63
-60.128662 -20.007317 3.385522 63
-59.936447 -19.732147 3.375616 63
-61.155083 -19.897972 3.424926 63
-60.667870 -19.517101 3.402590 63
-60.884686 -19.359737 3.409848 63
-60.798656 -19.096807 3.404345 63
-99.404480 -25.124084 4.982262 63
-46.721142 -11.921345 2.794973 25
-46.795879 -11.782319 2.797199 25
-46.784435 -11.606107 2.795784 25
-46.194355 -11.303875 2.770472 24
-46.654610 -11.246797 2.788691 25
-46.555294 -11.052331 2.783720 24
-46.519779 -10.881183 2.781458 24
-83.356071 -18.742781 4.303701 63
-83.930199 -18.583477 4.326135 63
-84.217789 -18.345175 4.336686 63
-84.229813 -18.033184 4.335828 63
-84.453148 -17.779476 4.343802 63
-84.249550 -17.454271 4.334254 63
-88.272446 -17.960775 4.499112 63
-88.856888 -17.760880 4.522039 63
-87.166061 -17.111475 4.451139 63
-86.895485 -16.753639 4.438919 63
-87.135895 -16.506357 4.447853 63
-87.500221 -16.264502 4.461878 63
-87.824524 -16.013412 4.474291 63
-87.651741 -15.675312 4.466277 63
-87.095291 -15.274552 4.442518 63
-86.836838 -14.926993 4.431077 63
-89.575684 -14.733195 4.542223 63
-89.148888 -14.354871 4.523979 63
-87.583832 -13.825096 4.459014 63
-87.572586 -13.518185 4.457960 63
-89.174599 -13.441535 4.523262 63
-88.785881 -13.077211 4.506773 63
-91.076988 -13.078733 4.600454 63
-90.819260 -12.744046 4.589450 63
-82.146469 -11.314741 4.232745 63
-90.694550 -12.082444 4.583573 63
-95.537399 -12.355028 4.782203 63
-97.197769 -12.202351 4.850120 63
-97.373253 -11.902456 4.857114 63
-113.715408 -13.392016 5.528111 63
-114.262535 -13.056086 5.550425 63
37.813934 8.675714 3.344585 9
37.874752 8.543202 3.345649 9
37.863529 8.400823 3.342525 9
37.976254 8.287600 3.346895 9
37.930687 8.130167 3.341636 9
9.566839 0.631673 1.621039 0
9.564634 0.590188 1.620408 0
9.601850 0.554106 1.622104 0
9.583529 0.510462 1.620543 0
9.588811 0.470020 1.620378 0
9.570177 0.426588 1.618818 0
9.555099 0.385802 1.617500 0
9.559707 0.347477 1.617343 0
9.556716 0.304192 1.616706 0
9.549371 0.262523 1.615845 0
9.549816 0.221775 1.615448 0
9.553880 0.183469 1.615293 0
9.566170 0.141914 1.615584 0
9.582088 0.102691 1.616116 0
9.577805 0.063534 1.615496 0
9.605389 0.025264 1.616724 0
9.601195 -0.017964 1.616087 0
9.640280 -0.053465 1.618017 0
9.643592 -0.094102 1.617852 1
9.618890 -0.136868 1.616066 2
9.637842 -0.176274 1.616828 3
9.620807 -0.218276 1.615505 3
9.639350 -0.255768 1.616275 2
9.653913 -0.295657 1.616805 2
9.664472 -0.337908 1.617095 0
9.686615 -0.375491 1.618096 0
9.920107 -0.404341 1.631346 0
9.762645 -0.453634 1.621928 0
88.552483 0.223404 6.171528 63
57.744339 -8.327011 4.384500 30
57.068314 -9.072346 4.348373 29
56.727451 -9.234771 4.329527 28
56.666840 -9.435174 4.326894 28
55.576077 -9.689330 4.265748 27
53.539455 -9.769664 4.149980 24
56.000378 -10.364941 4.293278 27
56.022617 -10.576421 4.295673 27
42.037613 -8.589192 3.488648 11
42.235161 -8.782203 3.501026 11
55.860138 -11.381358 4.291132 27
55.749023 -11.569621 4.286016 27
55.806118 -11.788684 4.290688 27
56.013393 -12.026461 4.304043 28
56.754929 -12.379747 4.348516 29
40.642143 -10.039177 3.419605 11
40.797836 -10.228287 3.429927 11
40.375343 -10.292253 3.406636 10
41.609684 -10.721966 3.479846 11
40.087624 -10.537641 3.392545 10
39.984119 -10.668389 3.387889 10
39.761360 -10.763096 3.376230 10
40.205101 -11.022078 3.403563 10
40.014656 -11.131955 3.393919 10
39.781288 -11.230198 3.381786 10
40.749332 -11.625017 3.439927 11
40.375164 -11.689338 3.419632 11
40.682064 -11.925169 3.439222 11
40.806137 -12.116173 3.448158 11
40.512268 -12.198492 3.432633 11
40.939930 -12.471330 3.459453 11
41.169590 -12.694118 3.474717 11
40.932186 -12.790877 3.462593 11
39.890457 -12.662616 3.403188 10
39.705574 -12.760339 3.394055 10
38.564198 -12.584332 3.328615 10
29.518797 -10.124675 2.797412 5
29.440855 -10.221176 2.794275 5
38.222729 -12.943764 3.314096 10
38.205563 -13.099146 3.315109 10
39.586697 -13.664575 3.398627 10
38.488895 -13.485332 3.335736 10
37.299221 -13.276921 3.267428 9
38.671356 -13.853003 3.350676 10
39.735729 -14.341166 3.415833 11
39.694263 -14.496497 3.415697 11
40.077316 -14.790826 3.440826 11
40.808689 -15.187505 3.486525 11
38.083942 -14.433380 3.326561 10
37.119167 -14.270149 3.271442 9
38.878624 -15.025334 3.378652 10
39.148983 -15.270592 3.397061 10
38.859070 -15.338102 3.382290 10
7.229870 -6.572508 1.540087 0
7.245423 -6.670128 1.543408 14
7.178046 -6.673042 1.540175 10
7.127727 -6.686086 1.538056 4
6.950434 -6.660777 1.528716 0
14.366330 -11.410429 2.018557 1
14.353526 -11.482558 2.019902 1
14.162513 -11.440029 2.009475 1
14.395844 -11.667583 2.027044 1
14.361936 -11.726933 2.027056 1
14.345936 -11.802222 2.028390 1
13.915222 -11.678282 2.004230 7
6.448810 -6.720904 1.506179 2
6.404750 -6.736109 1.504513 5
6.348513 -6.740578 1.501967 3
6.272628 -6.731111 1.498091 2
13.389109 -11.719576 1.980386 22
13.366643 -11.779710 1.981086 65
13.322479 -11.828677 1.980448 55
13.317226 -11.905231 1.982469 47
13.320034 -11.983853 1.984942 16
6.967508 -7.532770 1.554509 0
6.976962 -7.587613 1.556609 0
6.908980 -7.585735 1.553397 0
6.860362 -7.597747 1.551514 0
6.786180 -7.590364 1.547861 0
6.686638 -7.563321 1.542440 0
6.342402 -7.349777 1.519989 0
16.802956 -59.522224 4.273215 32
16.596262 -59.579880 4.272627 32
16.333200 -59.457691 4.261860 31
15.989641 -59.071140 4.236149 31
15.260910 -57.414917 4.138528 28
15.094043 -57.574223 4.144023 28
15.006232 -58.000965 4.164681 28
14.823080 -58.113609 4.167581 28
14.747555 -58.597687 4.191491 29
14.548720 -58.663467 4.191796 29
14.388826 -58.866905 4.199901 29
14.181890 -58.867077 4.196753 29
14.284871 -60.028214 4.258781 31
13.773548 -58.963211 4.195650 29
13.551562 -58.944618 4.191422 29
13.631447 -60.064213 4.251072 31
-5.002520 -60.752666 4.184112 29
-5.190588 -60.362923 4.163682 28
-5.409853 -60.382721 4.165578 28
-5.597563 -60.051514 4.148401 28
-5.775065 -59.756256 4.133167 27
-5.414103 -12.447165 1.590334 0
-5.426199 -12.343428 1.585175 13
-5.450858 -12.289993 1.582845 15
-5.487802 -12.270247 1.582478 14
-5.535414 -12.284679 1.584073 89
-5.581202 -12.299540 1.585665 165
-5.632762 -12.324995 1.587916 147
-5.637317 -7.276587 1.338184 0
-5.685381 -7.308647 1.341104 0
-5.700271 -7.281343 1.340291 0
-5.670999 -7.182606 1.334858 0
-5.687299 -7.163548 1.334478 0
-5.675639 -7.095963 1.331022 0
-5.676028 -7.048994 1.328885 0
-5.676134 -7.002097 1.326748 0
-5.681201 -6.961422 1.325053 0
-5.693451 -6.934984 1.324236 0
-5.702407 -6.905800 1.323195 0
-5.710094 -6.872600 1.321937 0
-5.728345 -6.856247 1.321779 0
-5.749705 -6.842543 1.321846 0
-5.764640 -6.823374 1.321465 0
-5.773943 -6.793482 1.320427 0
-5.786283 -6.766270 1.319613 0
-5.828404 -6.786291 1.321880 0
-5.847499 -6.773564 1.321941 0
-5.867554 -6.760098 1.322006 0
-5.894291 -6.756475 1.322732 0
-5.914286 -6.742846 1.322797 0
-5.900239 -6.679817 1.319554 0
-5.938188 -6.692413 1.321384 0
-5.939646 -6.652449 1.319685 0
-6.027297 -6.737309 1.326367 0
-6.105008 -6.804643 1.331951 0
-6.253958 -6.968233 1.344163 0
-6.262526 -6.893136 1.341213 0
-6.304210 -6.907238 1.343272 0
-6.323703 -6.892931 1.343339 0
-6.256146 -6.759107 1.335236 0
-6.280928 -6.750614 1.335749 0
-6.315309 -6.754783 1.337145 0
-6.395607 -6.819257 1.342742 0
-6.464290 -6.867366 1.347236 0
-6.455452 -6.813755 1.344656 0
-6.502546 -6.832899 1.347162 0
-6.535087 -6.832891 1.348342 0
-50.937954 -60.682217 5.219376 58
-51.140766 -60.504864 5.219729 58
-51.498756 -60.514103 5.233601 59
-51.834320 -60.494015 5.245485 59
-52.054436 -60.334953 5.247401 59
-53.163761 -61.221962 5.325584 62
-52.996971 -60.603035 5.294261 61
-53.204578 -60.424652 5.295085 61
-53.236153 -60.043472 5.281051 60
-53.221004 -59.611683 5.263241 60
-6.207128 -5.063056 1.265740 0
-6.185843 -5.015989 1.263127 9
-6.141793 -4.946400 1.258732 3
-6.074046 -4.855267 1.252551 0
-6.064727 -4.818494 1.250833 0
-6.042828 -4.771682 1.248219 0
-6.028814 -4.733892 1.246270 0
-6.012290 -4.692840 1.244101 0
-6.033948 -4.686871 1.244834 0
-6.064507 -4.688823 1.246238 0
-6.071336 -4.669281 1.245854 0
-6.081062 -4.652391 1.245695 0
-6.099697 -4.643413 1.246206 0
-6.061287 -4.584295 1.242469 0
-6.013483 -4.517619 1.238061 0
-5.953183 -4.440868 1.232756 0
-5.940863 -4.406225 1.231028 0
-5.952655 -4.392448 1.231090 0
-5.949162 -4.365722 1.230032 0
-5.939420 -4.333919 1.228527 0
-5.938699 -4.309906 1.227693 0
-5.940932 -4.288489 1.227082 0
-5.927650 -4.254402 1.225352 0
-5.957463 -4.255840 1.226757 0
-5.980568 -4.252769 1.227711 0
-6.915167 -4.983402 1.294338 0
-6.957025 -4.988685 1.296431 0
-6.886433 -4.904258 1.290454 0
-6.909361 -4.894600 1.291203 0
-6.938569 -4.889755 1.292400 0
-7.027694 -4.931346 1.297861 0
-7.050793 -4.921096 1.298612 0
-6.053401 -4.128211 1.227087 2
-6.026090 -4.085013 1.224455 1
-7.139143 -4.904109 1.302215 0
-7.168637 -4.898131 1.303417 0
-7.226977 -4.913465 1.306642 0
-7.269431 -4.916565 1.308745 0
-7.337724 -4.938323 1.312647 0
-7.341681 -4.912611 1.312054 0
-7.394061 -4.922029 1.314835 0
-6.026032 -3.889810 1.218495 0
-6.013200 -3.859592 1.216981 0
-6.055765 -3.868519 1.219293 0
-6.023090 -3.824653 1.216429 0
-6.016431 -3.799230 1.215365 0
-6.025828 -3.764373 1.214812 3
-6.041995 -3.754779 1.215324 5
-6.051513 -3.740653 1.215386 6
-6.077597 -3.737568 1.216575 6
-6.107040 -3.736536 1.217990 3
-6.133186 -3.733141 1.219180 1
-6.192821 -3.751395 1.222626 2
-6.205680 -3.738910 1.222915 0
-6.376149 -3.805995 1.233200 0
-6.422027 -3.770561 1.234529 0
-6.431597 -3.755109 1.234596 0
-6.627935 -3.855138 1.247088 0
-6.743591 -3.903269 1.254165 0
-6.661286 -3.831009 1.248133 0
-6.688201 -3.824972 1.249334 0
-6.663617 -3.788206 1.247143 0
-6.651785 -3.737450 1.245248 0
-6.764898 -3.781266 1.252108 0
-6.753730 -3.752674 1.250821 0
-6.773643 -3.741998 1.251572 0
-6.821348 -3.746945 1.254136 0
-6.879594 -3.757453 1.257380 0
-6.920523 -3.757879 1.259493 0
-7.031443 -3.796643 1.266139 0
-7.016578 -3.765642 1.264628 0
-7.064735 -3.769069 1.267198 0
-7.105944 -3.768409 1.269315 0
-7.196533 -3.793821 1.274609 0
-7.216768 -3.781269 1.275368 0
-7.233442 -3.766754 1.275900 0
-7.306759 -3.781653 1.280064 0
-7.319911 -3.764943 1.280371 0
-7.407673 -3.786369 1.285447 0
-7.492086 -3.805408 1.290299 0
-7.565001 -3.793720 1.293872 0
-7.624769 -3.799042 1.297138 0
-7.673882 -3.798712 1.299723 1
-7.748210 -3.810280 1.303902 0
-59.595787 -22.569208 4.464813 32
-60.778061 -22.080828 4.522276 33
-60.425827 -21.724791 4.497242 33
-60.723637 -21.588390 4.511667 33
-60.504467 -21.282642 4.494872 33
-60.548344 -21.069239 4.494124 33
-60.947300 -20.987719 4.515125 33
-61.016590 -20.781828 4.515988 33
-61.018757 -20.097622 4.506410 33
-99.690704 -24.497705 6.748064 63
-46.098427 -11.455357 3.560268 12
-46.436096 -11.379782 3.578887 12
-46.366863 -11.200491 3.573292 12
-96.245430 -21.954222 6.527633 63
-95.666328 -21.482775 6.490386 63
-96.092400 -21.232006 6.512778 63
-84.654877 -18.458441 5.832807 63
-96.801430 -20.675720 6.549103 63
-96.587654 -20.287287 6.533806 63
-83.784401 -17.397030 5.774519 63
-84.409149 -17.223152 5.809265 63
-95.212433 -19.009562 6.445192 63
-95.094093 -18.649893 6.435876 63
-95.386635 -18.367849 6.450883 63
-89.566521 -16.986471 6.105474 63
-89.244270 -16.613255 6.084478 63
-89.202423 -16.276173 6.079995 63
-90.069809 -16.111290 6.129251 63
-87.883530 -15.412843 5.998584 63
-87.946480 -15.130545 6.000680 63
-90.232147 -15.205493 6.133669 63
-88.778076 -14.661151 6.046489 63
-89.464500 -14.456375 6.085344 63
-89.352837 -14.127276 6.077305 63
-89.826942 -13.869450 6.103704 63
-90.179535 -13.606805 6.123083 63
-90.373154 -13.319836 6.133173 63
-82.197517 -11.341301 5.649626 63
88.866005 0.123993 8.315237 63
42.440571 -8.694536 4.567207 13
42.285343 -8.819036 4.556049 13
41.735268 -10.617902 4.533494 13
41.829967 -10.799153 4.543457 13
41.667297 -10.922980 4.532304 13
41.659710 -11.081608 4.533950 13
40.847614 -11.209949 4.471697 12
40.819584 -11.361318 4.471755 12
40.403770 -11.417659 4.439851 12
40.220238 -11.529008 4.427133 12
40.351440 -11.710914 4.440329 12
