# .PCD v.7 - Point Cloud Data file format
VERSION .7
FIELDS x y z intensity
SIZE 4 4 4 1
TYPE F F F U
COUNT 1 1 1 1
WIDTH 1470
HEIGHT 1
VIEWPOINT 0 0 0 1 0 0 0
POINTS 1470
DATA ascii
-80.525803 41.789650 4.998282 56
-79.034126 41.340149 4.930406 57
-79.132980 41.735813 4.944846 57
-58.120781 30.892984 3.866734 36
-77.888786 41.776478 4.899693 58
-78.870155 42.650291 4.960168 57
-75.659218 41.227745 4.801932 60
-74.597595 40.977955 4.755760 61
-63.871597 35.355358 4.203143 48
-63.740711 35.565411 4.204217 48
-63.459473 35.690536 4.197410 48
-63.581005 36.043304 4.211851 48
-63.557938 36.301117 4.218334 48
-63.551842 36.583900 4.226183 49
-63.523808 36.855007 4.232932 49
-74.496368 43.587143 4.826054 60
-77.486465 45.698448 4.995695 56
-76.801407 45.646515 4.969355 57
-72.690025 43.528893 4.758886 61
-72.916870 44.003384 4.780968 61
-72.282005 43.954994 4.756672 61
-72.274399 44.288204 4.766236 61
-77.499046 45.997654 6.544189 56
-75.640480 45.239613 6.420115 58
-75.348824 45.413864 6.411886 58
-92.187134 56.016251 7.678532 63
-74.843796 45.789066 6.400625 58
-107.373337 66.292046 8.848617 63
-74.979324 46.577995 6.438194 58
-72.304817 45.267490 6.251613 60
-73.225021 46.194885 6.334533 59
-72.959007 46.374584 6.328240 59
-91.324646 58.532875 7.733472 63
-73.639374 47.500000 6.407142 58
-73.742210 47.941597 6.429961 58
-107.777237 70.705643 9.043693 63
-107.818001 71.237175 9.067173 63
-107.801804 71.786736 9.088638 63
-107.845108 72.352104 9.113794 63
-107.879150 72.914154 9.138448 63
-107.858353 73.468750 9.160181 63
-107.801262 73.946411 9.177053 63
-70.031921 48.245857 6.258617 61
-69.558914 48.268143 6.236361 61
-69.295425 48.434853 6.230430 61
-68.780960 48.422386 6.204814 62
-68.281853 48.434742 6.181049 62
-68.227661 48.729092 6.190840 62
-67.414330 48.491215 6.141382 62
-67.086853 48.601627 6.130260 63
-66.437981 48.473621 6.093532 63
-66.034454 48.522423 6.076230 63
-62.736015 48.387482 5.913414 59
-62.560909 48.952492 5.930161 100
-62.505352 49.253323 5.940933 100
-62.095795 49.253967 5.921833 100
-61.690887 49.272884 5.903819 100
-61.283489 49.287048 5.885530 100
-59.901314 48.499168 5.785980 55
-59.876572 48.818066 5.799264 55
-58.576679 48.078091 5.705790 53
-58.108891 48.021690 5.681731 52
-57.763302 48.048096 5.667107 52
-57.552048 48.186401 5.663797 52
-57.323124 48.325703 5.659776 52
-57.048531 48.424915 5.651882 51
-56.888519 48.622166 5.653770 51
-56.613552 48.719101 5.645857 51
-56.161732 48.659168 5.622720 50
-55.777378 48.672222 5.606078 50
-43.365070 38.181240 4.558317 61
-43.290531 38.389000 4.564814 61
-43.039303 38.410275 4.554681 61
-42.847229 38.484253 4.549705 61
-42.776863 38.696171 4.556706 30
-51.373829 46.942707 5.328829 43
-51.058590 46.970314 5.316344 42
-50.729237 46.982594 5.302554 42
-50.391720 46.984886 5.287974 42
-50.055405 47.002060 5.274215 41
-49.730526 47.011822 5.260642 41
-49.406170 47.019878 5.247056 40
-49.093239 47.020794 5.233657 40
-48.795055 47.034138 5.221542 40
-48.531811 47.096256 5.213357 39
-48.045391 46.934464 5.184691 78
-47.425930 46.650520 5.144395 38
-47.043980 46.568348 5.124184 37
-11.734569 11.077510 1.873085 44
-11.725176 11.142038 1.875929 28
-45.685883 47.072140 5.092703 36
-45.188339 47.189766 5.078176 36
-44.866394 47.167870 5.063881 100
-43.670856 46.196739 4.965615 33
-44.691738 47.957161 5.097120 73
-44.401653 47.966846 5.085915 72
-44.120232 47.967720 5.074648 71
-43.833721 47.977535 5.063680 71
-43.547657 47.985928 5.052701 100
-43.275528 47.991680 5.042183 100
-30.226116 33.373672 3.764668 39
-42.064926 47.278561 4.957178 32
-41.809280 47.309353 4.948746 32
-41.232681 46.946640 4.907158 31
-40.767181 46.724331 4.877323 30
-40.458027 46.682484 4.863113 30
-40.182938 46.678833 4.852282 61
-39.941833 46.697899 4.844004 61
-39.710445 46.759834 4.838416 61
-39.502293 46.832668 4.834340 61
-39.324310 46.941769 4.833390 61
-39.153545 47.059505 4.833217 61
-39.000469 47.182598 4.834039 61
-38.838898 47.311626 4.834900 61
-38.572918 47.308571 4.824782 61
-38.329586 47.332485 4.817007 61
-38.074272 47.339523 4.807915 61
-37.821793 47.348503 4.799076 61
-37.575359 47.346909 4.789924 61
-37.323658 47.353535 4.781066 61
-37.071476 47.374645 4.773024 61
-36.835819 47.382359 4.764892 61
-36.575684 47.372677 4.754960 61
-36.332676 47.384193 4.746850 61
-36.090012 47.394585 4.738731 61
-35.847698 47.403847 4.730604 61
-35.608074 47.415215 4.722730 61
-35.364128 47.418999 4.714324 61
-35.120564 47.421646 4.705908 61
-34.879700 47.426414 4.697745 61
-34.639206 47.430073 4.689574 61
-34.409485 47.430225 4.681621 61
-34.185665 47.454670 4.675268 61
-33.971119 47.491272 4.669957 61
-33.793610 47.598408 4.669922 30
-33.562614 47.591412 4.661675 30
-33.361763 47.645164 4.657917 30
-28.921873 41.352180 4.152253 28
-32.871880 47.617096 4.639878 30
-32.669346 47.664707 4.635835 30
-32.427574 47.651318 4.627058 30
-32.212318 47.677006 4.621424 30
-31.984304 47.681618 4.614206 30
-31.708942 47.592537 4.600115 30
-31.532782 47.657227 4.598105 30
-31.297365 47.645302 4.589813 30
-31.100426 47.693256 4.586245 30
-30.863590 47.675926 4.577673 30
-30.652302 47.698326 4.572250 30
-29.996935 47.354465 4.531651 30
-29.703407 47.233013 4.515411 30
-29.502937 47.264420 4.511005 30
-29.239674 47.188450 4.498433 30
-28.934881 47.020401 4.479239 30
-28.844154 47.235062 4.489029 30
-28.738300 47.425449 4.496974 30
-28.514515 47.411251 4.489374 30
-21.608440 35.887672 3.603828 30
-21.373564 35.753937 3.588955 45
-21.129948 35.615356 3.573567 44
-20.922449 35.524632 3.562104 44
-20.843708 35.667740 3.568298 29
-20.606787 35.519226 3.552603 29
-20.508684 35.626335 3.556153 29
-20.440472 35.775780 3.563110 44
-20.356068 35.910713 3.568765 44
-20.134203 35.783684 3.554893 43
-20.080484 35.978054 3.565027 29
-20.038391 36.197327 3.577007 29
-20.162384 36.730118 3.612460 46
-20.051836 36.821953 3.614939 31
-25.731470 48.503044 4.474464 61
-25.529911 48.514229 4.469658 91
-25.325043 48.517426 4.464318 91
-25.132238 48.522903 4.459476 91
-24.545864 47.733826 4.396006 61
-24.401430 47.851990 4.399357 61
-24.280403 48.020199 4.406404 30
-24.097322 48.058105 4.403933 30
-23.792852 47.834843 4.382426 30
-23.598988 47.845554 4.378091 30
-23.345526 47.724831 4.364233 30
-23.119543 47.661076 4.354596 30
-22.869736 47.541698 4.340986 30
-22.394335 47.346912 4.317178 30
-22.280354 47.505867 4.324157 30
-21.762583 47.624512 4.318916 30
-21.647106 47.829250 4.328827 30
-21.497198 47.930859 4.331571 30
-21.170341 48.069828 4.332544 30
-21.003557 48.107384 4.331020 30
-20.572563 47.983162 4.313427 30
-20.383556 47.984688 4.309256 30
-20.208208 48.044468 4.309067 30
-20.017645 48.015312 4.303013 30
-19.832031 48.022106 4.299354 30
-19.487637 48.079102 4.295447 30
-19.313456 48.139294 4.295495 30
-19.147314 48.195843 4.295524 30
-18.970169 48.221767 4.293427 30
-18.752874 48.134235 4.283373 30
-18.596361 48.189674 4.283637 30
-18.427471 48.236164 4.283114 30
-18.254559 48.270729 4.281791 30
-18.021608 48.101631 4.266398 30
-17.596897 47.954094 4.248622 59
-17.411568 47.943951 4.244359 59
-17.231440 47.948273 4.241151 29
-16.888319 47.978882 4.236564 59
-14.234549 40.098572 3.684247 16
-16.890648 49.750778 4.349709 61
-16.708706 49.764404 4.347273 91
-16.530277 49.788834 4.345627 61
-16.351858 49.812611 4.343976 61
-16.191294 49.897053 4.346566 61
-13.747396 42.551388 3.832613 20
-13.658101 42.792156 3.846572 20
-14.783689 50.103275 4.336305 30
-14.543441 49.881054 4.318142 30
-14.390276 49.994328 4.323070 30
-14.212278 50.010326 4.321356 30
-14.030503 50.010181 4.318574 30
-13.857346 50.044270 4.318177 30
-13.661845 49.984585 4.311402 30
-10.389823 37.351089 3.443517 13
-10.214731 37.198856 3.431124 13
-12.776967 49.974960 4.298149 30
-9.548231 36.561176 3.380426 25
-9.404296 36.493706 3.374115 24
-9.319508 36.678474 3.385062 25
-8.997509 35.729939 3.318980 23
-8.746266 35.735149 3.316157 35
-8.646668 35.872311 3.323905 35
-8.541973 35.953136 3.327929 35
-8.371000 35.745464 3.312295 23
-8.229345 35.621227 3.302498 34
-8.102084 35.607544 3.300137 34
-7.977145 35.641628 3.300961 34
-7.895633 35.858128 3.314266 23
-7.896811 36.578373 3.361573 12
-7.800131 36.768269 3.373012 12
-7.537065 36.765781 3.370112 24
-7.428564 36.851166 3.374634 24
-7.273305 36.668716 3.361087 12
-7.023324 36.745358 3.363735 24
-8.846900 50.812973 4.307896 91
-8.672320 50.832767 4.307613 91
-8.494575 50.828205 4.305730 91
-8.326654 50.829819 4.304375 91
-8.150585 50.835911 4.303280 91
-7.974551 50.841377 4.302179 91
-7.788920 50.839317 4.300540 91
-7.610742 50.823681 4.298101 91
-7.393518 50.450356 4.271749 90
-7.258974 50.745922 4.290289 91
-7.085580 50.768101 4.290492 91
-6.841403 50.078762 4.243143 59
-6.684795 50.250458 4.253429 29
-6.525578 50.405766 4.262649 30
-6.352615 50.417439 4.262300 30
-6.167853 50.189167 4.246016 29
-6.284700 55.962200 4.629339 30
-5.728588 56.299179 4.648633 30
-5.529223 56.216423 4.642129 30
-4.931148 49.599617 4.200133 28
-4.764807 49.669472 4.203991 28
-4.594780 49.678978 4.203861 28
-4.254734 49.880005 4.215793 29
-4.088997 50.003368 4.223347 29
-3.932447 50.161713 4.233292 29
-3.772815 50.263721 4.239515 29
-3.249425 50.340115 4.242991 29
-3.086320 50.372063 4.244682 29
-2.913850 50.375710 4.244501 29
-2.742188 50.430630 4.247765 29
-2.568728 50.369221 4.243328 29
-2.053349 51.458530 4.314892 30
-1.774064 37.197632 3.366614 24
-1.649437 36.985245 3.352393 36
-1.526969 36.716564 3.334458 36
-1.405626 36.495354 3.319704 35
-1.287300 36.521263 3.321400 35
-1.163572 36.502750 3.320167 35
-1.037792 36.567589 3.324498 23
-0.918474 36.396606 3.313182 35
-0.789311 36.560307 3.324135 23
-0.667560 36.488205 3.319441 35
-0.544230 36.467537 3.318191 23
0.180058 50.294865 4.237499 59
0.352800 50.299068 4.238020 88
-0.172805 36.446808 3.317334 23
-0.049200 36.436378 3.316865 35
0.083275 36.580921 3.326726 35
0.225034 36.860416 3.345591 36
0.355941 36.940208 3.351202 36
0.477093 36.960213 3.352846 36
0.604120 36.971405 3.353945 36
0.736017 37.045826 3.359278 24
0.896189 37.473904 3.388176 37
1.009923 37.296646 3.376816 37
1.138060 37.301975 3.377633 25
1.265565 37.298904 3.377917 37
1.395289 37.319229 3.379786 37
1.524431 37.331142 3.381121 75
1.646197 37.267136 3.377424 25
2.361368 42.971512 3.758237 18
2.530777 43.170498 3.772221 19
2.642277 42.829258 3.750215 18
3.772174 51.478146 4.327936 30
3.942897 51.486626 4.329425 30
8.797357 90.439873 6.930304 54
3.007212 41.111038 3.638695 16
4.411901 51.023319 4.301562 30
4.579866 50.949341 4.297727 30
4.753775 50.922268 4.297060 61
4.944490 51.017155 4.304582 61
5.130354 51.071800 4.309454 30
5.409557 51.765640 4.357131 30
5.753823 51.645905 4.351775 30
5.877030 51.332165 4.332074 30
6.096112 51.576488 4.349857 30
6.678148 54.037766 4.516317 30
6.689726 52.963970 4.445865 30
6.727359 52.087490 4.388628 30
6.820103 50.536137 4.287646 61
6.990247 50.489491 4.286126 91
7.165963 50.473663 4.286712 61
7.348315 50.492516 4.289667 91
7.528657 50.498936 4.291825 61
7.713746 50.528206 4.295559 61
5.184034 36.906540 3.379679 12
5.444404 36.902721 3.382120 25
5.596830 37.005573 3.390452 25
5.698403 36.865791 3.382437 25
6.081839 37.444263 3.424389 26
6.116523 37.003159 3.396077 25
6.249344 37.005890 3.397797 25
6.342657 36.837044 3.387926 38
6.478771 36.854477 3.390693 38
6.610470 36.851986 3.392140 25
6.770493 36.965378 3.401479 12
7.062236 37.066200 3.411718 26
7.267928 36.849358 3.400385 26
7.392101 36.813076 3.399703 25
7.526351 36.814949 3.401648 39
7.672114 36.858727 3.406480 13
9.937694 40.316921 3.662086 17
10.152979 40.042316 3.647942 16
10.286068 40.013371 3.648240 16
13.883086 50.865280 4.398930 30
14.084056 50.893288 4.404030 30
14.416059 50.760204 4.401137 61
14.859581 51.513187 4.456541 91
15.079158 51.553345 4.462882 91
15.280116 51.565357 4.467153 91
15.481366 51.576580 4.471418 91
15.677647 51.571941 4.474629 91
15.871909 51.588478 4.479178 91
16.065136 51.600525 4.483460 91
16.273611 51.597977 4.487138 91
16.490511 51.617077 4.492378 91
16.689291 51.612309 4.495818 91
16.889170 51.636238 4.501119 91
17.072966 51.588833 4.501668 91
17.086462 51.093044 4.470840 61
17.183922 50.850765 4.457570 61
17.418636 50.914238 4.466176 91
17.622028 50.920624 4.470631 30
17.860987 51.015259 4.481349 30
18.115812 51.171623 4.496274 30
18.255060 51.012440 4.489216 30
14.990389 42.515930 3.893260 22
14.931003 41.940643 3.856287 21
14.908756 41.504879 3.828785 21
15.120411 41.632721 3.841203 21
15.185105 41.371460 3.826423 21
15.373218 41.421436 3.833580 21
15.529460 41.415035 3.836592 21
15.630599 41.262310 3.829402 21
16.553827 42.975643 3.955355 24
16.774252 43.057018 3.965288 24
20.546053 51.055267 4.541421 30
20.804367 51.183945 4.555184 30
21.159445 51.034702 4.554224 91
21.565985 51.017082 4.562653 30
21.809015 51.078918 4.572166 30
22.059797 51.131878 4.581364 30
22.245197 51.069305 4.582019 30
22.686049 51.085381 4.593706 30
24.192780 51.064739 4.630301 30
24.403414 51.062523 4.635607 30
24.515711 50.831627 4.624739 30
24.528625 50.417629 4.600396 30
24.530302 50.008839 4.576110 30
24.544727 49.628681 4.553904 30
24.567610 49.288639 4.534341 30
24.752851 49.245819 4.536787 30
24.999697 49.273071 4.545082 30
25.205372 49.244778 4.549017 30
25.444120 49.293320 4.558426 30
21.849239 42.617508 4.066415 27
22.417189 43.267250 4.120355 28
22.705116 43.423489 4.137565 29
22.782543 43.216610 4.127633 29
22.759357 42.841301 4.105047 28
23.045441 42.973351 4.120898 28
23.115906 42.759201 4.110450 28
27.359510 49.443596 4.621274 30
27.584682 49.432987 4.627191 30
27.835114 49.481007 4.637279 30
28.065180 49.493958 4.644779 30
22.931839 40.873833 3.995904 26
23.215506 41.016483 4.012542 26
23.143080 40.609097 3.986962 25
29.357042 49.271175 4.670676 30
29.527988 49.183784 4.670913 30
29.726856 49.120274 4.673405 30
29.848431 48.939541 4.666890 30
31.492142 49.573059 4.754267 30
25.884724 41.128529 4.101365 28
26.079630 41.109631 4.106554 29
26.281637 41.099651 4.112504 29
33.303253 50.336243 4.855294 63
33.573349 50.348938 4.864835 96
33.834583 50.347416 4.873341 64
34.117435 50.373684 4.884142 32
34.657345 50.402828 4.903722 66
34.812996 50.252338 4.900669 66
34.821701 49.906742 4.882009 65
34.867008 49.612606 4.867447 64
35.104408 49.572643 4.873342 32
28.679871 40.862110 4.179255 30
25.505760 36.474449 3.831783 22
25.673714 36.435043 3.835441 22
38.393082 50.944675 5.061746 37
37.354675 49.330265 4.938606 34
38.308701 49.802933 4.997830 36
38.632015 49.846317 5.011745 36
38.917698 49.842113 5.021827 36
39.227810 49.847641 5.033354 37
39.563564 49.898350 5.048244 37
39.829376 49.881786 5.057086 37
3.869410 7.664906 1.523926 18
3.886256 7.639544 1.523232 21
3.910935 7.623114 1.523300 19
3.947349 7.617483 1.524372 8
3.983796 7.611678 1.525442 10
42.511986 49.826180 5.154285 40
42.824860 49.843246 5.167067 41
43.146866 49.850899 5.179760 41
36.094398 41.909462 4.504610 30
36.329880 41.875465 4.511950 30
36.462601 41.745380 4.510489 30
36.626717 41.634193 4.511237 30
36.967075 41.707027 4.528163 30
45.326553 50.106400 5.277102 44
45.656216 50.104431 5.289939 44
45.975079 50.106274 5.302588 45
46.314243 50.109501 5.316154 45
46.842209 49.957958 5.329615 45
47.089314 49.863411 5.334817 46
47.293785 49.725616 5.336227 46
47.477962 49.567406 5.335867 46
49.198212 50.197956 5.436382 48
49.519970 50.179745 5.448631 49
49.824696 50.126171 5.458517 49
51.405605 50.922699 5.561960 100
51.784470 50.943882 5.578648 100
52.166924 50.948242 5.594728 53
52.455883 50.864223 5.602756 100
52.488056 50.545017 5.588935 100
52.530514 50.236908 5.576123 53
52.743809 50.083755 5.577862 53
53.515972 50.081673 5.610391 54
53.789085 49.977348 5.617108 54
54.032066 49.845467 5.621311 54
54.323078 49.754314 5.629510 54
54.759399 49.786697 5.649708 55
55.321079 49.922939 5.680140 56
56.295403 50.404476 5.744297 57
56.654461 50.375675 5.758506 58
57.075199 50.396278 5.777697 58
57.480785 50.383846 5.794774 59
57.905479 50.384426 5.813330 59
58.312370 50.367458 5.830369 60
58.769421 50.388561 5.851379 61
59.233562 50.412090 5.872866 61
59.673691 50.412994 5.892336 62
60.089584 50.391537 5.909792 62
62.986553 52.328526 6.124473 61
63.479557 52.348011 6.147287 60
64.058517 52.430931 6.176795 60
64.398857 52.324783 6.187370 60
64.653778 52.151226 6.191216 60
64.965439 52.020084 6.199527 60
65.299278 51.904263 6.209565 59
65.719292 51.851486 6.226294 59
67.125313 52.531681 6.319460 58
67.462158 52.406673 6.329419 58
69.172913 53.309265 6.446131 56
69.742180 53.343185 6.473622 55
70.047478 53.181641 6.480761 55
70.112709 52.846062 6.469556 55
70.241447 52.557072 6.463307 55
70.802223 52.574913 6.489978 55
71.076675 52.387272 6.494848 55
71.255798 52.132046 6.492536 55
71.745705 52.092297 6.513704 55
53.118202 38.893265 5.098387 42
73.854836 52.774509 6.640448 53
74.388878 52.749294 6.664473 52
74.986603 52.763325 6.693161 52
75.562111 52.758289 6.720092 52
76.175133 52.774128 6.749706 51
76.852570 52.827999 6.783972 51
77.378532 52.797775 6.807734 50
92.089859 61.936916 7.873361 63
81.909233 54.924751 7.108490 46
82.235146 54.719757 7.115946 63
92.534607 60.829208 7.850707 63
86.989586 56.883675 7.429291 63
80.954262 52.287193 6.958948 48
92.915916 59.230568 7.806661 63
93.060852 58.863770 7.799521 63
78.702499 49.733353 6.751210 51
78.862045 49.445366 6.747954 51
79.188698 49.256870 6.756707 50
79.697250 49.174217 6.778431 50
87.593498 53.412975 7.325197 63
93.742828 56.587330 7.746292 63
93.867325 56.213097 7.738419 63
93.979965 55.832726 7.729812 63
94.077232 55.444370 7.720228 63
94.207764 55.075573 7.713090 63
94.361290 54.720146 7.707661 63
94.468086 54.339180 7.699056 63
98.904541 55.421806 7.959500 63
103.183060 56.786331 8.222682 63
105.267685 57.413700 8.349704 63
109.507553 58.679234 8.607935 63
118.063042 61.521862 9.139884 63
25.592983 11.889486 2.741606 33
25.601490 11.670918 2.735616 22
25.729582 11.493267 2.737258 19
6.571014 2.930163 1.475041 0
5.743847 2.713785 1.424507 0
5.258461 2.578738 1.394690 0
4.940047 2.483424 1.374994 0
4.710889 2.409468 1.360713 0
4.610284 2.364105 1.354185 0
4.579614 2.335072 1.351891 0
4.517741 2.298795 1.347716 0
4.514448 2.274623 1.347056 0
4.542420 2.256599 1.348270 0
4.452896 2.214782 1.342454 0
4.441444 2.189450 1.341330 0
4.449324 2.168940 1.341385 0
4.413911 2.140588 1.338870 0
4.414165 2.116526 1.338440 0
4.433808 2.096997 1.339186 0
4.441391 2.076458 1.339241 0
4.425458 2.050837 1.337887 0
4.378075 2.019109 1.334661 0
4.405302 2.000738 1.335873 0
4.412747 1.979128 1.335919 0
4.420120 1.957478 1.335965 0
4.435319 1.936958 1.336476 0
4.410932 1.910633 1.334662 0
4.417913 1.890061 1.334717 0
4.412961 1.867819 1.334075 0
4.435786 1.848226 1.335050 0
4.418956 1.823311 1.333703 0
4.449708 1.803447 1.335130 0
4.436667 1.779115 1.334016 0
4.435428 1.756309 1.333598 0
4.465710 1.738332 1.335042 0
4.452421 1.714108 1.333929 0
4.470798 1.693459 1.334667 0
4.453370 1.668908 1.333325 0
4.455711 1.646519 1.333138 0
4.457974 1.624122 1.332952 0
4.479928 1.604735 1.333928 0
4.497952 1.583717 1.334664 0
4.476129 1.559063 1.333093 0
14.328928 0.840245 1.887499 7
14.372258 0.782836 1.889533 7
100.025787 -0.659655 6.761783 128
100.019577 -1.015605 6.758871 144
100.052444 -1.354654 6.758375 120
100.119659 -1.712701 6.759775 126
100.153679 -2.070288 6.759358 126
100.174469 -2.427744 6.758261 126
100.459778 -6.380833 6.754089 86
100.490685 -6.724592 6.754488 100
100.578751 -7.091228 6.758117 129
100.577950 -7.451363 6.756792 126
100.619644 -7.815347 6.757941 126
100.652100 -8.179013 6.758639 122
100.671333 -8.541904 6.758662 120
100.701202 -8.906191 6.759358 144
100.745682 -9.272390 6.760951 126
100.761040 -9.636143 6.760972 114
-35.177643 2.116404 2.945688 30
-35.249485 2.229378 2.951121 30
-35.316711 2.348501 2.956367 30
-34.841011 2.444118 2.929127 19
-34.831692 2.558699 2.929823 19
-35.519802 2.708977 2.972363 20
-35.569359 2.829171 2.976665 20
-35.614494 2.949500 2.980731 10
-104.482590 10.180235 7.156151 63
-102.165405 10.307612 7.020640 63
-102.402351 10.683433 7.039827 63
-102.558258 11.407880 7.059216 63
-102.519218 11.776536 7.062193 63
-102.145409 12.072640 7.044397 63
-213.030106 25.085003 13.789574 63
-80.904800 10.560884 5.766943 63
-80.837563 11.098039 5.771268 63
-205.046707 27.772263 13.359527 63
-203.568817 29.010832 13.292298 63
-202.245132 29.504246 13.222402 63
-200.650620 29.985289 13.136490 63
-198.283829 31.041294 13.015048 63
-198.498337 31.741564 13.039660 63
-198.740341 32.483608 13.066741 63
-191.708313 32.071957 12.646623 63
-188.514725 32.887886 12.473828 63
-183.272995 33.263531 12.173521 63
-180.530106 34.063240 12.027889 63
-178.137772 34.256721 11.891666 63
-174.887695 34.895168 11.714091 63
-172.966965 35.138966 11.606765 63
-169.736786 35.713821 11.429855 63
-167.317032 35.815472 11.290985 63
-166.663239 36.278732 11.262358 63
-160.359344 37.190521 10.915150 63
-158.971680 37.450638 10.840238 63
-157.020721 37.568596 10.729749 63
-156.161880 37.934776 10.687982 63
-154.610611 38.098888 10.601849 63
-153.340271 38.350285 10.533985 63
-151.202545 38.375954 10.411116 63
-150.753586 38.816044 10.395107 63
-149.418076 39.025101 10.322863 63
-148.237427 39.265724 10.260369 63
-146.081650 39.266674 10.136345 63
-145.815842 39.734238 10.131948 63
-143.548676 39.627754 9.999231 63
-143.508896 40.148392 10.009268 63
-143.609421 40.709103 10.028410 63
-143.719284 41.274265 10.048297 63
-143.780884 41.827423 10.065235 63
-143.862900 42.361210 10.082971 63
-143.943283 42.923031 10.101398 63
-144.036758 43.490494 10.120820 63
-144.158554 44.068382 10.142221 63
-144.216995 44.628902 10.159681 63
-144.315063 45.230598 10.180552 63
-144.414444 45.834801 10.201676 63
-144.492966 46.379658 10.220196 63
-144.527618 46.912060 10.236001 63
-144.552185 47.470085 10.252005 63
-124.229782 41.318474 8.940168 63
-123.436668 41.527679 8.900915 63
-79.649857 27.232601 6.047060 61
-79.554710 27.487516 6.048569 61
-118.710518 41.314377 8.628733 63
-117.619041 41.389923 8.569413 63
-116.517189 41.454357 8.509292 63
-115.431351 41.516964 8.450105 63
-114.327713 41.565712 8.389620 63
-113.255127 41.618202 8.331064 63
-112.175690 41.638939 8.271309 63
-111.146355 41.692936 8.215377 63
-110.106789 41.736023 8.158645 63
-109.131699 41.796501 8.106088 63
-108.112801 41.833473 8.050493 63
-108.021240 42.202633 8.056201 63
-106.902687 42.169144 7.993163 63
-113.014992 45.038090 8.416734 63
-113.037857 45.519123 8.432336 63
-107.131203 43.578060 8.047791 63
-106.852371 43.892036 8.041886 63
-106.882584 44.332623 8.056933 63
-107.010468 44.815445 8.078725 63
-114.178833 48.243584 8.577943 63
-114.454865 48.799728 8.610285 63
-114.635597 49.341694 8.637045 63
-114.832230 49.893440 8.665068 63
-114.887398 50.386353 8.683598 63
-115.236298 51.010868 8.722404 63
-115.485298 51.571468 8.753819 63
-115.624588 52.109917 8.778639 63
-115.817886 52.699528 8.808131 63
-115.999382 53.263020 8.836231 63
-116.162193 53.796741 8.862437 63
-116.168678 54.284550 8.878773 63
-145.052399 68.372299 10.901535 63
-145.135880 69.054024 10.928625 63
-145.242691 69.719162 10.956538 63
-145.322769 70.343460 10.981758 63
-145.416763 71.008087 11.009186 63
-145.550842 71.695374 11.039639 63
-145.681854 72.384453 11.070105 63
-145.809799 73.075310 11.100579 63
-145.777908 73.688683 11.119991 63
-80.100861 41.159805 6.503495 56
-79.960007 41.432339 6.505559 56
-80.779457 42.910553 6.601014 55
-80.336983 43.026947 6.581893 55
-78.059059 42.837475 6.455692 57
-107.928352 71.395035 12.058270 63
-107.953171 71.946320 12.089511 63
-107.972839 72.523819 12.121937 63
-107.962151 73.029556 12.148530 63
-108.008934 73.604034 12.182918 63
-70.384972 48.193920 8.220435 60
-69.498451 48.281948 8.164744 61
-67.156334 48.359726 8.010527 63
-66.680328 48.342747 7.977584 63
-66.240448 48.349133 7.948458 63
-65.106415 47.871838 7.845517 62
-64.591171 47.829483 7.808738 62
-64.127922 47.822468 7.777520 61
-63.898529 48.006664 7.772892 61
-63.656616 48.146488 7.764956 61
-63.480774 48.336262 7.764346 61
-63.237354 48.507732 7.758294 61
-62.656342 48.739773 7.733776 61
-62.657753 49.085003 7.754185 61
-62.458168 49.271751 7.752218 61
-62.037510 49.280449 7.725413 61
-61.626823 49.294323 7.699638 60
-61.225220 49.295574 7.673771 60
-59.907272 48.559135 7.544720 100
-59.504223 48.565639 7.519219 58
-58.523102 48.088017 7.427528 57
-58.065071 48.039394 7.395325 57
-57.735027 48.078690 7.376692 57
-57.460854 48.180195 7.365473 57
-57.226002 48.314053 7.358798 57
-57.005981 48.459862 7.353867 56
-56.794640 48.612545 7.349979 56
-56.477932 48.672523 7.333811 56
-56.020939 48.607090 7.301145 56
-55.684311 48.644814 7.282492 56
-55.350464 48.666142 7.263056 55
-54.970783 48.677650 7.240229 55
-54.641407 48.715290 7.222235 55
-52.002457 46.948975 6.948051 52
-51.674816 46.969181 6.929265 52
-51.400135 47.036549 6.916789 100
-51.090046 47.053097 6.898971 51
-50.775238 47.079353 6.881551 51
-50.431976 47.076519 6.860604 51
-50.135376 47.115944 6.845268 51
-49.784595 47.101315 6.823238 50
-49.440228 47.090351 6.801898 50
-49.125011 47.105404 6.784061 50
-48.843887 47.135796 6.769320 50
-48.645573 47.262726 6.765889 50
-47.931301 46.890198 6.699144 49
-47.438644 46.700634 6.657606 49
-47.007011 46.584187 6.624553 48
-11.775203 11.064215 2.203539 25
-11.748255 11.107009 2.204834 27
-45.739899 47.199516 6.592250 48
-45.638241 47.415916 6.601062 48
-45.048710 47.111012 6.546741 47
-44.911690 47.596649 6.572039 95
-44.901913 47.913857 6.593181 96
-44.673386 47.992714 6.585737 96
-44.378105 47.996601 6.569460 95
-44.077999 47.993061 6.552466 95
-43.799896 47.995586 6.537175 95
-43.508751 47.998070 6.521217 94
-43.225983 48.008076 6.506308 94
-30.234430 33.433487 4.776078 10
-42.109035 47.385170 6.401542 46
-41.962273 47.543182 6.404612 46
-41.543350 47.382481 6.370560 45
-39.790207 46.912495 6.243163 43
-39.672413 47.096714 6.250063 43
-39.491001 47.203350 6.248112 43
-39.351822 47.362007 6.252173 43
-38.906078 47.453320 6.235453 43
-38.649704 47.463188 6.222853 42
-38.393715 47.471832 6.210243 42
-38.113640 47.447815 6.194081 41
-37.865852 47.463398 6.182515 41
-38.310497 48.362980 6.270829 44
-38.057846 48.375500 6.258906 43
-35.571808 47.407597 6.063387 36
-35.090435 47.439365 6.042230 36
-34.862400 47.444950 6.031582 71
-34.616169 47.457676 6.020645 70
-34.384243 47.454639 6.009271 35
-33.414909 47.087402 5.935424 32
-34.176373 48.559361 6.082848 37
-33.095695 47.293861 5.936077 32
-33.062012 47.594490 5.957379 33
-32.830803 47.599819 5.947051 32
-32.615257 47.627407 5.939202 32
-32.347652 47.573975 5.922814 31
-32.137608 47.624847 5.917117 31
-31.931444 47.662868 5.910667 31
-31.709984 47.657871 5.900266 31
-31.446659 47.603203 5.884199 30
-30.997799 47.593212 5.863389 59
-30.763817 47.597672 5.853376 29
-30.577908 47.660587 5.850085 29
-30.414688 47.760216 5.850703 29
-29.740318 46.994877 5.761582 26
-29.434055 46.848927 5.736903 25
-29.145348 47.094555 5.743773 51
-28.945894 47.123848 5.737585 51
-28.732573 47.128185 5.728898 25
-28.180517 46.894241 5.687248 23
-28.047487 47.034035 5.692789 71
-27.890379 47.131779 5.694049 48
-27.752623 47.245369 5.697417 24
-27.797186 47.708183 5.736093 50
-27.585922 47.710777 5.727719 50
-20.584309 35.228642 4.447686 16
-27.210964 47.819347 5.721317 49
-27.220049 48.230450 5.754644 51
-26.953293 48.507107 5.766351 78
-26.741085 48.505764 5.757944 51
-26.544813 48.513386 5.750932 76
-26.342281 48.528030 5.744296 76
-26.134529 48.531189 5.736582 75
-25.919878 48.519249 5.727434 74
-25.721636 48.538464 5.721491 73
-25.514709 48.539024 5.713757 73
-25.311583 48.545872 5.706730 72
-25.089516 48.512478 5.695770 47
-24.523502 47.764038 5.613755 42
-24.339756 47.821278 5.611722 41
-24.148390 47.819641 5.604640 20
-23.630476 47.543419 5.563336 19
-23.364256 47.394497 5.541610 18
-23.132465 47.316761 5.527020 18
-22.935989 47.314186 5.519923 17
-22.710438 47.245373 5.506390 17
-22.534164 47.284775 5.503569 17
-22.362684 47.334450 5.501814 17
-22.024178 47.442871 5.499361 17
-21.858646 47.505318 5.499020 17
-21.721272 47.611412 5.503302 17
-21.565996 47.698494 5.505454 17
-21.264961 47.896893 5.512247 17
-21.082943 47.919739 5.508306 17
-20.326448 47.450569 5.444949 45
-20.126293 47.417950 5.435975 44
-19.936661 47.410507 5.429498 43
-19.837122 47.636681 5.445552 15
-19.775503 47.941559 5.469459 31
-19.590170 47.922077 5.462238 31
-19.401133 47.916130 5.456100 31
-19.211029 47.931145 5.451759 30
-19.027889 47.938675 5.447041 30
-18.840862 47.934250 5.441243 30
-18.656746 47.936604 5.436155 29
-18.479429 47.957035 5.432852 29
-18.294321 47.954224 5.427395 29
-18.109434 47.950691 5.421933 29
-17.927336 47.953987 5.417181 29
-17.751759 47.975468 5.414213 29
-17.568689 47.973610 5.409092 29
-17.397764 47.979710 5.405027 29
-17.212608 47.968910 5.399180 28
-17.039888 47.995327 5.396907 28
-16.933376 48.229988 5.414325 14
-16.946835 48.852272 5.468266 31
-16.969076 49.517086 5.526147 17
-16.868137 49.793995 5.547498 36
-16.684908 49.803799 5.543775 36
-16.501791 49.812920 5.540046 36
-16.317667 49.817535 5.535953 35
-16.144438 49.826637 5.532561 35
-15.959483 49.826084 5.528100 35
-15.777959 49.836334 5.524707 35
-15.597605 49.849754 5.521668 35
-15.414153 49.850986 5.517548 34
-15.229815 49.847691 5.513065 34
-15.049788 49.859097 5.510009 34
-14.877362 49.863735 5.506582 33
-14.579987 49.422791 5.461592 30
-14.405768 49.447269 5.459953 15
-14.238378 49.498161 5.460817 15
-13.856408 49.408634 5.444970 44
-13.696571 49.488605 5.448685 30
-10.799932 38.085258 4.390491 24
-10.611149 37.863796 4.367289 24
-10.473484 37.826305 4.361280 8
-12.977694 49.432220 5.429443 14
-12.798840 49.427639 5.425607 14
-12.583328 49.255093 5.406353 14
-12.417194 49.303581 5.407524 14
-12.212708 49.172249 5.392202 14
-9.033008 35.408817 4.121624 13
-8.908792 35.413784 4.119886 13
-9.408994 38.568047 4.407073 16
-9.264746 38.527351 4.401030 16
-11.220110 49.478241 5.401961 14
-11.048475 49.498539 5.400942 14
-10.904025 49.618546 5.409235 14
-10.744708 49.708298 5.414659 14
-10.577248 49.754375 5.416134 14
-10.437433 49.960823 5.432303 14
-10.106190 50.085663 5.438456 14
-9.745507 50.031200 5.428455 29
-9.585780 50.076450 5.430259 14
-9.350716 50.857586 5.496591 49
-9.173055 50.859440 5.494436 49
-8.995471 50.860664 5.492277 49
-8.818510 50.865204 5.490470 48
-8.641603 50.869118 5.488659 48
-8.466297 50.884254 5.487918 48
-8.289464 50.886917 5.486096 48
-8.112691 50.888954 5.484270 48
-7.943274 50.877457 5.481365 48
-7.768053 50.890144 5.480604 48
-7.548586 50.510296 5.444347 44
-7.377304 50.545361 5.445727 29
-7.242305 50.924511 5.478291 47
-6.982337 50.106419 5.402588 28
-6.763376 49.643951 5.359145 42
-6.584332 49.565254 5.350469 28
-6.406986 49.497807 5.342865 42
-6.228420 49.409870 5.333463 28
-6.065360 49.395988 5.330872 27
-5.924976 49.763443 5.362681 14
-5.589705 49.749607 5.358903 14
-5.407467 49.714916 5.354490 14
-5.231899 49.647171 5.347210 14
-4.893328 49.692722 5.349123 14
-4.722058 49.682796 5.347206 14
-4.394491 49.784061 5.354471 14
-4.228648 49.891773 5.363288 14
-4.060376 49.959118 5.368517 14
-3.893543 50.073650 5.378041 14
-3.565259 50.272854 5.394571 28
-3.394720 50.333927 5.399420 14
-3.222042 50.326706 5.398173 14
-2.886104 50.342155 5.398540 14
-2.713706 50.345108 5.398354 14
-2.532956 50.371460 5.400302 14
-2.360328 50.357243 5.398673 14
-1.879780 34.833431 4.002388 6
-1.670460 50.370045 5.398911 14
-1.506559 50.372814 5.399059 14
-1.361052 38.031826 4.289668 15
-1.223615 38.109062 4.296643 23
-0.815797 50.397587 5.401348 14
-0.969262 38.406063 4.323504 7
-0.836541 38.470085 4.329400 7
-0.706825 38.430115 4.325984 7
-0.134652 50.365242 5.399274 43
0.037165 50.342667 5.397577 28
0.209722 50.339394 5.397665 28
-0.190067 38.277702 4.313363 15
0.557677 50.386742 5.402835 43
2.904914 90.301529 8.993806 54
3.219857 90.335739 8.997932 54
3.533386 90.341011 8.999546 54
3.847274 90.349152 9.001508 54
4.161558 90.360168 9.003818 54
4.475131 90.358162 9.005045 54
4.790865 90.382858 9.008768 54
5.090606 90.399727 9.011794 54
5.420459 90.397148 9.013323 54
5.736139 90.410568 9.016302 54
6.036383 90.424271 9.019302 54
6.368047 90.434067 9.022232 54
6.685033 90.452072 9.025898 54
6.988600 90.490334 9.031374 53
7.304461 90.490295 9.033592 53
7.618736 90.473289 9.034370 53
7.936070 90.482903 9.037642 53
8.254943 90.503265 9.041976 53
8.573613 90.518532 9.045942 53
8.887241 90.489166 9.045969 53
9.214602 90.569397 9.055992 53
9.516869 90.571396 9.058893 53
9.845877 90.532715 9.058499 53
10.122772 90.226479 9.033843 53
6.352434 60.885422 6.381150 45
6.411700 59.802944 6.285297 43
6.451427 58.638012 6.181958 39
6.494899 57.552334 6.085773 36
6.526069 56.435562 5.986744 33
6.560639 55.390125 5.894155 30
6.598094 54.408073 5.807290 27
6.644250 53.520798 5.729002 24
6.668723 52.596069 5.647180 22
6.680454 51.632496 5.561800 19
6.719863 50.813133 5.489611 17
7.032169 50.555359 5.470841 32
7.211051 50.555031 5.473223 33
7.390042 50.554058 5.475600 33
7.575154 50.583736 5.480825 33
7.765950 50.640095 5.488540 17
7.848899 50.152641 5.446686 15
8.024538 50.137646 5.447976 15
8.204225 50.141529 5.451043 15
8.381214 50.173851 5.456625 16
8.558791 50.164745 5.458611 16
8.738972 50.166679 5.461661 16
8.932202 50.226307 5.470051 16
9.112867 50.226875 5.473090 16
9.300771 50.257854 5.478973 16
9.776432 50.736462 5.529185 18
9.962201 50.745579 5.533264 18
10.147236 50.750137 5.536981 18
10.337225 50.773346 5.542472 19
10.707322 50.775127 5.549521 19
10.893104 50.776920 5.553214 19
11.271813 50.768425 5.559842 19
11.403771 50.601189 5.547894 19
11.547353 50.479748 5.540213 19
11.721210 50.436157 5.539968 19
11.883092 50.349758 5.535807 19
12.233111 50.271099 5.536362 19
12.418566 50.267174 5.540009 19
12.595130 50.231987 5.540806 19
12.796763 50.280136 5.549417 19
12.991974 50.304604 5.555888 19
13.207414 50.393055 5.568393 20
13.479038 50.083473 5.547946 39
13.731409 50.283669 5.571087 40
14.066002 50.732986 5.617651 22
14.301418 50.866161 5.634729 22
14.475547 50.809116 5.634048 22
15.141863 51.636913 5.721393 76
15.344436 51.652336 5.727781 77
15.543423 51.655666 5.733098 78
15.743957 51.661983 5.738763 78
15.950058 51.682545 5.745841 79
16.148476 51.679771 5.750783 79
16.349800 51.683727 5.756428 80
16.554104 51.694382 5.762775 81
16.764225 51.719173 5.770533 82
16.954744 51.716557 5.775486 82
17.008184 51.322155 5.743544 26
17.056267 50.920555 5.710899 50
17.865259 50.935413 5.735094 26
18.021816 50.821552 5.730062 26
18.483036 50.513672 5.717860 25
18.664549 50.438435 5.717021 25
18.876730 50.435966 5.723251 26
19.279100 50.446796 5.736518 26
19.489779 50.460114 5.744181 26
19.732761 50.545559 5.758906 27
20.034582 50.761108 5.786343 28
20.618984 51.133179 5.835874 30
21.032450 50.677513 5.811777 29
21.194311 50.549614 5.806625 29
21.431864 50.605461 5.819160 29
21.623770 50.585213 5.823967 29
22.278738 51.057758 5.884977 31
22.525192 51.119656 5.898528 32
22.737148 51.108959 5.905016 32
22.959970 51.118801 5.913612 33
23.176016 51.113453 5.920790 33
23.403122 51.128536 5.930075 33
23.630636 51.142647 5.939352 34
23.851267 51.141605 5.947210 34
24.063440 51.144176 5.955109 34
24.288370 51.148376 5.963656 34
24.444836 51.021233 5.959167 34
24.447914 50.627384 5.927617 33
24.448915 50.193253 5.892809 32
24.459431 49.802940 5.861930 31
24.484724 49.444633 5.834224 30
24.638466 49.324127 5.830444 30
24.872885 49.349468 5.841431 62
25.103912 49.366810 5.851706 31
25.337347 49.386597 5.862324 31
25.556883 49.399754 5.871928 32
25.781303 49.400230 5.880770 32
26.012041 49.410080 5.890659 32
26.239174 49.412022 5.899836 33
26.476748 49.430149 5.910760 33
26.700241 49.441917 5.920673 33
26.926468 49.437431 5.929473 34
27.169685 49.440536 5.939617 34
27.404850 49.447628 5.949802 35
27.640419 49.453671 5.959979 35
27.870008 49.467258 5.970551 35
28.104282 49.467834 5.980359 36
28.362156 49.504536 5.994014 36
28.629145 49.553513 6.009061 37
29.040834 49.471790 6.020256 37
29.169010 49.299664 6.012504 37
29.352524 49.195297 6.012400 37
29.521065 49.104557 6.012751 37
29.756954 49.097530 6.022495 37
29.939827 48.990940 6.022373 37
30.158318 48.955471 6.029301 38
30.428207 48.995037 6.044268 38
30.765968 49.132164 6.069715 39
30.939074 49.043129 6.070726 39
30.995888 48.767300 6.052446 39
31.267202 48.802513 6.067375 39
32.064804 49.587177 6.162667 42
33.183681 50.446384 6.278357 90
33.451347 50.456280 6.291455 91
33.714848 50.458443 6.303844 91
33.992847 50.478710 6.318317 91
34.259655 50.481564 6.331033 92
34.534821 50.511974 6.346243 92
34.729851 50.432304 6.349583 92
34.753479 50.086906 6.325240 91
34.783337 49.770691 6.303407 91
35.033016 49.746922 6.313647 45
35.313171 49.779163 6.329517 46
25.495577 36.669319 4.896291 11
35.426144 49.224907 6.294564 45
35.596886 49.097279 6.293634 45
36.116165 49.049114 6.315712 45
36.544811 49.242981 6.350953 46
36.782124 49.211353 6.360494 46
37.088226 49.246227 6.378306 46
37.475597 49.378395 6.407233 47
38.025249 49.721794 6.459501 47
38.450027 49.872856 6.491792 48
38.725105 49.857090 6.504670 48
39.030426 49.892952 6.522818 48
39.324413 49.895760 6.538104 48
39.600857 49.875858 6.550947 48
3.908266 7.700294 1.735951 112
3.913239 7.658840 1.733326 60
3.944436 7.647246 1.734169 17
3.986241 7.647403 1.736398 13
42.700157 49.983624 6.721845 50
43.013889 49.983051 6.738707 50
45.520954 50.224277 6.892220 52
45.934227 50.306984 6.920710 53
46.231380 50.284698 6.935787 53
46.556862 50.289387 6.954305 53
46.756870 50.148067 6.956156 53
46.962231 49.994598 6.957575 53
47.220741 49.910683 6.966660 53
47.399864 49.764160 6.967192 53
49.629654 51.594982 7.214150 56
48.982376 50.266685 7.090456 55
49.576691 50.511688 7.140560 55
49.709049 50.293007 7.134048 55
51.274200 51.080879 7.275621 57
51.658554 51.090683 7.298666 57
52.049465 51.103832 7.322381 57
52.388367 51.066254 7.339884 58
52.427761 50.752525 7.322291 57
52.445190 50.437908 7.303416 57
52.664978 50.290451 7.307145 57
53.686443 50.164448 7.360193 58
54.166080 50.223000 7.392634 58
55.069618 49.985348 7.432543 59
56.250111 50.647301 7.544912 60
56.550995 50.552029 7.557432 60
56.958668 50.545044 7.581938 61
57.499039 50.663700 7.622284 61
59.196129 50.647781 7.726183 62
59.523766 50.540874 7.740202 63
59.920589 50.505264 7.762859 63
62.970642 52.593479 8.077322 60
63.429024 52.586266 8.105670 60
63.947754 52.623180 8.140490 60
64.272491 52.505398 8.154098 59
64.489967 52.303158 8.156078 59
64.795395 52.167923 8.167615 59
65.123474 52.067024 8.182660 59
65.492943 51.995762 8.202128 59
66.075562 52.063904 8.243310 58
67.308182 52.612045 8.353705 57
69.032448 53.512497 8.515862 55
69.556053 53.514477 8.549738 55
70.029015 53.475876 8.578135 54
70.044106 53.102798 8.558132 55
70.111839 52.750240 8.542789 55
70.746620 52.822281 8.588171 54
70.976860 52.622383 8.592108 54
71.306862 52.472916 8.605451 54
71.666130 52.342293 8.621840 54
72.110573 52.268772 8.647058 53
73.626244 52.928593 8.783084 52
74.169487 52.911495 8.818082 51
74.796051 52.947090 8.861547 51
75.443634 52.992271 8.907018 50
75.996300 52.969448 8.942607 50
76.692665 53.037971 8.992766 49
77.174828 52.980427 9.021974 49
91.912514 62.194714 10.498600 63
92.072311 61.832073 10.490222 63
92.290268 61.043583 10.463634 63
92.364838 60.629074 10.447124 63
92.488304 60.246555 10.435699 63
92.694839 59.916557 10.432739 63
92.730675 59.481113 10.412850 63
92.934532 59.150276 10.409887 63
92.966957 58.715187 10.390005 63
93.164734 58.381470 10.386700 63
93.299774 58.010231 10.377306 63
93.371696 57.602119 10.361828 63
93.548386 57.256916 10.356828 63
93.617149 56.848827 10.341353 63
93.757286 56.505627 10.334136 63
93.854019 56.115570 10.321705 63
93.976891 55.741318 10.311975 63
94.119125 55.378666 10.304270 63
94.204384 54.984467 10.291167 63
94.336823 54.617485 10.282788 63
97.967354 55.728668 10.590805 63
98.812088 55.712082 10.649523 63
100.132751 55.968563 10.754814 63
102.068199 56.543179 10.918596 63
105.136070 57.701836 11.189936 63
108.235100 58.385742 11.441720 63
112.589226 60.146111 11.832616 63
115.424423 61.117947 12.079273 63
117.041237 61.422581 12.208682 63
122.257668 62.984440 12.652877 63
124.463577 63.534996 12.835985 63
128.607361 65.018593 13.200132 63
136.995026 67.932297 13.933723 63
143.465820 69.802704 14.483718 63
145.867233 70.308395 14.679889 63
25.178545 11.588364 3.392637 9
40.527027 10.620560 4.543818 11
5.555740 2.501541 1.589094 0
5.444567 2.426814 1.578527 0
5.375146 2.386792 1.572100 0
5.336887 2.353130 1.568290 0
5.290640 2.318315 1.563830 0
5.256011 2.285954 1.560352 0
5.233024 2.255924 1.557856 0
5.213843 2.226748 1.555687 0
5.194547 2.197720 1.553520 0
5.175136 2.168843 1.551354 0
5.163482 2.141389 1.549841 0
5.167474 2.116519 1.549632 0
5.151680 2.088593 1.547795 0
5.143662 2.061981 1.546610 0
5.143250 2.037839 1.546087 0
5.142934 2.012473 1.545554 0
5.142704 1.985883 1.545010 0
5.142203 1.960547 1.544478 0
5.157254 1.938573 1.545256 0
5.148677 1.912188 1.544073 0
5.163736 1.888870 1.544840 0
5.158932 1.863030 1.543983 0
5.169871 1.839122 1.544424 0
5.172808 1.814232 1.544217 0
5.179620 1.789776 1.544333 0
5.182385 1.764852 1.544125 0
5.192993 1.740752 1.544565 0
5.215419 1.717793 1.545977 0
5.217933 1.692745 1.545769 0
5.236236 1.669187 1.546855 0
5.266258 1.647853 1.548921 0
5.276470 1.623324 1.549359 0
5.302491 1.600065 1.551089 0
5.376126 1.580472 1.556697 0
5.394061 1.556088 1.557777 0
5.415890 1.531878 1.559179 0
5.461503 1.509192 1.562517 1
5.511025 1.486459 1.566176 1
5.540584 1.462134 1.568218 0
5.582003 1.438318 1.571227 0
-34.871719 2.577362 3.703560 12
-167.742508 35.964256 15.284816 63
-166.551224 36.313610 15.197047 63
-166.403152 36.882866 15.199584 63
-166.794052 38.781166 15.280727 63
-166.912003 39.384529 15.306325 63
-152.989502 37.257492 14.125565 63
-151.963257 37.565453 14.051328 63
-150.576889 37.777626 13.945598 63
-149.388046 38.030106 13.857038 63
-148.098862 38.249134 13.759619 63
-146.836960 38.466602 13.664498 63
-145.498245 38.655491 13.562540 63
-144.398788 38.899048 13.481503 63
-143.126251 39.088657 13.385164 63
-142.637421 39.457787 13.357000 63
-142.697815 40.002945 13.378145 63
-142.874313 40.555660 13.408933 63
-142.930496 41.102966 13.430090 63
-142.866409 41.643723 13.441607 63
-143.044189 42.202435 13.473097 63
-143.135727 42.737907 13.497129 63
-143.202591 43.294521 13.520003 63
-143.255844 43.848644 13.541864 63
-143.314575 44.405994 13.564408 63
-143.401566 44.973743 13.589677 63
-143.547150 45.561779 13.620391 63
-143.633072 46.160362 13.646887 63
-143.709335 46.730541 13.671836 63
-143.806595 47.281990 13.697960 63
-143.965469 47.883106 13.730750 63
-152.962524 64.049339 15.025867 63
-151.914856 64.227669 14.952820 63
-151.417816 64.633659 14.931132 63
-151.535110 65.270584 14.965793 63
-151.759094 65.987465 15.011980 63
-151.793732 66.625137 15.040687 63
-144.984802 66.008186 14.499071 63
-58.238636 30.696899 6.469868 48
-58.197762 30.926889 6.477563 48
-112.512169 65.406479 12.073654 63
-111.942719 65.590195 12.041919 63
-112.345154 66.841660 12.133067 63
-112.295303 67.335442 12.154306 63
-108.627556 65.638252 11.807831 63
-107.965652 65.744331 11.766232 63
-107.996567 66.272781 11.795341 63
-110.848228 66.348610 17.233389 63
-110.006676 66.383705 17.146362 63
-109.223091 66.396744 17.064100 63
-108.503548 66.469597 16.993132 63
-108.445900 66.947708 17.021845 63
-108.493904 67.493446 17.066843 63
-108.495735 68.012856 17.105230 63
-108.532097 68.556458 17.149221 63
-108.589355 69.116081 17.196781 63
-108.585945 69.613213 17.233517 63
-108.624908 70.166389 17.279053 63
-108.609261 70.713234 17.318619 63
-108.668617 71.258583 17.366064 63
-108.669319 71.767807 17.404854 63
-108.689049 72.345932 17.451057 63
-108.731705 72.915382 17.499168 63
-108.729004 73.457039 17.540659 63
-108.730698 74.031624 17.585348 63
-70.299011 48.409443 11.653290 60
-69.405975 48.508873 11.570140 61
-67.591644 48.616570 11.395259 62
-67.136452 48.634701 11.350977 62
-66.655128 48.613068 11.300975 63
-66.332062 48.722851 11.277594 63
-65.141296 48.182831 11.114736 62
-66.330536 49.775436 11.363737 62
-63.452415 48.599701 10.982031 61
-63.251160 48.787258 10.977961 60
-62.570068 48.940834 10.924276 100
-62.569584 49.285648 10.953429 2
-62.353939 49.459709 10.947282 60
-61.936501 49.452801 10.906253 100
-61.505905 49.466957 10.865869 100
-61.115170 49.493446 10.830508 58
-59.837070 48.767567 10.645057 3
-59.398174 48.743622 10.600938 55
-58.406582 48.253674 10.463596 54
-57.650581 48.269714 10.393092 53
-57.349258 48.347847 10.371428 52
-57.150280 48.512463 10.367172 52
-56.911865 48.642479 10.356248 52
-55.826653 48.364815 10.229795 51
-55.500332 48.410553 10.203447 50
-55.194492 48.455868 10.179071 50
-55.175808 48.773952 10.206032 50
-54.944145 48.918148 10.197670 50
-52.239197 47.097965 9.783101 90
-51.902836 47.111740 9.753553 89
-51.593140 47.148045 9.728610 89
-51.263535 47.163773 9.700062 88
-50.974831 47.215870 9.678687 43
-50.689243 47.269245 9.657814 43
-50.315014 47.236195 9.621011 43
-50.013042 47.269897 9.597031 42
-49.645935 47.238533 9.561226 42
-49.321774 47.230171 9.531511 41
-49.009914 47.247845 9.505438 41
-48.726704 47.291817 9.484490 41
-48.609501 47.499622 9.493852 41
-47.334747 46.865314 9.321343 39
-48.563889 48.421848 9.577898 42
-11.740201 11.154896 2.788863 26
-44.835205 47.446865 9.162674 74
-44.825317 47.762966 9.193043 74
-44.837765 48.105965 9.228045 100
-44.539829 48.108227 9.203325 75
-44.247700 48.114891 9.179624 74
-43.961327 48.126011 9.156940 73
-43.675392 48.135712 9.134246 73
-43.400764 48.139740 9.112006 72
-43.113113 48.143673 9.088775 72
-42.140121 47.354794 8.929504 100
-42.042492 47.569965 8.943337 34
-41.936123 47.775970 8.955622 34
-41.416061 47.478859 8.883326 33
-42.319244 48.881176 9.099217 36
-39.690228 47.052753 8.701735 31
-39.528992 47.184204 8.702617 31
-39.384743 47.336693 8.707104 31
-39.220715 47.448193 8.705869 31
-38.832764 47.645226 8.696286 31
-38.560081 47.617504 8.672325 31
-38.308270 47.648106 8.656181 31
-38.024494 47.602142 8.629621 31
-37.722095 47.529648 8.598920 31
-37.548649 47.657288 8.599267 31
-37.184200 47.515614 8.556710 31
-36.674103 47.496880 8.516446 31
-36.464108 47.554062 8.506908 31
-36.392815 47.798859 8.527843 31
-36.112041 47.758625 8.502794 31
-35.748165 47.601395 8.459135 31
-35.205887 47.551514 8.414189 62
-34.975395 47.554752 8.397847 62
-34.730263 47.552971 8.379983 62
-34.490089 47.556549 8.363144 62
-34.247128 47.537083 8.343676 31
-33.938919 47.455826 8.312895 31
-33.659985 47.396885 8.286721 31
-33.468662 47.464603 8.280705 31
-33.214508 47.420792 8.258099 31
-32.961704 47.394413 8.237586 31
-32.755493 47.436256 8.227927 31
-32.558090 47.490482 8.220331 31
-32.462616 47.699986 8.237045 31
-32.187008 47.633118 8.210810 31
-31.514128 47.282867 8.126191 31
-31.341543 47.369022 8.124249 31
-31.229933 47.551922 8.137313 31
-31.091976 47.675671 8.142059 31
-30.663208 47.712368 8.117949 31
-29.698423 47.239845 8.001746 31
-29.437191 47.150967 7.974861 31
-29.027660 47.194557 7.953755 31
-28.828257 47.205223 7.942387 31
-28.654688 47.278141 7.939848 31
-28.480938 47.350410 7.937304 31
-28.326584 47.456528 7.939936 31
-28.167921 47.555222 7.941526 31
-28.012758 47.660297 7.944149 31
-27.451839 47.801754 7.926587 62
-27.152107 48.408604 7.979460 62
-27.060181 48.636642 8.000718 93
-26.831079 48.604465 7.983600 93
-26.624397 48.613537 7.972697 93
-26.416145 48.618217 7.961268 93
-26.208164 48.622028 7.949833 93
-25.996880 48.617886 7.937354 93
-25.794794 48.630585 7.927461 93
-25.585867 48.628242 7.915487 93
-25.385994 48.642818 7.906100 93
-25.179361 48.642323 7.894631 93
-24.587934 47.822712 7.764824 62
-24.427555 47.908592 7.766307 93
-24.260052 47.979595 7.765710 62
-24.041689 47.942326 7.749538 62
-23.756844 47.760307 7.712597 31
-23.191788 47.392044 7.638687 93
-22.972183 47.339470 7.620925 93
-22.761332 47.304016 7.605752 93
-22.567106 47.303898 7.595763 93
-22.374737 47.306618 7.586288 93
-22.204983 47.337738 7.581461 93
-22.046276 47.393726 7.580264 93
-21.880865 47.456291 7.579600 93
-21.711779 47.532669 7.580508 93
-21.558231 47.623299 7.583989 93
-21.418005 47.746376 7.592139 93
-21.281691 47.880043 7.601844 93
-21.120707 47.954571 7.603234 93
-20.923790 47.940292 7.592151 93
-20.736044 47.947304 7.584179 93
