# .PCD v.7 - Point Cloud Data file format
VERSION .7
FIELDS x y z intensity
SIZE 4 4 4 1
TYPE F F F U
COUNT 1 1 1 1
WIDTH 1570
HEIGHT 1
VIEWPOINT 0 0 0 1 0 0 0
POINTS 1570
DATA ascii
0.857136 6.458558 0.219033 26
0.887172 6.469832 0.216058 39
0.909947 6.466893 0.214996 52
0.934592 6.467372 0.213455 29
0.959275 6.467746 0.211912 30
0.985876 6.471512 0.209890 31
1.013474 6.479169 0.207394 29
1.040209 6.482695 0.205370 32
1.066046 6.482093 0.203818 31
1.092891 6.485380 0.201792 27
1.118836 6.489084 0.199770 28
1.141895 6.485217 0.198700 28
1.170856 6.491610 0.196192 28
1.195947 6.490979 0.194641 27
1.219084 6.486801 0.193568 28
1.246230 6.489391 0.191536 26
1.270462 6.488997 0.189988 28
1.297708 6.491353 0.187953 29
1.325010 6.493585 0.185918 29
1.350320 6.492290 0.184361 28
1.376619 6.490303 0.182797 28
1.404062 6.492171 0.180759 26
1.434763 6.501269 0.177765 28
1.466524 6.509626 0.174765 29
1.487853 6.500996 0.174163 26
1.521872 6.512438 0.170679 26
1.547493 6.510303 0.169115 26
1.573142 6.508055 0.167550 24
1.600970 6.509033 0.165504 26
1.625722 6.507180 0.163943 26
1.650501 6.505223 0.162382 30
1.682826 6.512473 0.159371 26
1.710850 6.512949 0.157320 27
1.744304 6.519249 0.154301 26
1.774667 6.522738 0.151767 28
1.805099 6.526083 0.149231 30
1.835600 6.529283 0.146695 30
1.860691 6.526468 0.145126 30
1.891304 6.529396 0.142587 29
1.917427 6.525673 0.141009 29
1.945860 6.525080 0.138949 30
1.975672 6.528278 0.136414 30
2.011137 6.537105 0.132907 30
2.037419 6.532869 0.131325 30
2.069355 6.534238 0.128772 33
2.099420 6.536865 0.126231 31
2.137164 6.543602 0.122705 32
2.165006 6.542732 0.120643 32
2.197644 6.548098 0.117617 32
2.222742 6.539160 0.116503 32
2.253100 6.541071 0.113956 33
2.283041 6.538206 0.111875 30
2.319319 6.545378 0.108354 28
2.355698 6.552364 0.104832 30
2.379953 6.543520 0.103719 31
2.417965 6.554060 0.099718 26
2.448696 6.555071 0.097164 24
2.485405 6.561371 0.093635 22
2.520696 6.563606 0.090580 21
2.547595 6.557187 0.088979 26
2.578552 6.557594 0.086419 25
2.615570 6.563197 0.082884 29
2.651124 6.564744 0.079823 25
2.687347 6.570778 0.076292 23
2.717951 6.565872 0.074194 25
2.754326 6.571559 0.070661 23
2.789191 6.573213 0.067601 20
2.824124 6.574691 0.064540 16
2.859125 6.575993 0.061478 20
2.890615 6.574967 0.058905 22
2.929327 6.578066 0.055348 23
2.967152 6.581816 0.051797 22
3.002427 6.582399 0.048728 26
3.035119 6.579844 0.046141 26
3.072191 6.583909 0.042594 22
3.104989 6.581019 0.040005 17
3.135152 6.575035 0.037898 13
3.162648 6.565984 0.036275 9
3.180325 6.544253 0.036580 6
3.196947 6.523369 0.036894 4
3.216204 6.505331 0.036722 5
3.234439 6.488132 0.036559 5
3.250836 6.467087 0.036871 6
3.273594 6.450815 0.036205 5
3.289840 6.429652 0.036517 8
3.305057 6.409362 0.036837 6
3.273936 6.339861 0.045396 8
3.334349 6.363982 0.037944 5
3.358641 6.351103 0.036799 5
3.371683 6.326883 0.037594 6
3.392141 6.311970 0.036942 7
3.406909 6.291399 0.037260 6
3.428190 6.275410 0.036598 5
3.438047 6.248255 0.037878 4
3.456342 6.229377 0.037701 4
3.475480 6.209486 0.037514 3
3.489860 6.188690 0.037831 4
3.507947 6.169631 0.037653 4
3.525967 6.150510 0.037474 2
3.532314 6.120484 0.039240 2
3.550163 6.101278 0.039061 2
3.567944 6.082010 0.038881 2
3.585657 6.062679 0.038701 2
3.602423 6.044259 0.038529 1
3.608214 6.014169 0.040296 1
3.619776 5.989400 0.041089 2
3.643968 5.974189 0.039924 1
3.638036 5.866661 0.048646 78
3.664006 5.854880 0.047002 71
3.723091 5.871432 0.039995 105
3.734027 5.846408 0.040786 106
3.723650 5.803408 0.044992 71
3.752545 5.793756 0.042857 26
3.828677 5.789227 0.035656 10
3.825100 5.718541 0.041141 0
3.832295 5.690810 0.042420 0
3.851733 5.673050 0.041746 0
3.871118 5.655212 0.041071 0
3.878015 5.627418 0.042350 0
3.894140 5.607008 0.042162 0
3.906267 5.585119 0.042473 0
3.912843 5.557299 0.043752 0
3.919296 5.529489 0.045031 0
3.947683 5.518597 0.042887 0
3.960268 5.495540 0.043188 0
3.966430 5.467665 0.044467 0
3.978822 5.444565 0.044767 0
3.991124 5.421433 0.045067 0
4.000144 5.395910 0.045857 0
4.018661 5.377424 0.045178 0
4.030705 5.354187 0.045478 0
4.042658 5.330920 0.045777 0
4.060973 5.312252 0.045097 0
4.069531 5.286598 0.045886 0
4.074742 5.258644 0.047166 0
4.092828 5.239831 0.046484 0
4.104342 5.216403 0.046783 0
4.112502 5.190690 0.047572 0
4.120556 5.164969 0.048361 0
4.137622 5.147016 0.047688 0
4.138918 5.116804 0.049459 0
4.160567 5.098845 0.048275 0
4.174133 5.078523 0.048092 0
4.171786 5.046132 0.050355 0
4.189199 5.026879 0.049670 0
4.196575 5.001052 0.050460 0
4.207178 4.977379 0.050758 0
4.227715 4.960112 0.049581 0
4.241509 4.938485 0.049386 0
4.248516 4.912570 0.050175 0
4.255417 4.886654 0.050965 0
4.265584 4.862834 0.051262 0
4.268904 4.834822 0.052543 0
4.285646 4.815125 0.051856 0
4.295541 4.791236 0.052153 0
4.298547 4.763226 0.053435 0
4.301433 4.735240 0.054717 0
4.324683 4.719435 0.053044 0
4.326729 4.692527 0.054336 0
4.345802 4.675663 0.053164 0
4.352372 4.648542 0.053944 0
4.361636 4.624504 0.054240 0
4.374258 4.602412 0.054044 0
4.386803 4.580276 0.053847 0
4.391726 4.555321 0.054646 0
4.407574 4.535055 0.053955 0
4.416409 4.510885 0.054251 0
4.411834 4.477957 0.056512 0
4.427432 4.457585 0.055821 0
4.439471 4.435265 0.055623 0
4.447930 4.411033 0.055919 0
4.452791 4.384927 0.056709 0
4.468090 4.364363 0.056017 0
4.479804 4.341901 0.055818 0
4.473224 4.311420 0.058102 0
4.487710 4.291875 0.057419 0
4.496772 4.265294 0.057695 0
4.501048 4.239166 0.058485 0
4.526533 4.223674 0.056307 0
4.523521 4.193975 0.058087 0
4.538204 4.173067 0.057393 0
4.538537 4.145160 0.058678 0
4.541787 4.120147 0.059480 0
4.555688 4.100276 0.058794 0
4.556252 4.071280 0.060071 0
4.552565 4.041776 0.061854 0
4.573952 4.024036 0.060167 0
4.583952 4.002349 0.059977 0
4.590790 3.977838 0.060273 0
4.605287 3.955439 0.059566 0
4.608326 3.929258 0.060358 0
4.614384 3.905849 0.060663 0
4.628130 3.884475 0.059966 0
4.627748 3.855557 0.061245 0
4.629900 3.830550 0.062047 0
4.650208 3.813356 0.060366 0
4.656829 3.787560 0.060651 0
4.666528 3.764443 0.060450 0
4.672480 3.739773 0.060745 0
4.685208 3.719268 0.060057 0
4.676755 3.687419 0.062331 0
4.671376 3.658307 0.064119 0
4.702747 3.643952 0.060933 0
4.708252 3.619219 0.061228 0
4.721061 3.597367 0.060528 0
4.711584 3.566877 0.062815 0
4.712654 3.541900 0.063619 0
4.729359 3.520232 0.062411 0
4.741841 3.498254 0.061710 0
4.724046 3.466362 0.065006 0
4.740077 3.445744 0.063807 0
4.756044 3.425044 0.062607 0
4.741644 3.394714 0.065407 0
4.765347 3.375439 0.063199 0
4.769451 3.351806 0.063505 0
4.758882 3.321793 0.065798 0
4.786126 3.303586 0.063089 0
4.771584 3.272374 0.065882 0
4.783247 3.250121 0.065180 0
4.798604 3.229062 0.063978 0
4.794652 3.202928 0.065284 0
4.790983 3.175666 0.066580 0
4.817445 3.158130 0.063878 0
4.821162 3.133260 0.064175 0
4.828576 3.109574 0.063972 0
4.835907 3.085861 0.063768 0
4.835563 3.059811 0.064565 0
4.842365 3.037262 0.064372 0
4.853248 3.014632 0.063668 0
4.856788 2.988527 0.063954 0
4.856072 2.962510 0.064752 0
4.859074 2.937613 0.065049 0
4.861985 2.912719 0.065346 0
4.872122 2.891147 0.064652 0
4.874864 2.866233 0.064949 0
4.877515 2.841323 0.065247 0
4.875925 2.816587 0.066056 0
4.894059 2.794548 0.064338 0
4.892609 2.768615 0.065137 0
4.894905 2.743698 0.065435 0
4.897111 2.718786 0.065733 0
4.906632 2.696992 0.065037 0
4.904522 2.672320 0.065848 0
4.925757 2.652070 0.063635 0
4.920477 2.622866 0.064918 0
4.929973 2.599739 0.064211 0
4.900444 2.568869 0.068540 0
4.917228 2.548739 0.066839 0
4.911248 2.520930 0.068133 0
4.916524 2.496933 0.067930 0
4.929475 2.474589 0.066721 0
4.919061 2.447239 0.068529 0
4.931850 2.424832 0.067320 0
4.932658 2.401171 0.067630 0
4.929976 2.374333 0.068423 0
4.934505 2.351474 0.068230 0
4.927734 2.323929 0.069528 0
4.936221 2.300616 0.068821 0
4.944406 2.278465 0.068124 0
4.936906 2.253415 0.069443 0
4.945369 2.228825 0.068726 0
4.941599 2.204541 0.069542 0
4.953798 2.180581 0.068320 0
4.946148 2.154458 0.069630 0
4.957975 2.131633 0.068418 0
4.954058 2.106210 0.069225 0
4.957697 2.083274 0.069032 0
4.957709 2.057303 0.069324 0
4.957262 2.033763 0.069637 0
4.957089 2.007822 0.069929 0
4.960402 1.984876 0.069737 0
4.971665 1.961812 0.068524 0
4.959264 1.935458 0.070343 0
4.974297 1.912867 0.068624 0
4.981229 1.890375 0.067926 0
5.004140 1.867405 0.065184 0
5.007134 1.843087 0.064981 0
5.006104 1.818291 0.065284 0
4.996963 1.793817 0.066610 0
4.999835 1.768310 0.066397 0
5.006429 1.744435 0.065688 0
5.005048 1.719697 0.065992 0
5.019370 1.696576 0.064269 0
5.017819 1.671820 0.064573 0
5.008166 1.647556 0.065901 0
5.018297 1.623943 0.064685 0
5.016489 1.599233 0.064990 0
5.022501 1.575205 0.064280 0
5.032289 1.552680 0.063073 0
5.034091 1.529487 0.062881 0
5.039863 1.505358 0.062171 0
5.045636 1.479973 0.061450 0
5.031362 1.455681 0.063289 0
5.032995 1.430050 0.063077 0
5.034391 1.406856 0.062885 0
5.039807 1.381436 0.062164 0
5.041105 1.356996 0.061962 0
5.034333 1.333386 0.062787 0
4.968139 1.304685 0.071219 0
5.028630 1.282989 0.063391 0
5.033504 1.259962 0.062691 0
4.970895 1.234528 0.070640 0
4.963750 1.210079 0.071459 0
5.039803 1.188038 0.061588 0
5.040425 1.163600 0.061387 0
4.969614 1.135219 0.070332 0
4.974020 1.111096 0.069624 0
5.041799 1.089053 0.060774 0
5.042064 1.065830 0.060583 0
5.042260 1.041385 0.060382 0
5.038404 1.016924 0.060691 0
-9.837642 1.018765 -0.032744 0
-9.837513 1.047632 -0.032507 0
-9.849197 1.075253 -0.033781 0
-9.856816 1.102899 -0.034555 0
-9.864339 1.130600 -0.035329 0
-9.867825 1.156890 -0.035614 1
-9.863222 1.185768 -0.034878 1
-9.870453 1.213574 -0.035651 0
-9.881596 1.240175 -0.036935 0
-9.880750 1.266438 -0.036720 0
-9.871834 1.293775 -0.035497 0
-9.882536 1.324649 -0.036746 0
-9.897206 1.353022 -0.038515 0
-9.903848 1.381111 -0.039287 0
-9.902463 1.408833 -0.039061 0
-9.901057 1.435164 -0.038847 0
-9.907488 1.461960 -0.039629 1
-9.913571 1.492968 -0.040378 0
-9.923676 1.521516 -0.041647 1
-9.925856 1.548194 -0.041930 0
-9.927947 1.574892 -0.042214 0
-9.929737 1.604392 -0.042475 1
-9.935485 1.632840 -0.043244 1
-9.945086 1.661669 -0.044511 0
-9.938888 1.687794 -0.043800 0
-9.948165 1.718109 -0.045055 1
-9.949554 1.746357 -0.045327 1
-9.958880 1.774004 -0.046604 0
-9.971778 1.804917 -0.048355 0
-9.961020 1.832042 -0.047135 0
-9.966102 1.859422 -0.047914 1
-9.963047 1.887358 -0.047689 1
-9.967781 1.916195 -0.048457 0
-9.960587 1.943667 -0.047735 0
-9.961348 1.970671 -0.048018 1
-9.969543 2.001477 -0.049270 0
-9.981737 2.031468 -0.051030 1
-9.978267 2.058059 -0.050816 0
-9.978452 2.086574 -0.051087 0
-9.974409 2.115950 -0.050851 1
-9.978316 2.145045 -0.051618 1
-9.978191 2.173602 -0.051889 0
-9.974250 2.200179 -0.051675 0
-9.974143 2.227350 -0.051958 0
-9.973505 2.257329 -0.052218 0
-9.969062 2.285289 -0.051994 0
-9.980415 2.314422 -0.053761 0
-9.979687 2.343066 -0.054032 0
-9.990590 2.373742 -0.055788 1
-9.985741 2.401761 -0.055564 1
-9.972979 2.428359 -0.054351 0
-9.991365 2.460605 -0.057094 0
-9.986212 2.488626 -0.056871 0
-9.996558 2.519597 -0.058625 1
-9.967819 2.543100 -0.055436 0
-9.981849 2.574885 -0.057684 0
-9.976297 2.602872 -0.057461 0
-9.967044 2.628645 -0.056756 0
-9.969366 2.656801 -0.057532 0
-9.951584 2.683671 -0.055818 0
-9.949533 2.712388 -0.056090 0
-9.963193 2.743114 -0.058347 0
-9.964493 2.774157 -0.059101 0
-9.958561 2.800686 -0.058891 1
-9.951901 2.829985 -0.058658 0
-9.941594 2.856961 -0.057945 0
-9.927334 2.882971 -0.056738 0
-9.951912 2.916819 -0.060472 0
-9.957074 2.946135 -0.061740 0
-9.937981 2.973947 -0.060020 0
-9.931036 3.001778 -0.059800 0
-9.935885 3.031147 -0.061068 0
-9.929101 3.057580 -0.060860 0
-9.944532 3.092835 -0.063582 0
-9.921833 3.116591 -0.061395 0
-9.925510 3.148868 -0.062641 0
-9.914508 3.174214 -0.061941 0
-9.918337 3.205155 -0.063198 0
-9.910975 3.231529 -0.062991 0
-9.899316 3.258174 -0.062281 0
-9.907032 3.288897 -0.064040 0
-9.894774 3.316886 -0.063321 0
-9.886633 3.344564 -0.063103 0
-9.901204 3.379075 -0.065833 0
-9.877656 3.402148 -0.063652 0
-9.881022 3.431894 -0.064919 0
-9.864472 3.458537 -0.063711 0
-9.856271 3.484731 -0.063506 0
-9.858448 3.517279 -0.064752 0
-9.849607 3.544829 -0.064536 0
-9.844443 3.573585 -0.064812 0
-9.842943 3.603584 -0.065578 0
-9.837565 3.632342 -0.065854 0
-9.828788 3.658445 -0.065650 0
-9.819455 3.685891 -0.065436 0
-9.821279 3.717207 -0.066693 0
-9.822979 3.748569 -0.067949 0
-9.809590 3.774667 -0.067246 0
-9.814799 3.807406 -0.068991 0
-9.794244 3.829375 -0.067321 0
-9.798725 3.863530 -0.069055 0
-9.781232 3.888110 -0.067865 0
-9.786479 3.919592 -0.069621 0
-9.779433 3.949658 -0.069888 0
-9.772792 3.978348 -0.070166 0
-9.766571 4.005665 -0.070454 0
-9.763423 4.035779 -0.071221 0
-9.756467 4.064450 -0.071500 0
-9.734653 4.087233 -0.069824 0
-9.723825 4.114347 -0.069615 0
-9.723934 4.145909 -0.070871 0
-9.727592 4.179017 -0.072615 0
-9.713334 4.203233 -0.071929 0
-9.712523 4.236223 -0.073175 0
-9.693861 4.260167 -0.071991 0
-9.683002 4.285790 -0.071794 0
-9.664766 4.308237 -0.070622 0
-9.678068 4.347535 -0.073819 0
-9.674191 4.376297 -0.074598 0
-9.647835 4.396765 -0.072442 1
-9.625650 4.417373 -0.070785 0
-9.635383 4.453904 -0.073504 0
-9.630501 4.483961 -0.074273 0
-9.613455 4.511723 -0.073561 0
-9.611947 4.543428 -0.074818 0
-9.592959 4.565410 -0.073651 0
-9.591231 4.597117 -0.074908 0
-9.589375 4.628855 -0.076165 1
-9.573716 4.652409 -0.075486 1
-9.564487 4.680692 -0.075771 0
-9.548022 4.705462 -0.075082 1
-9.549275 4.738955 -0.076827 1
-9.479308 4.834181 -0.073605 75
-9.507543 4.883552 -0.079227 106
-9.458714 4.891543 -0.074170 71
-9.410603 4.897941 -0.069126 71
-9.442571 4.948054 -0.075242 106
-9.383198 4.949850 -0.068733 14
-9.358177 4.971381 -0.067072 14
-9.379162 5.016113 -0.071730 4
-9.386412 5.085685 -0.076202 1
-9.385981 5.119296 -0.077947 1
-9.360438 5.140653 -0.076287 1
-9.353576 5.169074 -0.077073 2
-9.342422 5.196817 -0.077364 2
-9.323242 5.254212 -0.078432 2
-9.305660 5.276600 -0.077765 3
-9.287261 5.300197 -0.077088 4
-9.246068 5.346395 -0.075245 4
-9.235012 5.372577 -0.075548 5
-9.216306 5.395878 -0.074875 5
-9.211073 5.427393 -0.076138 5
-9.198949 5.454757 -0.076434 7
-9.170642 5.470350 -0.074320 8
-10.153557 5.634961 -0.005915 24
-10.089764 5.634468 0.000000 25
-10.033979 5.643786 0.004721 27
-9.984120 5.650545 0.009000 30
-9.927437 5.653004 0.014091 31
-9.868385 5.659280 0.019211 34
-9.814452 5.664467 0.023901 32
-9.768220 5.672066 0.027762 30
-9.711806 5.673236 0.032844 31
-9.657236 5.678840 0.037535 30
-9.603546 5.682773 0.042214 31
-9.557510 5.689251 0.046067 25
-9.507318 5.694688 0.050334 27
-9.452991 5.699023 0.055016 34
-9.402918 5.703854 0.059278 33
-9.347013 5.702822 0.064342 27
-9.310461 5.715662 0.066973 27
-9.260550 5.719651 0.071229 30
-9.210701 5.723348 0.075483 30
-9.151765 5.718940 0.080944 35
-9.108702 5.726428 0.084380 30
-9.061539 5.732702 0.088229 39
-9.018554 5.739686 0.091661 34
-8.972313 5.744194 0.095497 26
-8.926127 5.748436 0.099331 30
-8.874270 5.746697 0.103966 28
-8.828215 5.750397 0.107796 27
-8.788742 5.758390 0.110812 27
-8.742788 5.761587 0.114638 31
-8.696896 5.764522 0.118461 28
-8.647826 5.764881 0.122688 28
-8.609362 5.770767 0.125689 24
-8.566875 5.775270 0.129101 23
-8.524438 5.779535 0.132511 25
-8.485258 5.785919 0.135514 25
-8.435682 5.786114 0.139740 28
-8.393409 5.789648 0.143144 28
-8.345663 5.787050 0.147348 28
-8.303516 5.790097 0.150749 24
-8.274086 5.802557 0.152529 25
-8.235177 5.807600 0.155522 28
-8.199457 5.814865 0.158108 29
-8.151205 5.812159 0.162311 28
-8.110151 5.813013 0.165695 28
-8.075406 5.818581 0.168269 22
-8.039849 5.825032 0.170849 22
-8.013639 5.838758 0.172214 21
-7.968825 5.837368 0.176004 20
-7.932513 5.844295 0.178587 21
-7.897926 5.848948 0.181153 24
-7.856383 5.849395 0.184533 20
-7.821034 5.854693 0.187104 21
-7.795731 5.866444 0.188455 18
-7.769561 5.879093 0.189812 15
-7.737303 5.886473 0.191975 14
-7.738360 5.922108 0.189698 13
-7.744407 5.964007 0.186622 10
-7.721885 5.977948 0.187565 12
-7.701462 5.995411 0.188112 12
-7.680987 6.012793 0.188658 14
-7.651516 6.022184 0.190413 15
-7.622050 6.031431 0.192166 16
-7.589625 6.037877 0.194321 17
-7.563132 6.049492 0.195670 19
-7.530737 6.055629 0.197822 23
-7.499253 6.060635 0.199967 27
-7.466911 6.066449 0.202117 24
-7.425846 6.063976 0.205474 22
-7.390680 6.066714 0.208024 22
-7.355562 6.069269 0.210572 21
-7.320492 6.071640 0.213119 21
-7.288350 6.076577 0.215263 20
-7.256239 6.081352 0.217405 21
-7.224159 6.085964 0.219545 21
-7.192112 6.090415 0.221685 21
-7.160098 6.094704 0.223823 21
-7.125288 6.096034 0.226361 24
-7.088601 6.093480 0.229294 27
-7.051098 6.091629 0.232232 25
-7.019273 6.095231 0.234365 24
-6.987486 6.098673 0.236496 22
-6.961299 6.107649 0.237823 21
-6.924025 6.105080 0.240755 23
-6.895114 6.110910 0.242482 26
-6.866223 6.116601 0.244207 26
-6.834611 6.119268 0.246332 26
-6.808503 6.127565 0.247653 35
-6.766068 6.118320 0.251381 33
-6.734602 6.120494 0.253503 33
-6.703179 6.122512 0.255623 28
-6.675387 6.126482 0.257335 27
-6.647621 6.130324 0.259046 25
-6.618985 6.134852 0.260762 25
-6.587712 6.136284 0.262877 29
-6.559137 6.140528 0.264591 28
-6.530590 6.144636 0.266303 29
-6.500338 6.144828 0.268410 30
-6.466616 6.142667 0.270922 29
-6.434676 6.144120 0.273036 27
-6.406283 6.147647 0.274744 26
-6.377920 6.151039 0.276451 26
-6.350488 6.153530 0.278152 26
-6.317052 6.150575 0.280657 26
-6.295574 6.163455 0.281165 25
-6.268228 6.165565 0.282862 26
-6.247620 6.177502 0.283363 26
-6.211833 6.170897 0.286264 26
-6.176143 6.164107 0.289164 28
-6.153069 6.172601 0.290062 28
-6.125003 6.174791 0.291759 28
-6.096972 6.176849 0.293456 26
-6.071449 6.181894 0.294751 27
-6.036101 6.174310 0.297644 27
-6.006658 6.172111 0.299733 28
-5.986125 6.183056 0.300226 24
-5.960710 6.187613 0.301517 25
-5.935312 6.192056 0.302808 26
-5.907526 6.193215 0.304497 28
-5.879781 6.194243 0.306185 30
-5.854461 6.198328 0.307473 30
-5.829159 6.202300 0.308760 29
-5.803877 6.206159 0.310046 29
-5.771565 6.200268 0.312528 30
-5.744020 6.200656 0.314211 30
-5.721172 6.207373 0.315095 30
-5.691375 6.204283 0.317176 27
-5.666255 6.207539 0.318457 31
-5.638865 6.207430 0.320136 29
-5.616085 6.213716 0.321017 26
-5.589675 6.212735 0.322690 25
-5.566921 6.218818 0.323569 26
-5.541920 6.221521 0.324846 28
-5.516945 6.224113 0.326122 29
-5.494220 6.229895 0.326998 28
-5.469285 6.232275 0.328272 28
-5.446578 6.237859 0.329147 29
-5.423875 6.243349 0.330021 29
-5.394639 6.238753 0.332090 29
-5.367644 6.237355 0.333759 26
-5.345013 6.242524 0.334631 30
-5.318098 6.240892 0.336298 30
-5.294285 6.241916 0.337563 29
-5.268380 6.239472 0.339225 27
-5.242807 6.241435 0.340495 28
-5.219097 6.242143 0.341757 26
-5.198675 6.250095 0.342225 26
-5.174088 6.251176 0.343489 25
-5.149532 6.252149 0.344753 27
-5.122958 6.249604 0.346413 28
-5.103678 6.261158 0.346484 28
-5.079197 6.261820 0.347745 28
-5.059700 6.268700 0.348206 29
-5.033259 6.265728 0.349863 30
-5.007949 6.266614 0.351124 30
-4.987551 6.273765 0.351586 30
-4.966095 6.276853 0.352442 29
-4.942696 6.276390 0.353695 28
-4.914524 6.269400 0.355745 28
-4.892232 6.272718 0.356602 29
-4.868033 6.272458 0.357856 30
-4.843873 6.272094 0.359108 30
-4.821645 6.275125 0.359963 30
-4.794744 6.271547 0.361614 30
-4.774438 6.277894 0.362070 30
-4.753188 6.280155 0.362919 28
-4.731953 6.282334 0.363768 28
-4.709811 6.284910 0.364619 20
-4.687685 6.287396 0.365469 20
-4.667385 6.293338 0.365922 20
-4.642558 6.292567 0.367170 21
-4.623190 6.297874 0.367618 22
-4.602891 6.303571 0.368069 20
-4.576379 6.298938 0.369712 21
-4.557849 6.308036 0.369764 22
-4.532349 6.302739 0.371403 21
-4.516457 6.314826 0.371054 21
-4.492741 6.312932 0.372295 23
-4.469997 6.310499 0.373532 23
-4.449742 6.315620 0.373978 24
-4.425207 6.313871 0.375219 25
-4.404965 6.318823 0.375663 25
-4.381425 6.316453 0.376900 23
-4.358860 6.313564 0.378134 25
-4.335412 6.310998 0.379370 25
-4.318450 6.322895 0.379018 24
-4.293450 6.316509 0.380649 23
-4.273275 6.320968 0.381089 25
-4.248383 6.314380 0.382718 26
-4.228242 6.318671 0.383157 26
-4.209645 6.326553 0.383199 26
-4.187953 6.327024 0.384033 25
-4.167807 6.331088 0.384471 26
-4.146151 6.331392 0.385303 51
-4.123956 6.327543 0.386530 46
-4.112194 6.349462 0.384982 33
-4.090549 6.349542 0.385813 33
-4.070387 6.353240 0.386247 33
-4.047337 6.349444 0.387473 34
-4.027697 6.357056 0.387511 33
-4.007067 6.356442 0.388338 35
-3.985528 6.356105 0.389166 31
-3.963080 6.356032 0.389994 35
-3.940217 6.351787 0.391217 36
-3.923809 6.362060 0.390853 33
-3.901937 6.357312 0.392072 34
-3.880929 6.360642 0.392502 37
-3.861797 6.363228 0.392928 37
-3.840416 6.362318 0.393752 36
-3.820367 6.365085 0.394178 33
-3.801959 6.375631 0.393814 33
-3.781555 6.374166 0.394634 31
-3.762766 6.380489 0.394663 28
-3.740208 6.375409 0.395879 35
-3.718004 6.374327 0.396699 34
-3.698932 6.376337 0.397121 33
-3.677717 6.374787 0.397939 32
-3.658927 6.380748 0.397965 30
-3.635384 6.371441 0.399574 35
-3.616606 6.377254 0.399598 35
-3.598747 6.382715 0.399621 32
-3.579930 6.388400 0.399645 31
-3.558832 6.386386 0.400459 31
-3.537767 6.384292 0.401273 32
-3.517840 6.385939 0.401691 30
-3.497921 6.387514 0.402108 35
-3.479088 6.392847 0.402129 34
-3.461300 6.401949 0.401753 30
-3.442309 6.403057 0.402167 28
-3.421346 6.400510 0.402978 30
-3.402547 6.409674 0.402602 25
-3.382626 6.410823 0.403015 20
-3.360721 6.404193 0.404219 25
-3.341791 6.404949 0.404631 22
-3.322897 6.409737 0.404647 23
-3.302073 6.406732 0.405454 25
-3.282228 6.411612 0.405469 26
-3.265188 6.419835 0.405088 24
-3.242575 6.408861 0.406684 25
-3.222765 6.409426 0.407092 25
-3.206526 6.425437 0.405919 24
-3.184057 6.414222 0.407513 25
-3.165132 6.418459 0.407524 25
-3.147140 6.422423 0.407535 25
-3.128297 6.422437 0.407940 25
-3.107697 6.418691 0.408741 27
-3.090376 6.430456 0.407960 26
-3.069007 6.422666 0.409155 26
-3.049271 6.422599 0.409559 26
-3.031086 6.430271 0.409171 26
-3.011350 6.430066 0.409574 26
-2.991629 6.429790 0.409976 28
-2.972651 6.433355 0.409982 27
-2.952232 6.429023 0.410778 27
-2.934907 6.436199 0.410387 26
-2.915907 6.439566 0.410392 26
-2.895270 6.439108 0.410791 25
-2.876550 6.438251 0.411190 26
-2.856897 6.437488 0.411588 26
-2.837892 6.440583 0.411590 26
-2.819496 6.447544 0.411196 26
-2.799246 6.442640 0.411988 26
-2.780816 6.449470 0.411593 26
-2.760036 6.440485 0.412779 25
-2.741586 6.447182 0.412383 25
-2.722548 6.449875 0.412382 26
-2.703917 6.448427 0.412776 26
-2.685923 6.458880 0.411983 22
-2.665315 6.449535 0.413166 25
-2.646269 6.451962 0.413163 25
-2.627216 6.454322 0.413159 24
-2.608623 6.460568 0.412759 22
-2.589539 6.462796 0.412754 25
-2.570448 6.464958 0.412749 22
-2.550922 6.463096 0.413138 25
-2.531417 6.461164 0.413527 25
-2.513686 6.466987 0.413124 26
-2.494581 6.468884 0.413116 27
-2.474514 6.470804 0.413108 28
-2.456351 6.472477 0.413099 26
-2.436882 6.470209 0.413485 26
-2.417766 6.471838 0.413475 29
-2.398962 6.477367 0.413069 28
-2.379517 6.474895 0.413454 28
-2.360385 6.476324 0.413442 30
-2.341524 6.481657 0.413034 30
-2.322369 6.482953 0.413021 28
-2.302960 6.480209 0.413404 27
-2.283576 6.477397 0.413785 25
-2.265835 6.486386 0.412981 26
-2.247414 6.483393 0.413362 23
-2.228642 6.492311 0.412555 26
-2.209269 6.489237 0.412935 27
-2.189922 6.486094 0.413314 28
-2.170752 6.486861 0.413297 29
-2.151579 6.487561 0.413279 31
-2.132654 6.496151 0.412470 29
-2.113338 6.492739 0.412846 26
-2.094049 6.489259 0.413223 26
-2.074951 6.493670 0.412807 26
-2.055755 6.494036 0.412787 27
-2.036614 6.498314 0.412370 28
-2.017444 6.502526 0.411953 29
-1.998134 6.490750 0.413118 28
-1.978991 6.502788 0.411908 24
-1.960724 6.494858 0.412677 26
-1.941511 6.498805 0.412258 25
-1.922271 6.502685 0.411838 25
-1.903004 6.506497 0.411417 27
-1.883819 6.502283 0.411787 28
-1.864526 6.505960 0.411366 29
-1.845206 6.509571 0.410943 30
-1.825859 6.513113 0.410520 29
-1.806597 6.512609 0.410493 28
-1.787461 6.508060 0.410860 25
-1.768079 6.511399 0.410436 26
-1.748823 6.510694 0.410406 26
-1.729404 6.513897 0.409980 27
-1.711282 6.509124 0.410348 30
-1.691842 6.512195 0.409921 31
-1.671963 6.523148 0.408701 29
-1.652667 6.522107 0.408669 29
-1.633140 6.524971 0.408240 28
-1.614335 6.515849 0.408999 30
-1.594802 6.518579 0.408569 27
-1.575246 6.521238 0.408139 26
-1.555667 6.523829 0.407708 25
-1.535762 6.530319 0.406880 22
-1.517077 6.520867 0.407636 25
-1.497458 6.523252 0.407203 26
-1.478783 6.525651 0.406772 27
-1.459121 6.527899 0.406338 26
-1.439437 6.530077 0.405903 26
-1.420118 6.528224 0.405864 25
-1.400406 6.530264 0.405429 26
-1.380673 6.532233 0.404992 26
-1.360920 6.534132 0.404555 28
-1.342029 6.528049 0.404911 28
-1.322263 6.529810 0.404473 28
-1.302476 6.531500 0.404034 26
-1.282188 6.537071 0.403198 26
-1.262846 6.534669 0.403155 27
-1.243459 6.540220 0.402320 26
-1.225597 6.533865 0.402674 28
-1.205193 6.539154 0.401836 31
-1.185428 6.532405 0.402185 30
-1.165941 6.537684 0.401347 32
-1.144864 6.546691 0.400110 31
-1.125113 6.539728 0.400458 30
-1.105157 6.540711 0.400013 30
-1.084914 6.549639 0.398776 28
-1.066162 6.542619 0.399124 31
-1.044217 6.555172 0.397487 26
-1.024813 6.551939 0.397436 21
-1.003103 6.556318 0.396589 25
-0.982319 6.560782 0.395743 26
-0.962195 6.561251 0.395294 26
-0.943026 6.561825 0.394847 28
-0.923844 6.562333 0.394399 31
-0.902703 6.562406 0.393946 26
-0.883491 6.562775 0.393497 26
-0.860783 6.570505 0.392247 29
-0.841517 6.570730 0.391797 30
-0.818521 6.574191 0.390941 30
-0.799053 6.570169 0.390884 28
-0.777126 6.577763 0.389634 30
-0.758483 6.569706 0.389974 30
-0.737450 6.577354 0.388726 30
-0.718945 6.573267 0.388670 25
-0.697726 6.576663 0.387815 26
-0.675493 6.579755 0.386956 27
-0.656076 6.579339 0.386501 28
-0.635730 6.582728 0.385647 26
-0.614328 6.581704 0.385184 25
-0.591969 6.584464 0.384322 25
-0.571525 6.587621 0.383466 27
-0.552015 6.586843 0.383008 25
-0.531520 6.585749 0.382545 26
-0.512013 6.580726 0.382480 25
-0.489526 6.583078 0.381615 25
-0.468953 6.585861 0.380756 26
-0.446332 6.592146 0.379495 25
-0.426803 6.586826 0.379427 26
-0.408358 6.577603 0.379758 25
-0.384466 6.591582 0.377701 25
-0.364940 6.586046 0.377632 25
-0.340038 6.595455 0.375965 25
-0.318262 6.597403 0.375097 26
-0.299693 6.591926 0.375030 29
-0.277877 6.593718 0.374161 26
-0.252735 6.602744 0.372491 25
-0.230828 6.604356 0.371620 25
-0.209868 6.606188 0.370753 25
-0.186700 6.611430 0.369483 25
-0.167106 6.605203 0.369408 25
-0.143862 6.610270 0.368136 26
-0.121542 6.615564 0.366866 25
-0.101934 6.609110 0.366790 25
-0.078843 6.609808 0.365910 26
-0.057979 6.606975 0.365433 25
-0.034533 6.611595 0.364157 26
-0.010710 6.620221 0.362485 26
0.010229 6.617136 0.362006 26
0.031170 6.613975 0.361526 25
0.053814 6.618580 0.360251 30
0.076139 6.619000 0.359370 30
0.098491 6.619331 0.358489 30
0.123233 6.622945 0.357203 29
0.143277 6.619732 0.356724 28
0.161917 6.612724 0.356644 32
0.189587 6.623499 0.354556 31
0.209670 6.620052 0.354075 33
0.236051 6.626893 0.352385 34
0.257628 6.626985 0.351503 30
0.282179 6.625822 0.350606 28
0.306272 6.629037 0.349318 33
0.330928 6.636240 0.347634 33
0.351130 6.632293 0.347148 33
0.374819 6.631137 0.346253 33
0.400618 6.637639 0.344561 34
0.424942 6.640362 0.343268 35
0.447753 6.639323 0.342375 33
0.471174 6.642273 0.341086 32
0.492456 6.637401 0.340591 32
0.517915 6.639306 0.339291 32
0.544047 6.645176 0.337593 30
0.568625 6.647299 0.336295 30
0.592262 6.649765 0.335001 30
0.613633 6.644441 0.334503 30
0.639982 6.649887 0.332802 31
0.663052 6.647995 0.331902 30
0.689514 6.653222 0.330199 32
0.714344 6.654734 0.328895 31
0.736519 6.653018 0.327998 31
0.763145 6.657918 0.326292 28
0.791574 6.666282 0.324183 32
0.821086 6.674030 0.322069 29
0.843424 6.671913 0.321167 32
0.854354 6.644276 0.323069 52
0.888342 6.662868 0.319753 34
0.917098 6.670640 0.317640 29
0.942323 6.671193 0.316328 27
0.969408 6.675176 0.314614 26
0.991896 6.672492 0.313708 28
1.017235 6.672727 0.312394 27
1.044471 6.676372 0.310677 27
1.071769 6.679897 0.308959 28
1.099127 6.683300 0.307240 28
1.123746 6.679044 0.306318 26
1.152117 6.686247 0.304200 26
1.179643 6.689290 0.302478 27
1.203364 6.685252 0.301559 28
1.238761 6.701951 0.298225 30
1.260617 6.694213 0.297707 26
1.290333 6.700227 0.295578 25
1.314187 6.695748 0.294655 25
1.342035 6.698061 0.292927 26
1.368944 6.700830 0.291203 26
1.389860 6.693189 0.290686 30
1.415810 6.691732 0.289357 34
1.447909 6.700415 0.286819 26
1.479055 6.704933 0.284676 25
1.507218 6.706502 0.282941 26
1.533358 6.704548 0.281608 25
1.560617 6.706484 0.279877 25
1.591023 6.711064 0.277735 26
1.619394 6.712127 0.275995 26
1.652059 6.719794 0.273448 17
1.672017 6.707148 0.273320 17
1.699517 6.708478 0.271583 17
1.732376 6.715734 0.269032 17
1.765330 6.722829 0.266480 17
1.792838 6.719121 0.265131 17
1.818371 6.716607 0.263794 16
1.844717 6.708681 0.262840 13
1.868071 6.702642 0.261905 13
1.886974 6.689914 0.261777 9
1.902351 6.669867 0.262451 8
1.901891 6.626801 0.265954 9
1.908936 6.592958 0.268238 9
1.928450 6.579416 0.268103 12
1.952484 6.572324 0.267159 12
1.969630 6.555380 0.267427 15
1.992657 6.548802 0.266488 15
2.024950 6.555075 0.263930 15
2.053644 6.554038 0.262173 16
2.083348 6.552163 0.260407 16
2.116825 6.557276 0.257838 16
2.139968 6.550130 0.256894 16
2.166449 6.545366 0.255538 16
2.207251 6.559602 0.251749 24
2.231436 6.551375 0.250795 21
2.260427 6.549386 0.249030 25
2.287038 6.544101 0.247669 22
2.320948 6.548155 0.245090 25
2.354938 6.552041 0.242510 28
2.392935 6.562788 0.239125 27
2.422182 6.560067 0.237353 25
2.457377 6.562675 0.234761 25
2.489195 6.562768 0.232581 26
2.523561 6.565808 0.229993 24
2.552021 6.563279 0.228224 21
2.589029 6.569081 0.225228 23
2.616030 6.562391 0.223855 24
2.655721 6.570912 0.220449 25
2.692980 6.576167 0.217448 24
2.731305 6.580410 0.214437 23
2.766180 6.582233 0.211839 26
2.794992 6.578650 0.210060 23
2.827395 6.577124 0.207866 23
2.862445 6.578453 0.205264 24
2.898536 6.578755 0.202652 24
2.937986 6.586566 0.199241 26
2.967994 6.581373 0.197448 22
3.011232 6.590919 0.193618 20
3.051944 6.597264 0.190193 21
3.087437 6.597477 0.187581 19
3.122992 6.597511 0.184967 21
3.157631 6.598258 0.182360 18
3.192330 6.598836 0.179752 21
3.233471 6.604183 0.176319 25
3.274712 6.609310 0.172883 21
3.313329 6.611315 0.169854 21
3.353003 6.612191 0.166814 18
3.388051 6.611837 0.164197 19
3.426887 6.613245 0.161163 20
3.465798 6.614451 0.158126 21
3.507555 6.618308 0.154680 21
3.549405 6.621941 0.151231 21
3.585761 6.619680 0.148598 19
3.632394 6.629510 0.144337 18
3.671703 6.629661 0.141292 19
3.713902 6.632412 0.137836 18
3.750526 6.629345 0.135195 18
3.796705 6.633443 0.131317 20
3.841020 6.639305 0.127455 20
3.889282 6.646679 0.123173 18
3.929057 6.645516 0.120116 17
3.968894 6.644145 0.117057 17
4.011683 6.645300 0.113587 18
4.051652 6.643499 0.110524 15
4.103313 6.652350 0.105821 15
4.152192 6.658204 0.101526 15
4.192403 6.655699 0.098457 15
4.232672 6.652981 0.095387 16
4.281833 6.658076 0.091085 17
4.331104 6.662897 0.086780 18
4.377520 6.664787 0.082883 16
4.415105 6.658491 0.080215 12
4.452723 6.652001 0.077546 9
4.472422 6.629579 0.077338 7
4.488063 6.605602 0.077550 7
4.519638 6.593467 0.075698 6
4.533095 6.565628 0.076310 6
4.552492 6.542925 0.076100 5
4.574847 6.522727 0.075479 4
4.584957 6.492198 0.076501 5
4.601043 6.466766 0.076702 6
4.604777 6.431132 0.078547 6
4.629849 6.413238 0.077512 5
4.648714 6.390199 0.077300 4
4.667498 6.367094 0.077088 3
4.698595 6.353908 0.075228 3
4.707930 6.323174 0.076250 2
4.717133 6.292440 0.077272 3
4.729326 6.264171 0.077882 2
4.753936 6.245691 0.076843 3
4.759649 6.212453 0.078277 2
4.784111 6.193824 0.077238 2
4.799051 6.167829 0.077435 2
4.809827 6.140565 0.078055 2
4.827738 6.116900 0.077839 2
4.845567 6.093172 0.077622 1
4.840973 6.052752 0.080295 2
4.829781 6.007697 0.083795 3
4.888324 5.940974 0.082319 41
4.899074 5.912397 0.082928 53
4.912949 5.886113 0.083124 71
4.939717 5.868980 0.081666 65
5.010343 5.774410 0.080375 0
5.023687 5.747807 0.080569 0
5.033635 5.718941 0.081177 0
5.056681 5.698931 0.080128 0
5.063116 5.667790 0.081150 0
5.086014 5.647631 0.080100 0
5.098070 5.622055 0.080303 0
5.103367 5.592105 0.081337 0
5.123501 5.568343 0.080689 0
5.079136 5.504923 0.087934 0
5.151884 5.516637 0.080658 0
5.170194 5.495151 0.080031 0
5.182480 5.468118 0.080223 0
5.143994 5.409532 0.086644 0
5.210132 5.416050 0.080190 0
5.161813 5.350269 0.087849 0
5.183765 5.329511 0.086795 0
5.195436 5.302492 0.086988 0
5.200177 5.271360 0.088012 0
5.218474 5.248367 0.087373 0
5.226412 5.219245 0.087981 0
5.226632 5.187363 0.089433 0
5.254255 5.171485 0.087555 0
5.254986 5.138343 0.088996 0
5.281203 5.116515 0.087500 0
5.295537 5.091210 0.087274 0
5.299374 5.060019 0.088299 0
5.313511 5.034652 0.088074 0
5.320592 5.005393 0.088682 0
5.338029 4.981861 0.088039 0
5.337216 4.950045 0.089493 0
5.343278 4.922050 0.090112 0
5.354105 4.893380 0.090292 0
5.371176 4.869683 0.089649 0
5.373411 4.839801 0.090686 0
5.386779 4.814177 0.090460 0
5.400057 4.788505 0.090233 0
5.406820 4.757878 0.090830 0
5.426346 4.737025 0.089778 0
5.425139 4.704067 0.091223 0
5.438033 4.678262 0.090996 0
5.451475 4.651119 0.090757 0
5.456406 4.623019 0.091377 0
5.471967 4.600141 0.090742 0
5.470784 4.565974 0.092177 0
5.486787 4.541724 0.091530 0
5.502096 4.518708 0.090894 0
5.507138 4.489260 0.091503 0
5.523495 4.463540 0.090843 0
5.528321 4.434070 0.091453 0
5.536653 4.406257 0.091643 0
5.563009 4.386613 0.089736 0
5.571163 4.358705 0.089925 0
5.509537 4.301466 0.098099 0
5.582942 4.302561 0.090735 0
5.518398 4.241580 0.099311 0
5.609487 4.251390 0.089855 0
5.565919 4.201525 0.095925 0
5.621028 4.193814 0.090654 0
5.547195 4.133319 0.100101 0
5.569120 4.111663 0.098611 0
5.572586 4.082338 0.099223 0
5.590680 4.059019 0.098153 0
5.601321 4.032640 0.097924 0
5.597613 3.999018 0.099366 0
5.615448 3.975533 0.098295 0
5.622092 3.947623 0.098486 0
5.639255 3.925328 0.097425 0
5.660577 3.903042 0.095931 0
5.637189 3.863755 0.099493 0
5.662051 3.842792 0.097577 0
5.653286 3.809260 0.099455 0
5.670526 3.785401 0.098381 0
5.672733 3.756035 0.098995 0
5.700561 3.737421 0.096666 0
5.698833 3.706672 0.097701 0
5.711998 3.681235 0.097048 0
5.706751 3.647883 0.098494 0
5.708431 3.618523 0.099108 0
5.728837 3.595566 0.097610 0
5.737411 3.570052 0.097390 0
5.746345 3.543164 0.097158 0
5.728724 3.507582 0.099887 0
5.782417 3.496771 0.094592 0
5.783518 3.467303 0.095205 0
5.762177 3.429317 0.098347 0
5.774417 3.403529 0.097692 0
5.778968 3.375342 0.097884 0
5.779613 3.345994 0.098499 0
5.768314 3.314585 0.100397 0
5.791208 3.293474 0.098483 0
5.791543 3.264161 0.099099 0
5.804011 3.235482 0.098420 0
5.804128 3.206181 0.099036 0
5.811410 3.180420 0.098816 0
5.826272 3.156767 0.097747 0
5.822628 3.125054 0.098776 0
5.849205 3.103067 0.096421 0
5.852665 3.074766 0.096613 0
5.848330 3.044444 0.097655 0
5.843527 3.015538 0.098709 0
5.865938 2.992227 0.096777 0
5.865141 2.962950 0.097394 0
5.868095 2.934662 0.097587 0
5.851964 2.900286 0.099895 0
5.885626 2.879522 0.096685 0
5.880216 2.850736 0.097741 0
5.890193 2.825630 0.097094 0
5.908155 2.800890 0.095584 0
5.898887 2.769897 0.097055 0
5.905332 2.741078 0.096811 0
5.899716 2.711057 0.097856 0
5.897874 2.681934 0.098476 0
5.915091 2.658338 0.096977 0
5.913054 2.629214 0.097597 0
5.903117 2.598531 0.099071 0
5.916458 2.572638 0.097986 0
5.925811 2.545902 0.097326 0
5.935074 2.519119 0.096667 0
5.924710 2.488578 0.098143 0
5.937687 2.462501 0.097056 0
5.911206 2.430573 0.100254 0
5.955308 2.410109 0.095748 0
5.913428 2.372830 0.100634 0
5.953458 2.351404 0.096554 0
5.961827 2.325813 0.095905 0
5.958569 2.296855 0.096529 0
5.916163 2.260222 0.101421 0
5.928382 2.233958 0.100334 0
5.916929 2.203989 0.101815 0
5.928959 2.177667 0.100728 0
5.905288 2.147444 0.103508 0
5.932876 2.123371 0.100706 0
5.921005 2.093604 0.102190 0
5.920844 2.065547 0.102389 0
5.940113 2.041504 0.100454 0
5.939589 2.014786 0.100664 0
5.947039 1.987700 0.100004 0
5.934659 1.958154 0.101491 0
5.957874 1.931558 0.099102 0
5.953028 1.904380 0.099742 0
5.932434 1.874094 0.102089 0
5.966194 1.820491 0.098609 0
5.953054 1.792594 0.100110 0
5.949193 1.707218 0.100700 0
5.944085 1.626154 0.101326 0
5.275163 1.166991 0.172919 0
5.144492 1.140221 0.186996 0
5.025673 1.113313 0.199773 0
4.958461 1.086760 0.206920 0
4.914985 1.063349 0.211493 0
4.911201 1.039319 0.211729 0
4.915289 1.014146 0.211089 0
4.923206 0.967317 0.209839 0
4.930789 0.919177 0.208578 0
4.930084 0.871068 0.208184 0
-11.183816 1.025420 -0.021906 1
-11.187652 1.056030 -0.022079 1
-11.195364 1.086708 -0.022675 1
-11.206886 1.122334 -0.023654 1
-11.194466 1.154393 -0.022121 1
-11.205827 1.185262 -0.023139 1
-11.205155 1.215916 -0.022888 1
-11.200318 1.249682 -0.022189 1
-11.219262 1.282558 -0.024038 1
-11.218267 1.313256 -0.023787 1
-11.225060 1.345872 -0.024368 1
-11.239620 1.380491 -0.025780 1
-11.230354 1.410895 -0.024685 1
-11.240775 1.443830 -0.025687 1
-11.250997 1.478464 -0.026676 1
-11.249352 1.509266 -0.026425 1
-11.247511 1.541684 -0.026162 1
-11.253497 1.574594 -0.026741 1
-11.267304 1.608080 -0.028163 1
-11.265230 1.638935 -0.027913 1
-11.255003 1.670826 -0.026807 1
-11.268339 1.706105 -0.028215 1
-11.353170 1.743965 -0.037225 1
-11.342583 1.776079 -0.036118 1
-11.347735 1.809512 -0.036694 1
-11.352622 1.844630 -0.037257 1
-11.341689 1.876657 -0.036151 1
-11.346642 1.908533 -0.036740 1
-11.335657 1.938849 -0.035648 1
-11.360010 1.974465 -0.038325 1
-11.360324 2.009335 -0.038467 1
-11.352965 2.040055 -0.037795 1
-11.353224 2.073286 -0.037951 1
-11.353364 2.106532 -0.038106 1
-11.369180 2.141726 -0.039940 1
-11.357238 2.173563 -0.038837 1
-11.360968 2.207375 -0.039412 1
-11.356690 2.240178 -0.039148 1
-11.360180 2.274042 -0.039723 1
-11.347791 2.305737 -0.038621 1
-11.354982 2.340191 -0.039615 1
-11.350241 2.372972 -0.039352 1
-11.361364 2.406469 -0.040777 1
-11.336985 2.434604 -0.038434 1
-11.363350 2.472277 -0.041520 1
-11.350030 2.505459 -0.040407 1
-11.352831 2.537877 -0.040995 1
-11.347400 2.570650 -0.040733 1
-11.345774 2.604077 -0.040889 1
-11.324439 2.634073 -0.038955 1
-11.334043 2.671188 -0.040352 1
-11.328146 2.703893 -0.040091 1
-11.310403 2.734390 -0.038578 1
-11.410117 2.785431 -0.049604 1
-11.333836 2.803155 -0.041841 1
-11.397087 2.852997 -0.049066 1
-11.328154 2.873376 -0.042128 1
-11.388142 2.917976 -0.048972 1
-11.385619 2.950035 -0.049141 1
-11.386187 2.986211 -0.049700 1
-11.367523 3.016584 -0.048188 1
-11.368193 3.051107 -0.048761 1
-11.364853 3.084795 -0.048917 1
-11.365644 3.117721 -0.049503 1
-11.354311 3.149644 -0.048827 1
-11.373862 3.188751 -0.051481 1
-11.347192 3.215363 -0.049153 1
-11.339003 3.249748 -0.048881 1
-11.350409 3.287195 -0.050702 1
-11.334641 3.318036 -0.049611 1
-11.330754 3.350077 -0.049782 1
-11.318633 3.381783 -0.049108 1
-11.321810 3.417426 -0.050097 1
-11.309462 3.449073 -0.049424 1
-11.311948 3.486396 -0.050400 1
-11.314726 3.522138 -0.051388 1
-11.302023 3.553719 -0.050717 1
-11.296880 3.587374 -0.050875 1
-11.292072 3.619395 -0.051047 1
-11.301994 3.657411 -0.052865 1
-11.285012 3.687787 -0.051780 1
-11.279386 3.721435 -0.051939 1
-11.273637 3.755076 -0.052098 1
-11.263958 3.787564 -0.051844 1
-11.266076 3.821872 -0.052845 1
-11.248559 3.851990 -0.051762 1
-11.241836 3.887195 -0.051910 1
-11.239793 3.920350 -0.052497 1
-11.240906 3.956353 -0.053486 1
-11.230002 3.990343 -0.053220 1
-11.295652 4.045815 -0.061253 1
-11.288735 4.079630 -0.061413 1
-11.274151 4.110905 -0.060746 1
-11.263229 4.143393 -0.060492 1
-11.263486 4.179714 -0.061479 1
-11.256083 4.213468 -0.061640 1
-11.237296 4.243259 -0.060562 1
-11.230235 4.275330 -0.060736 1
-11.237467 4.314373 -0.062548 1
-11.225251 4.348349 -0.062285 1
-11.213502 4.380665 -0.062034 1
-11.191042 4.407183 -0.060559 1
-11.179688 4.437771 -0.060322 1
-11.189957 4.478366 -0.062546 1
-11.174036 4.509139 -0.061885 1
-11.151208 4.535374 -0.060413 1
-11.149927 4.571764 -0.061401 1
-11.080063 4.693815 -0.058343 57
-11.067108 4.725622 -0.058098 67
-11.054043 4.757383 -0.057853 96
-11.034186 4.784445 -0.056799 95
-11.024581 4.817639 -0.056967 36
-11.038826 4.936126 -0.062403 2
-11.017739 4.964591 -0.061339 3
-11.000899 4.992989 -0.060698 3
-10.990533 5.026142 -0.060867 3
-10.976419 5.057634 -0.060626 6
-10.975965 5.097246 -0.062015 3
-10.969554 5.130439 -0.062607 3
-10.944247 5.156836 -0.061137 3
-10.922470 5.184792 -0.060077 3
-10.904204 5.214347 -0.059429 3
-10.899467 5.252232 -0.060409 3
-10.888898 5.283572 -0.060593 5
-10.870306 5.312972 -0.059946 8
-10.865913 5.349291 -0.060939 8
-10.854239 5.382108 -0.061112 10
-10.838884 5.413123 -0.060877 10
-10.823421 5.444083 -0.060642 10
-10.808629 5.473446 -0.060419 10
-10.792955 5.504301 -0.060185 10
-10.773637 5.533278 -0.059542 10
-10.754223 5.562174 -0.058901 10
-10.720619 5.583600 -0.056624 12
-10.690491 5.606706 -0.054757 21
-10.618176 5.607191 -0.047987 20
-10.552973 5.610996 -0.042038 21
-10.498343 5.620092 -0.037318 22
-10.436771 5.625047 -0.031783 22
-10.378755 5.631548 -0.026660 20
-10.318127 5.634310 -0.021142 21
-10.258384 5.635273 -0.015638 22
-8.984431 5.936171 0.207580 20
-8.938758 5.938689 0.210891 18
-8.901144 5.950329 0.213171 24
-8.851470 5.951242 0.216836 18
-8.799513 5.948337 0.220838 19
-8.755575 5.954563 0.223810 21
-8.709342 5.956993 0.227119 19
-8.675979 5.968653 0.229033 19
-8.637099 5.974207 0.231634 19
-8.591018 5.975928 0.234937 19
-8.548182 5.979793 0.237891 18
-8.502233 5.981003 0.241191 19
-8.462673 5.986810 0.243793 19
-8.413701 5.985084 0.247437 21
-8.380533 5.995327 0.249339 19
-8.341104 6.000478 0.251936 18
-8.305717 6.006780 0.254175 19
-8.263249 6.009038 0.257116 19
-8.211516 6.003583 0.261098 18
-8.166099 6.002835 0.264382 18
-8.133127 6.011891 0.266275 15
-8.097086 6.018252 0.268514 16
-8.064150 6.026959 0.270404 17
-8.012838 6.020216 0.274376 17
-7.973872 6.023406 0.276957 16
-7.934958 6.026386 0.279536 16
-7.903050 6.033277 0.281413 17
-7.863345 6.036896 0.283997 16
-7.821553 6.036667 0.286918 14
-7.789748 6.043024 0.288790 17
-7.757083 6.050237 0.290668 17
-7.721447 6.054652 0.292892 17
-7.682866 6.056239 0.295460 17
-7.638395 6.052315 0.298720 16
-7.605883 6.058791 0.300592 17
-7.573395 6.065102 0.302463 16
-7.540932 6.071248 0.304333 16
-7.505557 6.074536 0.306547 17
-7.471114 6.076677 0.308754 16
-7.435830 6.079602 0.310965 17
-7.397684 6.079620 0.313521 15
-7.365405 6.084900 0.315384 15
-7.327374 6.084530 0.317937 16
-7.283650 6.078450 0.321180 15
-7.258150 6.087784 0.322341 14
-7.229784 6.094232 0.323846 15
-7.197690 6.098680 0.325702 15
-7.164737 6.103874 0.327564 14
-7.126153 6.103290 0.330114 16
-7.095070 6.106326 0.331960 17
-7.054693 6.101636 0.334846 15
-7.022821 6.105224 0.336696 16
-6.994672 6.110615 0.338193 16
-6.960974 6.110174 0.340379 14
-6.926442 6.110433 0.342570 15
-6.902133 6.122857 0.343385 15
-6.864031 6.120767 0.345924 14
-6.838775 6.128328 0.347071 15
-6.798956 6.122128 0.349945 15
-6.770136 6.127348 0.351440 16
-6.738624 6.129512 0.353278 15
-6.705348 6.127762 0.355454 15
-6.676628 6.132544 0.356945 15
-6.641669 6.132113 0.359130 16
-6.615692 6.139553 0.360275 16
-6.588853 6.142292 0.361751 16
-6.564652 6.153272 0.362556 13
-6.533408 6.154393 0.364386 13
-6.500481 6.151575 0.366553 14
-6.471967 6.155384 0.368036 14
-6.440870 6.156046 0.369863 16
-6.415026 6.162594 0.371000 17
-6.377928 6.157681 0.373517 16
-6.346985 6.157877 0.375340 15
-6.322133 6.163254 0.376469 15
-6.296391 6.169279 0.377602 14
-6.268112 6.172123 0.379078 16
-6.242403 6.177907 0.380210 16
-6.210032 6.173585 0.382366 17
-6.188507 6.186033 0.382813 16
-6.150323 6.175961 0.385658 17
-6.130624 6.186717 0.386094 18
-6.100059 6.185657 0.387907 19
-6.067078 6.181321 0.390062 16
-6.039102 6.183087 0.391529 17
-6.013615 6.187863 0.392653 16
-5.988143 6.192525 0.393775 15
-5.960260 6.193913 0.395240 15
-5.929998 6.192001 0.397046 15
-5.904613 6.196295 0.398166 16
-5.879245 6.200475 0.399284 16
-5.854805 6.203862 0.400398 20
-5.829477 6.207819 0.401514 18
-5.797989 6.201366 0.403654 18
-5.775087 6.208294 0.404426 22
-5.747501 6.208675 0.405883 22
-5.724619 6.215394 0.406653 20
-5.692463 6.209051 0.408793 17
-5.665010 6.209046 0.410246 18
-5.639900 6.212171 0.411357 18
-5.614812 6.215185 0.412466 18
-5.589748 6.218087 0.413575 19
-5.566970 6.224159 0.414340 18
-5.538781 6.224182 0.415793 16
-5.515617 6.225506 0.416891 19
-5.492881 6.231273 0.417654 17
-5.465717 6.230321 0.419100 18
-5.445215 6.239203 0.419520 18
-5.415922 6.234695 0.421306 20
-5.393248 6.240053 0.422066 22
-5.366238 6.238630 0.423509 22
-5.345755 6.247135 0.423925 21
-5.320961 6.248844 0.425024 21
-5.289792 6.240348 0.427147 22
-5.266008 6.241241 0.428241 20
-5.243451 6.245986 0.428996 21
-5.216701 6.243863 0.430433 22
-5.196269 6.251801 0.430845 21
-5.167518 6.246054 0.432621 18
-5.145039 6.250397 0.433373 18
-5.122568 6.254647 0.434124 19
-5.100107 6.258805 0.434874 21
-5.077655 6.262870 0.435624 19
-5.051180 6.259967 0.437055 21
-5.030777 6.267278 0.437462 20
-5.008368 6.271059 0.438209 24
-4.987950 6.278207 0.438614 24
-4.963583 6.278345 0.439701 24
-4.937296 6.274905 0.441128 21
-4.916902 6.281784 0.441531 21
-4.891622 6.277616 0.442953 24
-4.871242 6.284322 0.443355 24
-4.847034 6.283952 0.444438 25
-4.817177 6.272962 0.446542 26
-4.798734 6.282900 0.446601 26
-4.778385 6.289256 0.447000 25
-4.750590 6.281433 0.448761 26
-4.730270 6.287607 0.449159 24
-4.706274 6.286628 0.450237 24
-4.684139 6.289091 0.450973 21
-4.662021 6.291463 0.451709 21
-4.645311 6.304417 0.451423 21
-4.620545 6.299038 0.452836 23
-4.595767 6.298042 0.453913 21
-4.578165 6.306751 0.453963 21
-4.556108 6.308692 0.454696 21
-4.535807 6.314132 0.455087 18
-4.517221 6.323088 0.455138 20
-4.490052 6.313981 0.456889 24
-4.464674 6.308355 0.458299 26
-4.444424 6.313452 0.458688 27
-4.424169 6.318471 0.459076 27
-4.405569 6.327038 0.459124 27
-4.377054 6.313766 0.461211 28
-4.356836 6.318533 0.461597 26
-4.338236 6.326865 0.461642 24
-4.317319 6.327428 0.462365 27
-4.293896 6.324668 0.463429 28
-4.273036 6.325063 0.464151 28
-4.252841 6.329440 0.464534 27
-4.229525 6.326406 0.465596 30
-4.208420 6.331012 0.465979 30
-4.188244 6.335147 0.466360 31
-4.165025 6.331838 0.467420 30
-4.144872 6.335811 0.467800 38
-4.122660 6.331942 0.468856 51
-4.105497 6.343155 0.468556 32
-4.083873 6.343200 0.469273 34
-4.062275 6.343159 0.469990 34
-4.042147 6.346748 0.470367 37
-4.023450 6.353981 0.470403 36
-4.003311 6.357424 0.470779 33
-3.983172 6.360792 0.471153 36
-3.958859 6.352880 0.472546 34
-3.940141 6.359823 0.472580 38
-3.920034 6.362956 0.472953 41
-3.900866 6.365675 0.473324 37
-3.880764 6.368661 0.473695 41
-3.858010 6.364057 0.474745 41
-3.836626 6.363122 0.475455 39
-3.819174 6.373405 0.475146 41
-3.796522 6.368544 0.476194 38
-3.773926 6.363591 0.477241 40
-3.754848 6.365794 0.477608 35
-3.733900 6.368549 0.477977 38
-3.713894 6.370916 0.478343 39
-3.696054 6.376701 0.478369 41
-3.676046 6.378928 0.478735 38
-3.654847 6.377279 0.479439 37
-3.633680 6.375548 0.480142 41
-3.614885 6.381356 0.480167 41
-3.593758 6.379469 0.480869 36
-3.574949 6.385137 0.480893 42
-3.552732 6.379272 0.481933 41
-3.534866 6.384522 0.481954 37
-3.514937 6.386155 0.482315 39
-3.495015 6.387714 0.482675 36
-3.477255 6.396874 0.482357 41
-3.454133 6.386771 0.483733 39
-3.434250 6.388106 0.484091 39
-3.415413 6.393218 0.484110 38
-3.396557 6.398263 0.484129 36
-3.377684 6.403242 0.484146 35
-3.354809 6.392719 0.485519 36
-3.337883 6.401175 0.485196 40
-3.316117 6.398455 0.485891 34
-3.298187 6.402920 0.485905 42
-3.279299 6.407556 0.485920 41
-3.258535 6.404375 0.486613 38
-3.239642 6.408873 0.486626 39
-3.219831 6.409422 0.486978 36
-3.200976 6.409683 0.487329 39
-3.181994 6.418081 0.487003 35
-3.162191 6.418420 0.487354 36
-3.143249 6.422581 0.487365 37
-3.124406 6.422576 0.487713 36
-3.104628 6.422705 0.488062 38
-3.084863 6.422762 0.488410 44
-3.065112 6.422748 0.488758 42
-3.046156 6.426570 0.488766 40
-3.027367 6.426229 0.489112 39
-3.009153 6.433834 0.488780 36
-2.988677 6.429628 0.489464 39
-2.968748 6.433360 0.489471 42
-2.950468 6.440767 0.489137 39
-2.931001 6.436172 0.489819 36
-2.911999 6.439526 0.489824 39
-2.892312 6.438886 0.490166 46
-2.873301 6.442105 0.490169 41
