# .PCD v.7 - Point Cloud Data file format
VERSION .7
FIELDS x y z intensity
SIZE 4 4 4 1
TYPE F F F U
COUNT 1 1 1 1
WIDTH 1543
HEIGHT 1
VIEWPOINT 0 0 0 1 0 0 0
POINTS 1543
DATA ascii
-9.047956 4.457431 0.813505 50
-9.039400 4.483920 0.813619 49
-9.034326 4.512174 0.813658 55
-9.032715 4.542230 0.813624 62
-9.023844 4.568703 0.813737 57
-9.025558 4.600616 0.813629 23
-9.034246 4.636250 0.813373 31
-9.035674 4.668299 0.813266 34
-9.033422 4.698545 0.813232 32
-9.035233 4.729455 0.813115 32
-9.043317 4.765414 0.812862 31
-9.043527 4.798925 0.812765 33
-8.509139 4.213373 0.867037 33
-8.501433 4.237991 0.867159 29
-8.496639 4.265528 0.867240 27
-8.489890 4.287849 0.867345 27
-8.485469 4.314252 0.867416 26
-8.473245 4.338146 0.867598 31
-8.462109 4.359725 0.867761 37
-8.449718 4.383533 0.867941 49
-8.438432 4.405034 0.868104 56
-8.422343 4.426876 0.868333 59
-8.421489 4.453955 0.868345 34
-8.422825 4.485224 0.868324 14
-8.428761 4.516207 0.868236 15
-8.426931 4.544544 0.868257 19
-8.414487 4.567095 0.868426 25
-8.413068 4.594329 0.868439 27
-8.410906 4.622719 0.868460 27
-8.415580 4.655087 0.868382 27
-8.416636 4.685546 0.868354 26
-8.413443 4.715183 0.868383 26
-8.421801 4.748628 0.868249 24
-8.432796 4.785322 0.868075 23
-8.440172 4.820102 0.867950 20
-8.454255 4.859075 0.867729 17
-8.457857 4.892015 0.867654 16
-8.471575 4.931240 0.867434 16
-8.481682 4.968526 0.867264 16
-8.505237 5.014309 0.866900 17
-8.518352 5.053985 0.866683 15
-8.527876 5.091682 0.866515 14
-8.547373 5.135887 0.866204 12
-8.563263 5.178135 0.865941 12
-8.583784 5.220387 0.865615 18
-8.592524 5.258634 0.865451 15
-8.621211 5.310050 0.865000 8
-8.649620 5.361720 0.864551 4
-8.701133 5.429038 0.863770 2
-8.762255 5.503402 0.862849 4
-16.706671 10.848949 0.749276 20
-16.585926 10.842262 0.750889 26
-16.485264 10.848331 0.752212 20
-16.391340 10.858333 0.753436 24
-16.289368 10.858491 0.754778 22
-16.185829 10.860565 0.756135 20
-16.079008 10.866966 0.757523 22
-15.979241 10.862908 0.758834 18
-15.892506 10.874752 0.759942 22
-15.786335 10.872155 0.761327 22
-15.699828 10.882962 0.762427 22
-15.593989 10.879195 0.763803 26
-15.498033 10.881889 0.765034 24
-15.421552 10.898261 0.765982 35
-15.319419 10.895162 0.767298 21
-15.230290 10.901044 0.768424 19
-15.136621 10.899317 0.769622 22
-15.044569 10.901776 0.770786 26
-14.959021 10.908567 0.771855 26
-14.873585 10.914882 0.772919 24
-14.775612 10.910928 0.774163 24
-14.690442 10.916249 0.775220 24
-14.605392 10.921098 0.776273 26
-14.517327 10.922992 0.777367 26
-14.432531 10.926885 0.778413 19
-14.355837 10.933151 0.779348 19
-14.255723 10.923573 0.780613 21
-14.177546 10.931088 0.781556 21
-14.105653 10.943251 0.782406 26
-14.018400 10.942302 0.783478 26
-13.934380 10.943423 0.784502 22
-13.856631 10.949214 0.785432 24
-13.772874 10.949428 0.786448 26
-13.692309 10.951767 0.787416 22
-13.621430 10.954795 0.788262 21
-13.534596 10.957735 0.789297 26
-13.454413 10.958766 0.790255 26
-13.377377 10.961990 0.791164 24
-13.303462 10.967441 0.792026 22
-13.230137 10.965911 0.792902 27
-13.151710 10.969881 0.793816 27
-13.078124 10.974143 0.794668 24
-13.004645 10.978014 0.795518 27
-12.925361 10.976107 0.796453 25
-12.850916 10.974572 0.797326 25
-12.787808 10.989997 0.798004 25
-12.708909 10.986871 0.798929 25
-12.630163 10.983316 0.799851 25
-12.563213 10.990312 0.800595 24
-12.499246 10.999716 0.801292 22
-12.426669 11.000503 0.802117 24
-12.345573 10.992581 0.803070 24
-12.276147 10.995355 0.803846 25
-12.218906 11.002569 0.804463 24
-12.146814 11.001869 0.805277 25
-12.075949 11.005367 0.806057 25
-12.001277 11.001080 0.806908 25
-11.943695 11.013396 0.807497 25
-11.881210 11.013440 0.808189 25
-11.815326 11.016631 0.808902 25
-11.746746 11.016622 0.809656 25
-11.676537 11.017953 0.810419 22
-11.610973 11.020103 0.811125 23
-11.542749 11.019025 0.811870 23
-11.477406 11.020496 0.812570 24
-11.419405 11.025805 0.813171 23
-11.355236 11.031199 0.813835 17
-11.292909 11.034630 0.814485 22
-11.227959 11.034809 0.815176 23
-11.164875 11.033051 0.815852 23
-11.102845 11.035538 0.816495 23
-11.039982 11.033163 0.817166 23
-10.979073 11.039583 0.817773 24
-10.916424 11.036592 0.818440 23
-10.853040 11.039397 0.819083 26
-10.796790 11.046340 0.819630 26
-10.734467 11.042440 0.820290 24
-10.678370 11.048826 0.820832 26
-10.617120 11.048881 0.821456 24
-10.553376 11.045588 0.822119 24
-10.492350 11.045025 0.822738 34
-10.439163 11.053334 0.823230 26
-6.881024 6.911752 0.880202 0
-6.819597 6.879531 0.880979 0
-6.763524 6.853141 0.881672 0
-6.722839 6.845049 0.882114 0
-6.689809 6.846080 0.882431 0
-6.655350 6.843012 0.882783 0
-6.621412 6.844535 0.883103 0
-6.581106 6.835668 0.883539 0
-6.558207 6.848616 0.883688 0
-6.501870 6.816512 0.884403 0
-6.465803 6.814137 0.884758 0
-6.445448 6.829829 0.884862 0
-6.425039 6.845450 0.884965 0
-6.351462 6.790841 0.885963 0
-6.331190 6.806134 0.886064 0
-6.308113 6.813427 0.886235 0
-6.282998 6.822142 0.886415 0
-6.251097 6.825807 0.886686 0
-6.229365 6.836774 0.886819 0
-6.309929 7.035261 0.884915 6
-6.281829 7.040643 0.885135 6
-6.262999 7.058954 0.885192 6
-6.248697 7.083749 0.885168 4
-6.234118 7.103748 0.885175 4
-6.217452 7.129974 0.885160 4
-6.194802 7.140764 0.885291 3
-6.158696 7.136426 0.885630 2
-5.914533 6.862231 0.889436 0
-5.840671 6.796188 0.890479 0
-5.817156 6.807038 0.890609 0
-5.783638 6.800418 0.890933 0
-5.764351 6.813065 0.891013 0
-5.744005 6.826309 0.891097 0
-5.711643 6.818644 0.891413 0
-5.688106 6.828983 0.891539 0
-5.668725 6.841313 0.891616 0
-5.637632 6.837294 0.891895 0
-5.606614 6.833129 0.892172 0
-5.575669 6.828818 0.892447 0
-5.561550 6.851627 0.892408 0
-5.524414 6.836841 0.892800 0
-5.506055 6.852669 0.892837 0
-5.485571 6.865010 0.892914 0
-5.456861 6.863533 0.893146 0
-5.420066 6.848152 0.893533 0
-5.385461 6.831389 0.893912 0
-5.361030 6.836396 0.894062 0
-5.335585 6.841892 0.894216 0
-5.316163 6.853053 0.894284 0
-5.291729 6.857775 0.894432 0
-5.254506 6.842062 0.894817 0
-5.237035 6.856447 0.894843 0
-5.208786 6.853855 0.895067 0
-5.184448 6.858148 0.895212 0
-5.166748 6.876951 0.895205 0
-5.142533 6.876440 0.895381 0
-5.120079 6.883987 0.895485 0
-5.097427 6.896077 0.895556 0
-5.073263 6.895289 0.895730 0
-5.048927 6.899030 0.895870 0
-5.019892 6.896106 0.896090 0
-4.994807 6.895547 0.896264 0
-4.975741 6.914284 0.896255 0
-4.926460 6.863035 0.896961 0
-4.931016 6.923424 0.896485 0
-4.885392 6.883600 0.897080 0
-4.866570 6.897364 0.897100 0
-4.825622 6.868428 0.897581 0
-4.805401 6.873800 0.897670 0
-4.790732 6.898618 0.897576 0
-4.752247 6.868229 0.898048 0
-4.737498 6.892900 0.897953 0
-4.716219 6.898453 0.898042 0
-4.688868 6.893515 0.898248 0
-4.671577 6.910276 0.898224 0
-4.642633 6.901494 0.898466 0
-4.612144 6.888933 0.898745 0
-4.595388 6.909575 0.898684 0
-4.575746 6.918281 0.898731 0
-4.550233 6.916380 0.898894 0
-4.527944 6.921714 0.898980 0
-4.500378 6.911818 0.899215 0
-4.481785 6.928452 0.899189 0
-4.458979 6.929407 0.899308 0
-4.435658 6.934834 0.899394 0
-4.415933 6.943010 0.899437 0
-4.392116 6.944140 0.899557 0
-4.368320 6.945177 0.899676 0
-4.351980 6.964686 0.899607 0
-4.331112 6.972999 0.899649 0
-4.283924 6.914215 0.900366 0
-4.260337 6.914833 0.900482 0
-4.231037 6.900424 0.900747 0
-4.213882 6.911267 0.900745 0
-4.191792 6.915355 0.900821 0
-4.168304 6.915612 0.900934 0
-4.147609 6.923284 0.900972 0
-4.121405 6.915853 0.901158 0
-4.103424 6.930886 0.901120 0
-4.078642 6.927030 0.901268 0
-4.059239 6.938160 0.901265 0
-4.033474 6.934484 0.901413 0
-4.013752 6.941327 0.901445 0
-3.992968 6.948459 0.901478 0
-3.970881 6.951728 0.901548 1
-3.938444 6.920421 0.901950 1
-3.915229 6.919693 0.902055 1
-3.893281 6.922678 0.902122 1
-3.873789 6.933197 0.902115 1
-3.849396 6.928407 0.902255 1
-3.827459 6.931149 0.902321 2
-3.805525 6.933811 0.902386 1
-3.783596 6.936393 0.902450 1
-3.761671 6.938893 0.902514 1
-3.740896 6.945146 0.902539 1
-3.717835 6.943653 0.902639 1
-3.695926 6.945912 0.902700 1
-3.671810 6.940403 0.902835 1
-3.653216 6.954038 0.902784 2
-3.634548 6.967615 0.902733 3
-3.606241 6.950579 0.902978 1
-3.587509 6.955720 0.902997 1
-3.566677 6.961365 0.903018 1
-3.544800 6.963070 0.903075 1
-3.522931 6.964696 0.903132 1
-3.502068 6.970115 0.903151 2
-3.457371 6.969094 0.903297 2
-3.434492 6.970658 0.903352 1
-3.416542 6.983287 0.903294 1
-3.391891 6.972775 0.903457 1
-3.369166 6.969950 0.903545 1
-3.350235 6.978486 0.903522 1
-3.329325 6.983302 0.903536 1
-3.305767 6.976337 0.903660 1
-3.282956 6.977324 0.903710 1
-3.261396 6.973860 0.903795 1
-3.239667 6.974455 0.903843 1
-3.218772 6.978885 0.903854 1
-3.196243 6.975408 0.903937 1
-3.176936 6.987526 0.903874 1
-3.152869 6.976046 0.904029 2
-3.132736 6.984098 0.904001 2
-3.110300 6.980299 0.904082 2
-3.089251 6.972092 0.904198 3
-3.073141 7.007655 0.903912 6
-3.046421 6.980019 0.904211 5
-3.027254 6.987526 0.904179 6
-3.003208 6.979576 0.904294 6
-2.982296 6.983180 0.904298 6
-2.961373 6.986712 0.904302 6
-2.937856 6.974380 0.904451 7
-2.918226 6.985656 0.904380 8
-2.899577 6.996704 0.904308 9
-2.875746 6.988245 0.904419 8
-2.857491 6.995048 0.904383 6
-2.832701 6.986575 0.904492 2
-2.795208 7.024217 0.904197 0
-2.777321 7.034739 0.904122 0
-2.757248 7.053556 0.903972 0
-2.735106 7.040297 0.904116 0
-2.713421 7.047066 0.904075 0
-2.696594 7.085397 0.903740 0
-2.672519 7.064095 0.903955 0
-2.611427 7.095086 0.903716 44
-2.594306 7.116995 0.903526 23
-2.493737 7.214897 0.902670 0
-2.433328 7.283961 0.902046 2
-2.411071 7.281585 0.902069 4
-2.389653 7.291102 0.901981 1
-2.370570 7.320432 0.901710 0
-2.353718 7.425695 0.900738 0
-2.331254 7.427031 0.900721 0
-2.312513 7.476153 0.900263 0
-2.291700 7.513296 0.899914 0
-2.274416 7.630279 0.898828 0
-2.252815 7.667300 0.898477 0
-2.301595 11.227868 0.865612 26
-2.265740 11.224999 0.865615 29
-2.232014 11.233953 0.865507 28
-2.196074 11.226843 0.865545 27
-2.158557 11.227638 0.865506 27
-2.124546 11.224241 0.865506 30
-2.088825 11.224752 0.865466 29
-2.053138 11.229139 0.865389 31
-2.017355 11.221402 0.865421 29
-1.981653 11.225539 0.865342 30
-1.947710 11.229554 0.865264 31
-1.910165 11.233440 0.865180 30
-1.874413 11.233203 0.865134 29
-1.838804 11.220843 0.865199 30
-1.804760 11.228383 0.865079 29
-1.768952 11.231778 0.864994 30
-1.733295 11.227049 0.864981 30
-1.699047 11.238236 0.864822 30
-1.663511 11.229266 0.864844 30
-1.627646 11.232166 0.864754 28
-1.591756 11.234941 0.864663 28
-1.557632 11.237659 0.864574 30
-1.518463 11.232042 0.864550 30
-1.486293 11.230605 0.864499 30
-1.446980 11.228710 0.864435 30
-1.410604 11.238839 0.864265 30
-1.374609 11.240851 0.864167 27
-1.338592 11.242738 0.864069 30
-1.302555 11.244497 0.863970 39
-1.269810 11.250362 0.863838 23
-1.232495 11.243774 0.863808 25
-1.197612 11.253271 0.863634 29
-1.160315 11.246420 0.863602 33
-1.127778 11.247844 0.863504 29
-1.090191 11.244724 0.863433 27
-1.053700 11.249594 0.863289 27
-1.017165 11.254333 0.863143 25
-0.983137 11.251150 0.863075 29
-0.945538 11.247500 0.863000 28
-0.909743 11.243896 0.862926 32
-0.874067 11.256268 0.862705 28
-0.837807 11.256391 0.862592 30
-0.800190 11.252209 0.862512 30
-0.765707 11.252278 0.862400 26
-0.728468 11.259961 0.862208 22
-0.693121 11.251630 0.862167 25
-0.656305 11.255080 0.862010 22
-0.619450 11.258399 0.861853 27
-0.584348 11.261827 0.861698 25
-0.547258 11.252752 0.861649 43
-0.510888 11.251719 0.861526 33
-0.473935 11.254515 0.861364 26
-0.436944 11.257177 0.861201 29
-0.402320 11.243890 0.861189 26
-0.364697 11.250247 0.860986 29
-0.329430 11.252800 0.860824 32
-0.291830 11.246755 0.860729 29
-0.254730 11.248760 0.860560 28
-0.219386 11.250936 0.860395 21
-0.183584 11.244798 0.860301 26
-0.145017 11.254289 0.860053 31
-0.109203 11.247890 0.859956 31
-0.071240 11.253168 0.859744 29
-0.035430 11.246512 0.859646 22
0.001859 11.247589 0.859469 30
0.039944 11.252457 0.859253 32
0.076295 11.257538 0.859041 33
0.111119 11.254649 0.858905 29
0.148542 11.255194 0.858724 29
0.187786 11.255226 0.858537 30
0.224307 11.259784 0.858320 28
0.261829 11.259915 0.858136 30
0.302031 11.263422 0.857906 31
0.335164 11.260168 0.857769 28
0.375446 11.263388 0.857537 25
0.413089 11.262967 0.857348 26
0.453464 11.265882 0.857113 21
0.487585 11.266030 0.856933 25
0.524376 11.261312 0.856779 21
0.563072 11.264230 0.856546 18
0.603468 11.258348 0.856379 20
0.637672 11.257998 0.856195 20
0.676478 11.260490 0.855958 22
0.712308 11.251225 0.855839 26
0.752192 11.257302 0.855560 25
0.790081 11.255500 0.855360 25
0.828295 11.261765 0.855085 22
0.869106 11.263044 0.854836 25
0.909963 11.264163 0.854586 29
0.950163 11.269476 0.854301 25
0.986845 11.275663 0.854028 24
1.026072 11.276838 0.853780 28
1.065342 11.277864 0.853531 22
1.102373 11.271074 0.853361 25
1.141703 11.271810 0.853109 23
-0.268751 6.391119 0.903456 0
-0.255953 6.366118 0.903585 0
-0.254600 6.302710 0.904110 0
-0.236994 6.297026 0.904042 0
-0.227221 6.264379 0.904251 0
-0.145971 6.325782 0.903189 0
-0.128660 6.315635 0.903155 0
-0.111397 6.305432 0.903120 0
-0.088875 6.310266 0.902922 0
-0.071658 6.299934 0.902886 0
-0.042310 6.323421 0.902485 0
0.073510 6.523901 0.900008 4
0.065909 6.441425 0.900737 2
0.064293 6.382252 0.901231 4
0.068951 6.282090 0.902010 12
0.072960 6.237679 0.902339 14
0.076684 6.193304 0.902668 14
0.078323 6.149680 0.903006 17
0.087424 6.120244 0.903173 23
0.090361 6.075969 0.903504 29
0.093015 6.031737 0.903836 30
0.101471 6.002345 0.904004 32
0.100542 5.950793 0.904419 33
0.109421 5.921078 0.904584 35
0.116399 5.892090 0.904756 40
0.127204 5.870102 0.904842 38
0.164272 5.771036 0.905310 0
0.181426 5.635951 0.906206 102
0.192568 5.617568 0.906251 104
0.208706 5.610025 0.906169 108
0.223105 5.598812 0.906130 109
0.239177 5.591164 0.906047 109
0.258698 5.590664 0.905880 109
0.295741 5.626051 0.905287 114
0.317196 5.628921 0.905075 114
0.337732 5.627711 0.904900 114
0.353905 5.619662 0.904814 114
0.371043 5.615536 0.904690 114
0.387172 5.607371 0.904603 114
0.403274 5.599150 0.904516 114
0.424858 5.601531 0.904300 114
0.434588 5.582957 0.904345 114
0.451404 5.574149 0.904252 114
0.466590 5.566128 0.904168 114
0.482547 5.557630 0.904078 114
0.504169 5.559637 0.903859 114
0.513253 5.536521 0.903938 113
0.536006 5.542323 0.903678 114
0.536398 5.505579 0.903935 11
0.567857 5.488041 0.903753 1
0.809484 5.838431 0.898932 5
0.836369 5.846065 0.898612 4
0.857316 5.843193 0.898423 4
0.884338 5.850590 0.898102 2
0.903317 5.844077 0.897956 2
0.930462 5.851242 0.897632 2
0.957692 5.858277 0.897308 2
0.986223 5.869118 0.896943 2
1.009472 5.869055 0.896704 2
1.034848 5.872297 0.896421 1
1.062386 5.878824 0.896092 1
1.085776 5.878428 0.895850 1
1.107072 5.874542 0.895653 1
1.126240 5.867186 0.895499 1
1.138943 5.849638 0.895479 1
1.155885 5.838792 0.895370 1
1.183097 5.806872 0.895284 4
1.195495 5.789187 0.895263 3
1.205598 5.768140 0.895288 1
1.211152 5.740428 0.895403 1
1.217133 5.717164 0.895484 1
1.236679 5.708799 0.895322 1
1.238781 5.678349 0.895488 1
1.236999 5.640785 0.895741 1
1.231243 5.596159 0.896080 1
1.251016 5.557970 0.896091 1
1.272359 5.552698 0.895882 1
1.359839 5.573668 0.894761 31
1.394676 5.587901 0.894276 36
1.427284 5.598723 0.893837 41
1.448108 5.593301 0.893627 42
1.473718 5.594202 0.893324 40
1.499376 5.594979 0.893020 43
1.521061 5.593659 0.892773 101
1.550832 5.596165 0.892408 50
1.574194 5.593400 0.892148 101
1.602472 5.596855 0.891792 101
1.635733 5.606481 0.891342 101
1.662555 5.610900 0.890996 101
1.692667 5.612648 0.890625 50
1.716250 5.609259 0.890359 50
1.743244 5.613295 0.890010 49
1.772722 5.615254 0.889641 47
1.798933 5.614612 0.889324 47
1.826910 5.617598 0.888966 48
1.851476 5.612946 0.888688 48
1.880363 5.614999 0.888320 74
1.907696 5.618257 0.887965 74
1.942663 5.625468 0.887492 74
1.972559 5.626385 0.887114 74
2.004304 5.630877 0.886694 72
2.030910 5.629139 0.886368 72
2.059362 5.630997 0.885999 69
2.091309 5.635024 0.885574 63
2.123333 5.638885 0.885148 63
2.144833 5.630595 0.884914 69
2.176967 5.634158 0.884485 68
2.213705 5.644236 0.883964 70
2.246007 5.647449 0.883532 69
2.282950 5.657152 0.883008 67
2.308129 5.650419 0.882713 65
2.340637 5.653133 0.882276 63
2.373217 5.655677 0.881839 59
2.403135 5.655129 0.881449 62
2.433101 5.654429 0.881057 64
2.463115 5.653576 0.880664 62
2.498702 5.658355 0.880171 62
2.537148 5.665825 0.879627 61
2.575701 5.673083 0.879081 60
2.607956 5.675200 0.878640 57
2.638290 5.673497 0.878240 55
2.668668 5.671638 0.877839 55
2.704733 5.675294 0.877336 55
2.740879 5.678755 0.876832 58
2.779948 5.684834 0.876275 54
2.816264 5.687893 0.875767 55
2.858382 5.696345 0.875157 54
2.892004 5.696206 0.874696 53
2.925684 5.695889 0.874233 51
2.964379 5.701783 0.873676 51
2.995290 5.698340 0.873261 54
3.037874 5.705719 0.872641 53
3.083489 5.715591 0.871968 51
3.129232 5.725203 0.871293 51
3.162527 5.724589 0.870828 47
3.191631 5.716599 0.870448 48
3.237662 5.725525 0.869767 17
3.282989 5.735102 0.869092 30
3.324144 5.737237 0.868501 42
3.367541 5.742727 0.867864 42
3.396071 5.734711 0.867484 45
3.427613 5.729194 0.867051 49
3.465206 5.728778 0.866513 61
3.487754 5.715053 0.866234 66
3.519365 5.709059 0.865797 38
3.826679 5.872591 0.860829 1
3.832267 5.841077 0.860843 1
3.856156 5.824928 0.860541 1
3.876079 5.807143 0.860301 0
3.928292 5.819221 0.859499 0
4.088634 5.913758 0.856867 0
4.217764 5.983124 0.854765 0
4.235152 5.961530 0.854567 0
4.239953 5.929905 0.854581 0
4.247744 5.900789 0.854542 0
4.252263 5.869208 0.854557 0
4.271559 5.851041 0.854314 0
4.301325 5.806074 0.853979 2
11.617015 11.350420 0.730304 15
11.700485 11.346376 0.729051 13
11.794066 11.341924 0.727644 16
11.905609 11.346494 0.725939 15
11.991266 11.338582 0.724653 16
12.093515 11.334800 0.723101 16
12.202000 11.342428 0.721425 14
12.311066 11.342120 0.719753 14
12.419950 11.348507 0.718067 14
12.511321 11.337798 0.716681 14
12.612576 11.333522 0.715126 14
12.720516 11.333271 0.713456 14
12.833381 11.339560 0.711694 12
12.946774 11.337728 0.709935 14
13.050470 11.328396 0.708335 12
13.170501 11.337265 0.706446 12
13.277518 11.336464 0.704773 10
13.408208 11.343117 0.702713 10
13.514068 11.336093 0.701060 12
13.620065 11.328457 0.699402 13
13.739557 11.329004 0.697515 13
13.855894 11.326655 0.695679 9
13.953826 11.315515 0.694141 9
14.097372 11.329192 0.691844 9
14.200763 11.316150 0.690214 13
14.334658 11.321787 0.688072 20
14.455246 11.318094 0.686150 11
14.592969 11.324276 0.683938 11
14.707134 11.314877 0.682115 11
14.831656 11.311090 0.680117 11
14.956354 11.306558 0.678112 11
15.087888 11.313443 0.675984 14
15.216377 11.309487 0.673909 12
15.355352 11.310903 0.671657 12
15.486017 11.302320 0.669542 12
15.618502 11.298009 0.667390 7
15.756284 11.300012 0.665143 7
15.889142 11.294098 0.662978 7
16.036057 11.295332 0.660575 7
16.165808 11.285789 0.658453 8
16.316618 11.287243 0.655977 8
16.471149 11.289721 0.653435 11
16.620718 11.284122 0.650972 8
16.772114 11.291227 0.648472 8
16.923901 11.280467 0.645964 8
17.075739 11.285786 0.643448 12
17.217289 11.275990 0.641101 9
17.397844 11.285992 0.638100 9
17.541580 11.270929 0.635706 9
17.696058 11.269221 0.633130 9
17.870283 11.272348 0.630220 9
18.041212 11.272555 0.627360 9
18.205276 11.259206 0.624607 9
18.373091 11.255448 0.621788 10
18.533966 11.256008 0.619083 10
18.725492 11.257288 0.615857 10
18.895775 11.255756 0.612984 10
19.082441 11.256554 0.609830 10
19.260353 11.247244 0.606814 10
19.454725 11.249142 0.603520 10
19.638559 11.253915 0.600403 11
19.815361 11.244918 0.597390 11
19.999609 11.238194 0.594248 11
20.200382 11.233155 0.590819 11
20.549988 11.209389 0.584822 8
20.804363 11.229191 0.580485 8
21.004351 11.222922 0.577047 8
21.211887 11.218612 0.573477 12
21.397682 11.203362 0.570263 12
21.618465 11.197129 0.566451 12
21.843304 11.200875 0.562577 8
22.066525 11.197483 0.558716 13
22.269798 11.189131 0.555188 13
22.497206 11.184509 0.551242 13
22.722954 11.172589 0.547308 13
22.965677 11.171061 0.543090 13
23.190149 11.160462 0.539168 9
23.431641 11.160284 0.534962 9
23.652870 11.145297 0.531078 14
23.859409 11.123043 0.527432 9
24.081017 11.105263 0.523525 10
24.373741 11.113326 0.518416 10
24.734123 11.145064 0.512163 15
25.072584 11.165955 0.506266 10
25.291576 11.139935 0.502364 16
25.567007 11.133251 0.497504 11
9.023559 4.993774 0.775364 1
8.964588 4.886098 0.776158 3
8.988083 4.855754 0.775671 5
8.944865 4.797738 0.776295 7
8.963181 4.757143 0.775870 11
8.945973 4.708665 0.776052 11
8.942439 4.669270 0.776012 21
8.947622 4.628660 0.775813 22
8.948856 4.586807 0.775677 21
8.961340 4.548707 0.775349 22
8.962269 4.506886 0.775215 30
8.970661 4.467526 0.774951 43
8.963651 4.423354 0.774947 41
8.971744 4.384017 0.774684 39
8.979694 4.344666 0.774421 37
8.983677 4.304141 0.774223 40
8.979845 4.261337 0.774156 40
8.991192 4.223131 0.773829 42
8.994726 4.182647 0.773632 42
9.001404 4.145196 0.773387 40
9.008498 4.105822 0.773125 40
9.007749 4.064278 0.772994 41
9.018407 4.025975 0.772667 42
9.028933 3.987635 0.772340 43
9.035461 3.948220 0.772078 49
9.049581 3.910847 0.771685 30
9.040357 3.867339 0.771688 12
9.060164 3.790473 0.771033 67
9.073747 3.752961 0.770639 66
9.091084 3.716345 0.770178 58
9.096642 3.676809 0.769917 51
9.113727 3.640060 0.769455 38
9.130690 3.603225 0.768992 19
9.162663 3.571859 0.768277 9
9.179400 3.534800 0.767813 3
9.223329 3.503795 0.766877 2
9.314471 3.480908 0.765111 1
9.435998 3.468153 0.762834 1
9.589282 3.459299 0.759991 1
9.805263 3.462564 0.756054 1
10.060573 3.472441 0.751425 1
10.841313 3.587121 0.737658 1
12.680329 3.853956 0.705208 1
47.399097 10.466917 0.100108 29
30.737539 6.331861 0.385549 7
30.819157 6.227791 0.383478 7
30.760004 5.984343 0.383229 23
30.757442 5.867152 0.382620 23
30.770294 5.752342 0.381732 23
30.774822 5.636379 0.380985 15
30.747246 5.516056 0.380799 22
30.790573 5.405601 0.379352 15
30.841457 5.295939 0.377762 7
49.753723 6.698015 0.035457 31
62.041779 6.250434 -0.196015 80
62.131481 6.032643 -0.199168 40
-40.473789 1.290883 0.337233 11
-25.562414 1.335059 0.579637 7
-25.485098 1.416064 0.581533 3
-25.343452 1.658491 0.585723 66
-25.348982 1.740363 0.586261 39
-25.322250 1.821143 0.587310 100
-25.315899 1.984212 0.588640 114
-25.284330 2.064441 0.589748 114
-25.252487 2.144461 0.590855 115
-25.256529 2.222114 0.591357 115
-25.284269 2.301153 0.591481 112
-25.279320 2.386627 0.592176 114
-25.286545 2.464702 0.592616 100
-25.305208 2.547711 0.592900 100
-25.347515 2.632550 0.592810 100
-25.385225 2.721497 0.592818 36
-25.444675 2.886693 0.592989 3
-40.103653 4.613978 0.367532 11
-39.679573 4.839559 0.375846 10
-40.263943 5.020818 0.367575 11
-40.050129 5.139518 0.371778 11
-40.234154 5.294796 0.369786 11
-40.219685 5.421687 0.370809 11
-39.806076 5.514403 0.378045 11
-40.352455 5.981197 0.372070 11
-40.333923 6.121871 0.373202 11
-12.663098 2.724874 0.798048 36
-12.554392 2.745226 0.799897 36
-12.465703 2.766344 0.801428 47
-12.384560 2.790072 0.802850 46
-12.310939 2.816451 0.804163 54
-12.237911 2.838728 0.805444 63
-12.160916 2.859819 0.806779 58
-12.107154 2.886595 0.807771 59
-12.049400 2.912271 0.808819 67
-11.975887 2.934517 0.810098 62
-11.921960 2.960154 0.811080 60
-11.863708 2.986377 0.812132 67
-11.810020 3.009567 0.813094 71
-11.743831 3.033388 0.814256 62
-11.705345 3.060875 0.814993 57
-11.647605 3.082202 0.816005 65
-11.585557 3.103993 0.817085 70
-11.523475 3.125376 0.818162 69
-11.480864 3.150777 0.818947 59
-11.426500 3.173210 0.819902 66
-11.379885 3.197115 0.820739 70
-11.313764 3.216092 0.821861 70
-11.260072 3.234206 0.822782 62
-11.217223 3.258088 0.823554 63
-11.173922 3.283306 0.824336 66
-11.115857 3.301121 0.825319 70
-11.057369 3.320164 0.826311 66
-11.009653 3.345004 0.827155 61
-10.970444 3.368411 0.827857 69
-10.920428 3.385343 0.828703 70
-10.869553 3.405094 0.829571 69
-10.818649 3.424519 0.830436 65
-10.771573 3.444692 0.831242 57
-10.732162 3.466739 0.831933 61
-10.685014 3.486341 0.832735 65
-10.630153 3.503417 0.833645 66
-10.571443 3.519013 0.834609 61
-10.524230 3.537652 0.835402 61
-10.492311 3.560607 0.835971 64
-10.445035 3.578702 0.836759 70
-10.397737 3.596498 0.837546 67
-10.331331 3.608027 0.838606 58
-10.292100 3.626119 0.839265 58
-10.256188 3.646648 0.839879 64
-10.220234 3.666958 0.840490 65
-10.176639 3.684557 0.841209 68
-10.121634 3.698105 0.842091 68
-10.085592 3.717667 0.842696 64
-10.049994 3.735598 0.843288 62
-10.017667 3.756028 0.843835 68
-9.976768 3.776440 0.844511 68
-9.933524 3.791077 0.845207 70
-9.893551 3.808181 0.845857 80
-9.853555 3.825040 0.846505 76
-9.821057 3.844385 0.847043 67
-9.784767 3.862159 0.847633 67
-9.741452 3.875574 0.848318 65
-9.690138 3.887276 0.849119 66
-9.642578 3.900072 0.849864 68
-9.606230 3.916862 0.850446 70
-9.573587 3.934876 0.850973 68
-9.537189 3.951241 0.851552 69
-9.515649 3.973265 0.851915 68
-9.486617 3.992210 0.852384 71
-9.457546 4.010990 0.852852 73
-9.439549 4.034125 0.853159 78
-9.399287 4.048049 0.853783 78
-9.373795 4.067863 0.854194 81
-9.352484 4.087792 0.854541 78
-9.327006 4.137751 0.854989 8
-9.308632 4.160278 0.855291 12
-9.286524 4.181117 0.855644 6
-9.186604 4.258372 0.857203 34
-9.175155 4.283576 0.857396 32
-9.174515 4.313762 0.857433 30
-9.162872 4.338923 0.857626 30
-9.159562 4.364929 0.857695 31
-9.147147 4.391293 0.857896 34
-16.565046 10.853401 0.853586 19
-16.464392 10.859316 0.854443 19
-16.355555 10.862638 0.855362 15
-16.260208 10.867128 0.856167 17
-16.163265 10.873574 0.856986 16
-16.058178 10.877332 0.857866 16
-15.964966 10.877739 0.858641 17
-15.865179 10.880196 0.859470 16
-15.770323 10.889147 0.860266 17
-15.672559 10.888065 0.861069 17
-15.568264 10.888844 0.861926 19
-15.480511 10.893732 0.862650 22
-15.395853 10.907586 0.863359 39
-15.298689 10.904363 0.864145 16
-15.204638 10.910021 0.864915 15
-15.104609 10.903307 0.865716 19
-15.025337 10.915254 0.866369 16
-14.936613 10.919476 0.867086 24
-14.846584 10.918509 0.867807 18
-14.761292 10.924192 0.868494 19
-14.672966 10.926938 0.869200 22
-14.578492 10.924241 0.869948 22
-14.501262 10.938107 0.870572 19
-14.418200 10.939700 0.871229 17
-14.330411 10.940504 0.871920 16
-14.245878 10.943336 0.872585 15
-14.158378 10.943171 0.873268 17
-14.074119 10.945056 0.873926 22
-13.993076 10.949024 0.874558 17
-13.921373 10.960233 0.875121 17
-13.828294 10.953059 0.875833 20
-13.747628 10.955688 0.876455 15
-13.679273 10.968247 0.876986 20
-13.595790 10.967434 0.877623 20
-13.515485 10.968773 0.878234 22
-13.435775 10.963044 0.878835 20
-13.361767 10.968794 0.879397 23
-13.287859 10.974148 0.879956 15
-13.205078 10.971143 0.880575 17
-13.137367 10.981010 0.881086 22
-13.057835 10.979823 0.881677 22
-12.996227 10.994321 0.882140 30
-12.911021 10.986938 0.882767 20
-12.843670 10.995323 0.883266 22
-12.770524 10.997926 0.883803 24
-12.690461 10.990086 0.884386 22
-12.623408 10.997370 0.884876 17
-12.544222 10.999761 0.885451 18
-12.475059 10.997113 0.885950 18
-12.408299 11.003311 0.886431 16
-12.335870 11.003610 0.886951 16
-12.269303 11.009101 0.887427 20
-12.205683 11.017047 0.887880 17
-12.125040 11.007826 0.888451 17
-12.058782 11.012252 0.888918 16
-11.989788 11.013511 0.889403 20
-11.923728 11.017247 0.889865 18
-11.859515 11.018918 0.890313 18
-11.790851 11.019134 0.890789 21
-11.727885 11.024725 0.891224 20
-11.656661 11.021371 0.891715 20
-11.591120 11.023414 0.892164 21
-11.525682 11.025122 0.892610 22
-11.460351 11.026496 0.893054 22
-11.397867 11.030451 0.893475 18
-11.338201 11.037016 0.893875 17
-11.269479 11.029928 0.894339 16
-11.209994 11.035879 0.894734 20
-11.153281 11.044489 0.895108 17
-11.091243 11.046903 0.895517 21
-11.029301 11.049006 0.895925 22
-10.956783 11.038880 0.896405 22
-10.897735 11.043318 0.896788 21
-10.838766 11.047466 0.897169 21
-10.785151 11.057341 0.897511 21
-10.719328 11.045805 0.897941 21
-10.651883 11.046075 0.898373 19
-10.593285 11.049035 0.898745 20
-10.537367 11.054753 0.899096 18
-10.484097 11.063257 0.899427 16
-10.421521 11.053246 0.899827 22
-10.364080 11.059624 0.900182 12
-6.753155 6.856879 0.925788 0
-6.708471 6.841681 0.926074 0
-6.674448 6.843469 0.926280 0
-6.641498 6.844269 0.926479 0
-6.618548 6.857442 0.926606 0
-6.583183 6.854819 0.926820 0
-6.520775 6.817372 0.927229 0
-6.488136 6.817463 0.927422 0
-6.455552 6.817398 0.927615 0
-6.420592 6.814000 0.927824 0
-6.399853 6.824801 0.927933 0
-6.352938 6.805155 0.928227 0
-6.314802 6.798813 0.928454 0
-6.246737 6.749802 0.928901 0
-6.233738 6.774381 0.928947 0
-6.206079 6.774880 0.929103 0
-6.157595 6.750872 0.929406 0
-6.165593 6.804381 0.929296 0
-6.106937 6.767762 0.929669 0
-6.070498 6.759398 0.929882 0
-6.059575 6.786773 0.929906 0
-6.053106 6.820691 0.929897 0
-6.001727 6.788291 0.930221 0
-5.996377 6.826094 0.930198 0
-5.919387 6.757704 0.930707 0
-5.905988 6.781406 0.930746 0
-5.864350 6.761329 0.930996 0
-5.848641 6.781563 0.931050 0
-5.831635 6.797754 0.931115 0
-5.803704 6.801896 0.931255 0
-5.784411 6.814610 0.931335 0
-5.736842 6.788367 0.931621 0
-5.727437 6.818311 0.931622 0
-5.714571 6.840871 0.931652 0
-5.674790 6.823575 0.931880 0
-5.641585 6.816218 0.932059 0
-5.625477 6.835811 0.932107 0
-5.600824 6.841777 0.932219 0
-5.574073 6.844238 0.932346 0
-5.551528 6.853407 0.932440 0
-5.529988 6.861866 0.932530 0
-5.466084 6.802365 0.932941 0
-5.435505 6.797406 0.933096 0
-5.427466 6.830138 0.933075 0
-5.388790 6.811187 0.933292 0
-5.371488 6.825978 0.933345 0
-5.348071 6.834981 0.933437 0
-5.323661 6.839837 0.933540 0
-5.293313 6.834169 0.933690 0
-5.269976 6.838228 0.933788 0
-5.244606 6.843343 0.933892 0
-5.229990 6.865258 0.933914 0
-5.195932 6.852123 0.934091 0
-5.179293 6.870399 0.934127 0
-5.151114 6.867539 0.934255 0
-5.121250 6.856408 0.934407 0
-5.104525 6.874462 0.934442 0
-5.072550 6.868817 0.934589 0
-5.058619 6.889729 0.934604 0
-5.034313 6.893414 0.934697 0
-4.980657 6.840134 0.935033 0
-4.952928 6.836400 0.935155 0
-4.939744 6.861078 0.935155 0
-4.903053 6.839285 0.935350 0
-4.888237 6.855659 0.935373 0
-4.865695 6.866859 0.935438 0
-4.835626 6.854913 0.935582 0
-4.810616 6.858217 0.935672 0
-4.798086 6.882052 0.935666 0
-4.773361 6.880602 0.935764 0
-4.745938 6.875925 0.935878 0
-4.690847 6.919307 0.935980 0
-4.650207 6.885135 0.936209 0
-4.628996 6.890379 0.936273 0
-4.605719 6.896471 0.936341 0
-4.582872 6.897900 0.936418 0
-4.560625 6.903358 0.936482 0
-4.538372 6.908731 0.936545 0
-4.516113 6.914023 0.936608 0
-4.468698 6.860380 0.936902 0
-4.445075 6.861733 0.936977 0
-4.419926 6.859304 0.937066 0
-4.397892 6.864161 0.937126 0
-4.380414 6.880033 0.937142 0
-4.356826 6.881036 0.937214 0
-4.330829 6.869987 0.937325 0
-4.311774 6.881942 0.937353 0
-4.290164 6.890522 0.937397 0
-4.279327 6.920568 0.937351 0
-4.255725 6.921166 0.937420 0
-4.232543 6.925805 0.937476 0
-4.212847 6.933308 0.937514 0
-4.190684 6.937390 0.937567 0
-4.153212 6.900139 0.937774 0
-4.124648 6.889362 0.937883 1
-4.102006 6.884854 0.937959 1
-4.086830 6.907352 0.937938 0
-4.058741 6.900397 0.938033 0
-4.040164 6.906960 0.938064 1
-4.018185 6.910407 0.938112 0
-3.995173 6.914128 0.938161 0
-3.974231 6.917057 0.938206 0
-3.947642 6.913370 0.938283 1
-3.929025 6.919585 0.938311 1
-3.905821 6.918820 0.938370 1
-3.882647 6.917966 0.938428 1
-3.863165 6.928451 0.938443 1
-3.837768 6.923945 0.938515 1
-3.821507 6.937449 0.938513 1
-3.794975 6.928945 0.938597 1
-3.772935 6.927346 0.938650 1
-3.751163 6.933950 0.938678 1
-3.728019 6.928356 0.938743 1
-3.708409 6.938329 0.938754 1
-3.684293 6.932870 0.938820 1
-3.662438 6.935008 0.938857 1
-3.640589 6.937065 0.938894 1
-3.603276 6.964078 0.938884 1
-3.577177 6.950476 0.938973 1
-3.557396 6.959949 0.938980 1
-3.534528 6.953610 0.939040 1
-3.512661 6.959341 0.939060 1
-3.492859 6.964457 0.939078 1
-3.469973 6.966156 0.939111 1
-3.447247 6.959486 0.939168 1
-3.427356 6.968526 0.939171 1
-3.405539 6.969723 0.939201 1
-3.381880 6.963058 0.939257 1
-3.359197 6.960196 0.939299 1
-3.337451 6.961146 0.939327 1
-3.316600 6.965918 0.939340 1
-3.298349 6.982328 0.939313 1
-3.274361 6.963064 0.939405 1
-3.253504 6.967615 0.939417 0
-3.230135 6.960356 0.939468 0
-3.210925 6.972584 0.939452 0
-3.190036 6.976913 0.939462 0
-3.169132 6.981171 0.939471 0
-3.146657 6.977507 0.939507 0
-3.124987 6.977686 0.939529 0
-3.105283 6.993703 0.939496 0
-3.083896 6.989604 0.939530 0
-3.061502 6.985622 0.939563 0
-3.041986 6.997304 0.939542 0
-3.020669 6.992981 0.939573 0
-2.998345 6.988764 0.939605 0
-2.976063 6.984464 0.939635 0
-2.957098 6.999812 0.939598 0
-2.937397 7.011153 0.939574 0
-2.915747 7.010577 0.939589 0
-2.894114 7.009923 0.939604 0
-2.875494 7.028966 0.939551 0
-2.854410 7.032125 0.939552 0
-2.831599 7.023334 0.939591 0
-2.812767 7.042182 0.939537 0
-2.789460 7.029271 0.939588 0
-2.772089 7.059882 0.939492 0
-2.748831 7.046813 0.939543 0
-2.727685 7.049530 0.939539 0
-2.706936 7.064213 0.939495 0
-2.688803 7.074473 0.939464 0
-2.667561 7.076980 0.939458 0
-2.647206 7.087362 0.939426 0
-2.626354 7.093699 0.939406 0
-2.584948 7.110140 0.939350 6
-2.565937 7.136168 0.939261 12
-2.542651 7.130383 0.939278 8
-2.522287 7.132282 0.939269 3
-2.503300 7.162099 0.939164 1
-2.481416 7.159972 0.939167 1
-2.466456 7.229444 0.938927 2
-2.444055 7.223197 0.938941 1
-2.421704 7.216871 0.938955 0
-2.399161 7.222511 0.938927 0
-2.382243 7.279807 0.938725 0
-2.361048 7.293218 0.938669 0
-2.340005 7.310551 0.938599 0
-2.319750 7.343787 0.938475 0
-2.303723 7.460840 0.938065 0
-2.283316 7.505946 0.937898 0
-2.248723 7.763811 0.936991 1
-2.326851 11.235375 0.925145 22
-2.290442 11.216603 0.925179 17
-2.256414 11.213645 0.925160 18
-2.219146 11.222659 0.925095 19
-2.183340 11.219502 0.925072 16
-2.147560 11.216221 0.925048 17
-2.111865 11.216813 0.925009 19
-2.076168 11.217280 0.924970 21
-2.042255 11.217609 0.924931 22
-2.004788 11.221842 0.924873 20
-1.972645 11.221931 0.924835 20
-1.933370 11.217905 0.924800 21
-1.897671 11.217750 0.924755 21
-1.861934 11.221469 0.924696 18
-1.829895 11.213111 0.924681 17
-1.792297 11.220564 0.924603 18
-1.758453 11.215953 0.924571 22
-1.720790 11.223143 0.924490 19
-1.685181 11.218246 0.924453 18
-1.649603 11.213227 0.924415 19
-1.613651 11.220077 0.924334 21
-1.579285 11.230864 0.924241 15
-1.542082 11.221406 0.924211 17
-1.509591 11.228034 0.924133 19
-1.472263 11.222320 0.924087 19
-1.438132 11.224641 0.924018 17
-1.402195 11.226750 0.923944 19
-1.364449 11.228630 0.923867 18
-1.328469 11.230481 0.923792 26
-1.292469 11.232206 0.923715 44
-1.258511 11.229936 0.923655 24
-1.220122 11.239264 0.923545 15
-1.184957 11.228642 0.923508 16
-1.148908 11.229862 0.923428 19
-1.115287 11.223129 0.923378 22
-1.077102 11.227935 0.923278 18
-1.040657 11.232759 0.923180 15
-1.005957 11.237619 0.923084 20
-0.970194 11.234226 0.923012 17
-0.934842 11.226729 0.922954 18
-0.898292 11.231046 0.922852 23
-0.863488 11.235423 0.922752 24
-0.824626 11.243262 0.922629 17
-0.788845 11.239237 0.922552 20
-0.753546 11.231113 0.922489 23
-0.718632 11.234999 0.922385 18
-0.681395 11.242511 0.922262 16
-0.643828 11.237755 0.922177 17
-0.608287 11.245232 0.922055 18
-0.572500 11.240451 0.921972 19
-0.536180 11.239507 0.921873 17
-0.498721 11.246354 0.921744 33
-0.462352 11.245149 0.921643 19
-0.427173 11.248038 0.921531 16
-0.389588 11.242352 0.921438 30
-0.353194 11.240759 0.921334 21
-0.316157 11.242987 0.921214 19
-0.281522 11.241426 0.921112 19
-0.243770 11.247340 0.920975 19
-0.208652 11.237345 0.920897 18
-0.171935 11.247243 0.920747 18
-0.134742 11.248815 0.920621 17
-0.099660 11.238445 0.920540 18
-0.060260 11.251555 0.920366 17
-0.028467 11.233407 0.920318 18
0.014629 11.245554 0.920132 15
0.046067 11.235374 0.920057 15
0.087740 11.239364 0.919899 21
0.124300 11.236073 0.919781 18
0.160861 11.232652 0.919662 22
0.199073 11.236929 0.919510 18
0.236503 11.237152 0.919373 19
0.270384 11.238018 0.919246 19
0.312252 11.249301 0.919055 16
0.346258 11.241710 0.918951 22
0.386491 11.244885 0.918788 20
0.422312 11.253049 0.918625 17
0.462665 11.255928 0.918459 16
0.500347 11.255188 0.918314 18
0.538054 11.254311 0.918168 20
0.573993 11.253737 0.918026 19
0.619376 11.275419 0.917776 43
0.651314 11.250848 0.917722 21
0.690321 11.261497 0.917529 16
0.725144 11.248314 0.917424 19
0.765803 11.250001 0.917249 20
0.801889 11.248631 0.917100 18
0.841892 11.254363 0.916912 17
0.879835 11.252231 0.916755 15
0.917798 11.249958 0.916597 19
0.955779 11.247545 0.916438 18
0.993095 11.249352 0.916267 18
1.034037 11.249978 0.916083 19
1.076634 11.262481 0.915854 16
1.112470 11.251818 0.915723 18
1.151752 11.252515 0.915541 7
-0.255971 6.408313 0.936242 0
-0.265261 6.310561 0.936569 0
-0.254064 6.281770 0.936599 0
-0.241486 6.260872 0.936598 0
-0.230618 6.232050 0.936628 0
-0.214864 6.218393 0.936590 0
-0.197905 6.208480 0.936534 0
-0.140721 6.197295 0.936279 0
-0.119891 6.198455 0.936170 0
-0.109355 6.173490 0.936186 0
-0.074531 6.216238 0.935888 0
-0.053560 6.217140 0.935777 0
-0.033031 6.213871 0.935679 0
0.072809 6.327977 0.934809 52
0.072345 6.276761 0.934948 52
0.081564 6.243179 0.934987 52
0.085268 6.198788 0.935084 53
0.092539 6.161514 0.935142 56
0.095389 6.121622 0.935231 59
0.099786 6.081045 0.935311 73
0.105438 6.044202 0.935375 75
0.112609 6.006660 0.935431 73
0.116047 5.970587 0.935503 72
0.124107 5.941190 0.935531 78
0.130423 5.908116 0.935578 78
0.136534 5.875060 0.935626 80
0.144030 5.845690 0.935655 50
0.153343 5.684157 0.935995 0
0.204107 5.669785 0.935722 107
0.211970 5.644079 0.935734 107
0.219680 5.618376 0.935747 107
0.224606 5.585068 0.935793 107
0.237171 5.570202 0.935749 107
0.252347 5.562891 0.935671 107
0.271803 5.562330 0.935549 107
0.292081 5.561296 0.935423 107
0.325022 5.589625 0.935149 114
0.324934 5.549437 0.935239 107
0.346248 5.552143 0.935095 107
0.382145 5.583262 0.934795 115
0.402849 5.586143 0.934653 115
0.418877 5.577867 0.934566 115
0.431168 5.562446 0.934517 115
0.447113 5.554072 0.934429 115
0.464907 5.549173 0.934321 115
0.480806 5.540681 0.934232 115
0.498577 5.535652 0.934122 115
0.512513 5.523531 0.934052 115
0.529111 5.514438 0.933957 115
0.546040 5.509657 0.933851 115
0.563752 5.504374 0.933739 115
0.861828 5.840875 0.931013 5
0.884812 5.841347 0.930849 5
0.905799 5.838274 0.930705 5
0.928846 5.838550 0.930540 5
0.949870 5.835295 0.930394 4
0.977967 5.841705 0.930180 2
1.000288 5.842180 0.930017 2
1.023492 5.842039 0.929847 2
1.050944 5.848596 0.929635 3
1.074240 5.848234 0.929464 3
1.095440 5.844384 0.929313 2
1.116650 5.840444 0.929162 2
1.132716 5.830215 0.929058 2
1.153923 5.826117 0.928905 7
1.153366 5.788373 0.928969 7
1.163528 5.767433 0.928925 8
1.173583 5.746480 0.928880 8
1.196802 5.745511 0.928704 2
1.191143 5.701215 0.928813 2
1.196390 5.673603 0.928813 2
1.208225 5.655938 0.928747 2
1.215457 5.631645 0.928725 2
1.222558 5.607359 0.928703 2
1.221112 5.535312 0.928813 4
1.252297 5.547624 0.928550 1
1.275132 5.546168 0.928370 1
1.345364 5.544988 0.927809 64
1.383285 5.561902 0.927482 73
1.429259 5.592661 0.927073 107
1.450070 5.587228 0.926910 107
1.473277 5.584910 0.926723 107
1.504529 5.591468 0.926459 107
1.534267 5.599080 0.926206 107
1.555188 5.593213 0.926039 106
1.576111 5.587255 0.925871 106
1.601934 5.587532 0.925656 106
1.635185 5.597145 0.925368 107
1.663602 5.600292 0.925126 107
1.689602 5.600160 0.924907 107
1.720633 5.606157 0.924639 107
1.741731 5.599519 0.924466 107
1.775405 5.608340 0.924171 107
1.811712 5.620083 0.923851 107
1.837998 5.619258 0.923625 107
1.848232 5.600471 0.923552 104
1.879649 5.605600 0.923276 105
1.908579 5.607500 0.923024 105
1.947887 5.621482 0.922671 107
1.976979 5.623053 0.922416 107
2.008731 5.627517 0.922134 107
2.037949 5.628785 0.921876 107
2.069847 5.632926 0.921592 107
2.096557 5.630877 0.921356 106
2.112731 5.616690 0.921220 103
2.134161 5.608431 0.921033 80
2.166239 5.612016 0.920744 75
2.193043 5.609483 0.920504 78
2.225248 5.612750 0.920212 102
2.266687 5.629146 0.919830 103
2.297184 5.628358 0.919553 104
2.323398 5.625967 0.919316 102
2.361350 5.634414 0.918966 101
2.392019 5.633137 0.918685 78
2.424672 5.635370 0.918384 74
2.451071 5.632404 0.918141 73
2.484650 5.633543 0.917830 74
2.514709 5.632400 0.917551 78
2.555147 5.643372 0.917173 76
2.591741 5.646816 0.916830 78
2.624802 5.648003 0.916520 78
2.663558 5.654698 0.916155 73
2.699591 5.658348 0.915815 70
2.730035 5.656160 0.915527 69
2.763365 5.656629 0.915211 69
2.792271 5.655778 0.914936 69
2.838799 5.665410 0.914492 70
2.878086 5.670881 0.914117 66
2.917469 5.676135 0.913739 69
2.956947 5.681170 0.913360 65
2.986172 5.679461 0.913077 60
3.018706 5.674139 0.912761 65
3.064252 5.684038 0.912321 65
3.108285 5.695446 0.911895 62
3.151967 5.701235 0.911470 60
3.186084 5.699566 0.911135 60
3.228308 5.706691 0.910723 53
3.366213 5.732817 0.909372 2
3.462453 5.714320 0.908404 69
3.494034 5.708449 0.908085 68
3.518750 5.698158 0.907830 69
3.550363 5.691987 0.907508 62
4.118078 6.067401 0.902025 0
4.141037 6.052327 0.901780 1
4.146319 6.020826 0.901701 1
4.178183 5.975553 0.901337 2
4.189319 5.949075 0.901200 1
4.200345 5.922580 0.901062 1
4.201868 5.888601 0.901014 1
4.212647 5.862106 0.900877 1
4.226466 5.838064 0.900709 1
4.224408 5.801702 0.900693 1
4.231667 5.772750 0.900586 0
11.743117 11.351449 0.828255 14
11.836777 11.346777 0.827264 14
11.940191 11.348748 0.826176 14
12.040572 11.347743 0.825113 15
12.154009 11.355634 0.823922 14
12.251511 11.351076 0.822881 12
12.358872 11.353000 0.821741 14
12.456675 11.347297 0.820690 14
12.548097 11.336392 0.819697 15
12.667193 11.348328 0.818439 14
12.768703 11.343211 0.817341 15
12.873633 11.339801 0.816207 16
12.998449 11.349447 0.814877 16
13.097142 11.340221 0.813796 15
13.223881 11.353371 0.812445 11
13.324684 11.340262 0.811329 9
13.473587 11.362707 0.809748 13
13.574436 11.355874 0.808638 24
13.742394 11.384979 0.806855 8
13.828722 11.363050 0.805871 10
13.945243 11.360305 0.804589 4
14.024996 11.332972 0.803662 2
71.783707 48.340969 0.238073 30
14.571911 11.442905 0.797842 6
14.580951 11.376030 0.797608 19
14.661448 11.337810 0.796638 12
15.109986 11.456512 0.791895 2
15.290601 11.398155 0.789752 6
15.350658 11.360355 0.788996 6
15.433249 11.323399 0.787986 11
15.627717 11.356048 0.785874 4
15.763923 11.353143 0.784334 2
15.869182 11.331350 0.783095 2
16.138943 11.319642 0.780015 2
76.015770 45.151115 0.183732 30
16.576805 11.398667 0.775239 2
16.887089 11.400516 0.771709 2
90.671791 51.357933 0.032480 30
17.116503 11.272318 0.768747 2
80.411217 45.036579 0.133231 30
92.064995 50.825970 0.015052 30
87.248505 47.894844 0.062410 30
17.825716 11.300726 0.760663 2
91.991844 48.726559 0.009934 30
104.682152 54.706955 -0.119773 30
96.411743 49.683086 -0.038610 30
98.898651 50.454700 -0.065260 30
19.179642 11.270822 0.744840 3
99.518044 49.468708 -0.075595 30
99.726379 49.133022 -0.079116 30
106.589157 51.919128 -0.150746 30
105.517906 50.504032 -0.142792 30
23.381170 11.205465 0.694747 4
93.510681 39.108360 -0.040741 30
94.598297 38.375160 -0.056745 30
95.245407 37.440571 -0.068369 30
9.080688 5.003098 0.842667 1
9.134808 4.935304 0.841719 3
9.024664 4.850846 0.842697 3
9.010958 4.805203 0.842665 4
8.986381 4.753879 0.842740 9
8.965365 4.704061 0.842776 5
8.952999 4.653174 0.842700 8
8.980901 4.620098 0.842208 5
8.982520 4.538141 0.841813 28
8.978987 4.496951 0.841666 27
8.975905 4.453915 0.841503 27
8.977072 4.410229 0.841283 42
8.988940 4.372032 0.840955 39
8.995683 4.336451 0.840702 33
9.003464 4.297033 0.840415 34
8.999603 4.254178 0.840255 40
9.003815 4.211732 0.839994 38
9.022117 4.177588 0.839599 23
9.013947 4.133727 0.839482 43
9.040246 4.099754 0.838985 16
9.038542 4.016518 0.838583 15
9.037455 3.974965 0.838384 32
9.077354 3.903221 0.837514 48
9.083582 3.863670 0.837228 39
9.114511 3.791377 0.836457 40
9.116939 3.748835 0.836199 16
9.118728 3.708247 0.835957 13
9.195330 3.646675 0.834660 6
9.196743 3.605895 0.834416 8
9.375750 3.522939 0.831701 7
9.455700 3.457261 0.830320 1
9.640297 3.454807 0.827978 1
10.959356 3.593993 0.812142 1
11.949270 3.743030 0.800514 1
47.339405 10.586877 0.393764 15
47.368656 10.413984 0.392357 15
49.212971 10.562825 0.369904 21
49.470299 10.425282 0.365807 22
49.822449 10.321836 0.360710 23
30.862089 6.550739 0.577947 7
30.849720 6.430902 0.577351 7
30.746111 6.296486 0.577819 6
30.770479 6.066193 0.576039 13
30.777399 5.833476 0.574448 61
30.830252 5.490942 0.571527 20
30.888594 5.388022 0.570099 6
30.903734 5.273335 0.569140 6
30.942282 5.161613 0.567897 7
74.560005 9.878695 0.042566 32
49.721550 6.810659 0.339108 21
49.735844 6.264687 0.335124 21
74.364235 5.305262 0.012134 33
74.370811 5.038395 0.010029 33
74.424400 4.773911 0.007329 33
74.461090 4.508365 0.004826 33
74.500847 4.242779 0.002273 32
74.575653 3.978363 -0.000733 32
61.653481 0.597020 0.138424 42
51.860039 -0.846102 0.252218 26
49.548626 -5.265007 0.241657 20
17.667833 -2.444033 0.675858 2
17.627626 -2.578107 0.674993 10
17.596018 -2.639392 0.674762 4
-14.523302 1.010807 0.829257 1
-38.757500 1.185809 0.578158 9
-38.672607 1.313509 0.580080 9
-25.486542 1.435508 0.718451 65
-25.452677 1.525107 0.719517 53
-25.422684 1.606369 0.720473 50
-25.376417 1.686953 0.721590 53
-25.332050 1.926588 0.723921 3
-25.300673 2.006944 0.724868 3
-25.292801 2.092292 0.725605 3
-25.272789 2.250431 0.727017 9
-25.324160 2.335015 0.727122 3
-25.307352 2.415828 0.727904 3
-25.346146 2.500148 0.728131 3
-25.372944 2.748243 0.729686 68
-25.391237 2.823658 0.730048 100
-25.444162 2.914421 0.730159 81
-25.536940 3.004895 0.729850 37
-60.897644 6.441535 0.387646 42
-60.142670 6.566344 0.396362 40
-59.306923 6.688320 0.405888 38
-58.601326 6.827924 0.414180 36
-61.197674 7.304565 0.390622 43
-60.336395 7.418910 0.400333 41
-59.383648 7.516930 0.410869 38
-58.593815 7.627468 0.419798 36
-57.760235 7.727298 0.429098 33
-56.856400 7.802931 0.438952 31
-56.011002 7.889666 0.448270 28
-55.209301 7.976306 0.457128 26
-54.473812 8.075681 0.465380 24
-53.680145 8.152493 0.474074 21
-52.915569 8.218895 0.482393 19
-52.165691 8.291369 0.490592 17
-51.419891 8.359288 0.498713 15
-50.699261 8.417204 0.506504 14
-50.122402 8.510014 0.513033 14
-12.557315 2.756614 0.862363 30
-12.460396 2.778149 0.863493 32
-12.394982 2.804511 0.864327 34
-12.309822 2.826943 0.865339 36
-12.228569 2.849516 0.866309 33
-12.155152 2.872998 0.867204 38
-12.109213 2.901170 0.867845 60
-12.027847 2.922260 0.868803 46
-11.966087 2.946644 0.869579 49
-11.916049 2.972963 0.870246 57
-11.850618 2.994052 0.871038 53
-11.792993 3.016343 0.871756 49
-11.746357 3.044151 0.872393 50
-11.692553 3.066575 0.873070 49
-11.630524 3.088658 0.873827 46
-11.568460 3.110333 0.874581 46
-11.517696 3.135895 0.875241 49
-11.467255 3.159455 0.875884 50
-11.417148 3.181038 0.876513 49
-11.358829 3.202122 0.877220 50
-11.308650 3.223054 0.877842 48
-11.258042 3.245301 0.878475 51
-11.206599 3.270449 0.879131 52
-11.148143 3.290083 0.879826 49
-11.105170 3.313276 0.880383 45
-11.055220 3.331027 0.880979 45
-10.973052 3.345132 0.881880 49
-10.945447 3.371454 0.882295 48
-10.891148 3.388786 0.882929 42
-10.851425 3.413089 0.883453 43
-10.789365 3.427657 0.884148 49
-10.742286 3.447681 0.884721 49
-10.687478 3.465225 0.885356 49
-10.636065 3.485034 0.885968 46
-10.592744 3.505233 0.886500 44
-10.545551 3.524027 0.887062 48
-10.499224 3.539543 0.887599 52
-10.451987 3.557756 0.888156 49
-10.408553 3.576843 0.888679 47
-10.372276 3.599494 0.889146 47
-10.333048 3.617793 0.889621 48
-10.289055 3.637557 0.890148 50
-10.241689 3.654364 0.890694 52
-10.198577 3.670672 0.891194 52
-10.158778 3.689406 0.891672 50
-10.118475 3.709318 0.892158 49
-10.086672 3.728692 0.892558 50
-10.051044 3.746595 0.892987 53
-10.014903 3.765698 0.893426 52
-9.963620 3.779317 0.893987 48
-9.919885 3.795271 0.894483 48
-9.891207 3.816325 0.894854 48
-9.854457 3.835878 0.895295 49
-9.822429 3.853827 0.895683 50
-9.785608 3.872945 0.896121 47
-9.741764 3.887680 0.896607 47
-9.698420 3.900794 0.897081 45
-9.665781 3.919260 0.897472 42
-9.636842 3.938967 0.897831 40
-9.600402 3.955614 0.898249 43
-9.560215 3.970582 0.898695 45
-9.534892 3.991199 0.899020 46
-9.498378 4.007216 0.899432 46
-9.474029 4.024891 0.899734 47
-9.441170 4.042035 0.900114 47
-9.407747 4.060287 0.900502 46
-9.386448 4.080356 0.900780 46
-9.379305 4.107809 0.900950 19
