# .PCD v.7 - Point Cloud Data file format
VERSION .7
FIELDS x y z intensity
SIZE 4 4 4 1
TYPE F F F U
COUNT 1 1 1 1
WIDTH 1546
HEIGHT 1
VIEWPOINT 0 0 0 1 0 0 0
POINTS 1546
DATA ascii
8.164629 10.128501 0.055711 6
8.227027 10.129114 0.055230 6
8.278852 10.120088 0.055184 4
8.326876 10.106216 0.055342 4
8.389851 10.113512 0.054580 4
8.440535 10.102219 0.054603 4
8.488652 10.087651 0.054761 4
8.543276 10.080459 0.054583 4
8.550488 10.021557 0.056709 6
8.616838 10.027594 0.055926 6
8.660953 10.007719 0.056281 4
8.719574 10.004152 0.055902 4
8.759699 9.979370 0.056455 2
8.805086 9.960391 0.056740 2
4.678290 4.950682 0.276462 1
4.706645 4.945501 0.276344 1
4.953133 5.163048 0.266110 1
4.898648 4.832396 0.278077 14
4.905349 4.805289 0.278912 14
4.950939 4.681295 0.282487 1
4.936316 4.635270 0.284188 1
4.957522 4.623996 0.284287 5
4.997272 4.627871 0.283649 5
4.881697 4.430533 0.291560 1
4.835651 4.358931 0.294476 1
4.837266 4.329875 0.295384 4
4.805569 4.271983 0.297659 4
4.871828 4.299341 0.295882 4
4.951987 4.338007 0.293552 4
4.985314 4.335967 0.293152 11
4.910349 4.242054 0.297147 11
5.028400 4.312945 0.293262 9
5.146966 4.379994 0.289486 9
5.166799 4.365539 0.289646 16
5.279221 4.427200 0.286116 16
4.687029 3.913546 0.310516 2
4.684219 3.882184 0.311513 2
4.719498 3.883071 0.310961 4
4.772016 3.897491 0.309738 4
4.823126 3.910350 0.308579 4
4.839845 3.895674 0.308763 4
5.130453 4.095296 0.298366 15
5.138360 4.072167 0.298928 15
4.820096 3.797508 0.311975 4
4.838042 3.784015 0.312089 4
4.828901 3.749874 0.313229 19
4.833824 3.740087 0.313436 19
4.855831 3.717549 0.313736 19
4.870340 3.701478 0.313964 19
4.862288 3.668720 0.315031 12
4.870187 3.647887 0.315495 12
4.860223 3.614100 0.316615 8
4.861426 3.588624 0.317312 8
4.879757 3.576868 0.317336 2
5.053027 3.567029 0.314667 9
5.045629 3.535501 0.315650 2
5.299591 3.467478 0.312924 9
5.436416 3.528111 0.308869 2
5.836217 3.696077 0.297231 9
8.146564 4.634793 0.230172 1
8.348608 4.707684 0.224484 1
6.600517 1.142115 0.320449 9
6.466166 1.097053 0.324189 5
6.436368 1.068742 0.325125 5
6.406453 1.040652 0.326059 1
6.287516 0.998997 0.329368 1
6.094876 0.936021 0.334697 9
5.870098 0.870517 0.340864 4
5.825548 0.843038 0.342154 4
5.788803 0.816967 0.343231 6
5.684572 0.782153 0.346101 6
5.605944 0.751431 0.348282 4
5.529157 0.721518 0.350408 4
5.446278 0.691418 0.352690 6
5.390936 0.666182 0.354231 6
5.339461 0.641782 0.355664 6
5.252230 0.612758 0.358046 6
5.194675 0.587609 0.359634 4
5.138999 0.563078 0.361168 4
5.061338 0.536707 0.363281 6
4.997573 0.511371 0.365022 6
4.949533 0.488899 0.366340 6
4.887460 0.465493 0.368026 6
4.839152 0.444611 0.369341 11
4.802858 0.423362 0.370337 11
4.750465 0.401941 0.371754 9
4.683964 0.380642 0.373540 9
4.625351 0.360381 0.375114 9
4.584721 0.340156 0.376210 9
4.522063 0.318764 0.377886 11
4.482745 0.307323 0.378934 11
4.436197 0.282906 0.380181 11
4.377238 0.263720 0.381748 11
4.344155 0.246331 0.382628 8
4.281092 0.226923 0.384298 8
4.217946 0.207980 0.385968 8
4.140707 0.189649 0.388008 8
4.099325 0.173990 0.389097 15
4.103867 0.159523 0.388967 15
4.162288 0.147503 0.387408 1
3.988874 0.127659 0.391985 1
3.973252 0.113738 0.392383 1
3.923633 0.097767 0.393677 1
3.913919 0.083587 0.393912 12
3.908153 0.069535 0.394041 12
3.812368 0.055179 0.396554 14
3.796507 0.041442 0.396946 14
3.724618 0.027558 0.398822 8
3.726655 0.013592 0.398733 8
3.702652 0.000344 0.399335 3
3.710591 -0.012929 0.399086 3
3.686503 -0.025295 0.399688 11
3.634379 -0.037797 0.401031 11
3.594208 -0.050131 0.402055 1
3.618084 -0.056988 0.401397 1
3.477769 -0.073123 0.405059 1
3.449476 -0.084814 0.405764 1
3.413171 -0.095456 0.406683 3
3.392779 -0.107607 0.407171 3
3.372367 -0.119006 0.407661 20
3.361907 -0.130672 0.407884 20
3.337453 -0.141050 0.408481 26
3.322925 -0.152336 0.408809 26
3.310357 -0.163625 0.409083 28
3.289766 -0.174392 0.409570 28
3.277126 -0.185481 0.409843 30
3.250481 -0.195624 0.410489 30
3.231786 -0.206103 0.410921 28
3.221038 -0.217001 0.411138 28
3.212249 -0.227971 0.411301 27
3.199436 -0.238581 0.411571 27
3.180610 -0.248631 0.412000 30
3.171717 -0.259376 0.412161 30
3.138886 -0.268004 0.412966 11
3.227504 -0.287292 0.410493 11
3.017971 -0.399632 0.415046 9
2.992820 -0.406712 0.415635 1
2.995307 -0.418008 0.415460 1
2.999808 -0.429070 0.415233 2
3.008070 -0.441823 0.414890 2
2.994529 -0.451388 0.415143 1
2.988947 -0.461536 0.415182 1
3.003168 -0.474206 0.414678 1
3.005407 -0.485622 0.414497 1
3.015585 -0.497808 0.414100 1
3.001871 -0.507197 0.414349 1
3.011871 -0.519995 0.413945 1
2.978490 -0.525311 0.414744 1
2.992349 -0.538811 0.414229 1
3.017953 -0.554558 0.413384 1
3.031791 -0.567761 0.412869 1
3.050430 -0.576875 0.412280 1
3.047208 -0.593840 0.412152 1
3.025463 -0.600928 0.412619 1
3.019498 -0.610463 0.412649 1
3.029069 -0.623690 0.412234 1
3.101235 -0.649947 0.410051 1
3.221701 -0.980345 0.401932 9
3.218399 -0.991310 0.401818 1
3.214707 -1.003416 0.401691 1
3.211150 -1.014932 0.401569 1
3.196519 -1.060873 0.401071 1
3.192950 -1.071753 0.400950 1
3.189346 -1.082622 0.400828 1
3.185319 -1.094620 0.400693 1
3.181444 -1.106034 0.400563 1
3.177529 -1.117434 0.400432 1
3.173574 -1.128820 0.400300 1
3.169579 -1.140192 0.400167 1
3.165545 -1.151550 0.400033 1
3.188005 -1.171820 0.399094 1
3.157770 -1.173092 0.399776 1
3.249562 -1.213129 0.396807 1
3.329447 -1.290617 0.393328 1
3.446083 -1.533551 0.385235 1
3.440674 -1.545870 0.385063 1
3.435496 -1.557556 0.384898 1
3.390361 -1.655266 0.383476 1
3.395036 -1.673212 0.382922 1
3.396328 -1.688855 0.382496 1
3.462443 -1.735659 0.379893 1
3.456635 -1.747415 0.379712 1
16.123714 -14.255437 0.504533 13
16.016953 -14.261526 0.503085 13
15.946162 -14.299003 0.501647 13
15.848530 -14.312097 0.500208 13
15.765831 -14.338103 0.498771 13
15.679159 -14.365112 0.497264 13
15.583228 -14.378122 0.495834 13
15.473755 -14.372990 0.494485 13
15.390845 -14.391809 0.493132 13
15.314224 -14.421128 0.491704 13
15.233223 -14.445971 0.490280 12
15.123237 -14.442874 0.488878 12
15.035136 -14.459925 0.487465 12
14.955745 -14.484862 0.486046 12
14.882106 -14.514993 0.484624 12
14.789843 -14.526616 0.483222 12
14.693089 -14.528182 0.481905 12
14.609583 -14.547309 0.480501 12
14.530373 -14.570267 0.479092 12
14.444125 -14.585763 0.477696 12
14.355136 -14.597992 0.476308 12
14.278851 -14.622620 0.474901 12
14.188606 -14.632575 0.473521 12
14.135160 -14.628778 0.472848 12
14.025072 -14.668432 0.470738 12
13.948904 -14.691558 0.469338 12
13.875315 -14.711896 0.468012 12
13.779974 -14.713949 0.466661 12
13.706651 -14.738886 0.465260 11
13.622432 -14.751768 0.463888 11
13.557277 -14.784823 0.462467 11
13.465040 -14.788108 0.461123 11
13.381021 -14.799807 0.459760 11
13.305036 -14.814699 0.458456 11
13.230435 -14.830739 0.457150 11
13.158674 -14.860028 0.455673 11
13.073627 -14.874009 0.454242 15
12.992534 -14.881500 0.452965 15
12.916796 -14.894645 0.451673 11
12.837218 -14.913474 0.450231 11
12.765501 -14.935744 0.448843 11
12.691188 -14.954654 0.447467 11
12.603964 -14.957974 0.446148 11
12.528467 -14.974636 0.444782 11
12.451726 -14.989420 0.443424 11
12.377591 -15.006928 0.442056 11
12.309927 -15.026569 0.440745 11
12.250659 -15.008002 0.440171 11
12.156742 -15.053760 0.438043 11
12.073954 -15.059048 0.436729 11
12.008788 -15.085790 0.435324 11
11.934867 -15.101306 0.433967 11
11.849982 -15.097145 0.432763 11
11.792081 -15.137637 0.431230 11
11.712115 -15.144287 0.429915 11
11.638366 -15.158474 0.428566 11
11.558783 -15.159195 0.427346 11
11.490015 -15.179068 0.425971 11
11.424871 -15.203429 0.424573 11
11.351290 -15.216330 0.423232 11
11.289986 -15.239741 0.421901 11
11.207849 -15.245968 0.420531 11
11.134405 -15.257897 0.419196 10
11.069269 -15.280809 0.417802 10
11.002936 -15.301833 0.416417 18
10.933090 -15.317709 0.415060 18
10.861296 -15.324863 0.413815 14
10.782272 -15.327081 0.412535 14
10.710272 -15.338748 0.411203 18
10.652065 -15.369775 0.409758 18
10.581240 -15.382504 0.408418 14
10.541864 -15.382993 0.407784 14
10.439021 -15.400249 0.405850 21
10.375753 -15.428781 0.404350 21
10.299487 -15.432011 0.403069 21
10.236653 -15.454856 0.401665 21
10.165438 -15.458991 0.400443 18
10.093807 -15.467941 0.399128 18
10.028800 -15.486629 0.397748 21
9.972487 -15.518477 0.396280 21
9.903094 -15.529936 0.394946 18
9.822986 -15.524240 0.393729 18
9.758018 -15.541830 0.392353 18
9.689379 -15.547290 0.391124 18
9.631399 -15.569433 0.389778 21
9.567936 -15.594733 0.388282 21
9.494585 -15.597652 0.387007 21
9.429657 -15.613914 0.385636 21
9.368871 -15.636757 0.384216 18
9.303926 -15.652507 0.382845 18
9.234897 -15.661119 0.381528 21
9.163888 -15.665996 0.380240 21
9.095695 -15.668965 0.379029 21
9.036906 -15.693996 0.377584 21
8.972806 -15.703365 0.376322 21
8.939399 -15.708743 0.375654 21
8.843179 -15.731421 0.373598 21
8.776422 -15.741572 0.372265 21
8.716353 -15.756898 0.370953 25
8.656435 -15.778773 0.369522 25
8.594545 -15.796916 0.368120 18
8.511699 -15.782952 0.366924 18
8.443229 -15.788224 0.365630 17
8.388048 -15.817892 0.364126 17
8.329901 -15.835301 0.362788 14
8.270827 -15.857496 0.361343 14
8.207996 -15.872381 0.359960 21
8.140576 -15.871380 0.358780 21
8.080568 -15.884336 0.357475 21
8.026871 -15.916300 0.355934 21
7.960423 -15.923094 0.354618 21
7.892234 -15.926041 0.353338 21
7.826792 -15.934080 0.352010 24
7.765671 -15.957582 0.350474 24
7.702890 -15.970503 0.349097 21
7.640116 -15.983180 0.347722 21
7.577347 -15.995614 0.346347 21
7.511156 -16.000578 0.345042 21
7.458645 -16.034229 0.343458 21
7.422157 -16.029257 0.342877 21
7.340352 -16.058483 0.340827 21
7.272572 -16.058846 0.339564 21
7.210667 -16.071676 0.338175 24
7.152043 -16.091568 0.336713 24
7.084416 -16.091150 0.335456 21
7.025373 -16.117313 0.333862 21
6.957839 -16.116375 0.332608 21
6.897982 -16.124952 0.331319 21
6.839722 -16.136988 0.329991 21
6.781769 -16.157375 0.328510 21
6.725310 -16.181240 0.326989 21
6.659535 -16.182756 0.325705 21
6.596884 -16.191404 0.324343 21
6.538795 -16.210920 0.322861 21
6.476150 -16.219107 0.321500 21
6.420964 -16.245617 0.319935 21
6.358302 -16.253349 0.318575 21
6.295666 -16.260841 0.317217 21
6.241691 -16.281904 0.315767 21
6.177621 -16.285217 0.314452 21
6.119297 -16.303234 0.312968 73
6.053169 -16.300455 0.311720 73
5.992723 -16.312405 0.310302 99
5.962150 -16.317358 0.309604 99
5.873862 -16.341272 0.307400 122
5.759264 -16.363470 0.304695 21
5.696763 -16.368677 0.303346 21
5.638253 -16.384977 0.301862 21
5.581007 -16.404848 0.300330 21
5.521106 -16.416948 0.298891 21
5.459909 -16.425041 0.297498 21
5.406662 -16.447126 0.295995 21
5.346065 -16.456692 0.294579 21
5.287950 -16.473642 0.293068 24
5.230396 -16.492289 0.291532 24
5.167922 -16.495491 0.290189 21
5.109091 -16.509903 0.288701 21
5.049037 -16.520287 0.287262 21
4.988434 -16.538984 0.285647 21
4.931814 -16.560413 0.284058 21
4.870520 -16.566320 0.282668 21
4.814406 -16.578819 0.281256 21
4.756488 -16.595814 0.279715 21
4.697404 -16.608761 0.278224 21
4.639382 -16.625345 0.276682 21
4.582046 -16.633211 0.275319 24
4.550851 -16.633621 0.274652 24
4.464196 -16.659582 0.272310 24
4.402566 -16.674204 0.270715 24
4.315577 -16.581520 0.270665 10
4.202952 -16.387833 0.272033 10
4.144067 -16.384527 0.270835 13
4.093244 -16.424376 0.268963 13
4.107877 -16.725931 0.263384 21
4.053288 -16.755987 0.261616 21
3.992951 -16.750179 0.260421 21
3.933506 -16.760414 0.258929 21
3.876799 -16.782114 0.257267 21
3.820894 -16.807520 0.255547 21
3.761292 -16.817142 0.254051 21
3.698155 -16.810949 0.252785 21
3.638568 -16.820137 0.251292 21
3.581518 -16.840839 0.249624 21
3.526473 -16.856806 0.248090 24
3.469242 -16.877129 0.246419 24
3.407047 -16.873756 0.245100 24
3.350101 -16.895632 0.243397 24
3.294822 -16.910843 0.241859 24
3.235369 -16.920565 0.240332 24
3.178161 -16.941860 0.238624 24
3.146702 -16.937704 0.237996 24
3.053529 -16.947060 0.235704 21
2.998628 -16.981512 0.233777 21
2.938613 -16.988224 0.232278 21
2.882029 -17.014425 0.230468 21
2.821928 -17.020725 0.228969 17
2.761159 -17.022869 0.227533 17
2.705971 -17.040098 0.225922 24
2.648356 -17.061573 0.224168 24
2.589386 -17.074949 0.222540 28
2.529447 -17.082193 0.221007 28
2.473362 -17.094715 0.219455 28
2.413947 -17.105509 0.217857 28
2.358608 -17.123589 0.216205 24
2.296088 -17.134399 0.214527 24
2.236245 -17.142595 0.212959 28
2.176375 -17.150583 0.211391 28
2.117497 -17.166294 0.209689 28
2.058289 -17.179819 0.208019 28
1.999736 -17.199095 0.206247 24
1.938499 -17.196325 0.204846 24
1.881902 -17.206903 0.203286 21
1.822691 -17.221603 0.201579 21
1.764043 -17.242064 0.199765 24
1.735620 -17.261168 0.198702 24
1.644392 -17.262487 0.196481 28
1.585071 -17.278358 0.194732 28
1.525474 -17.292034 0.193017 28
1.465981 -17.307497 0.191265 28
0.719817 8.749880 0.390555 31
0.750118 8.745020 0.391360 31
0.782775 8.763935 0.391869 28
0.814752 8.774771 0.392480 28
0.846392 8.781512 0.393140 31
0.876993 8.778201 0.393922 31
0.907130 8.770809 0.394751 23
0.941190 8.797079 0.395176 23
0.972806 8.801378 0.395865 23
1.005698 8.815487 0.396437 23
1.036402 8.823717 0.397042 26
1.069730 8.827472 0.397774 26
1.102364 8.837254 0.398398 28
1.135081 8.846915 0.399024 28
1.168443 8.860415 0.399607 28
1.197486 8.854224 0.400376 28
1.228565 8.861784 0.400990 28
1.261554 8.870977 0.401622 28
1.294316 8.878072 0.402277 26
1.330586 8.896647 0.402844 26
1.363459 8.893365 0.403650 25
1.396097 8.898110 0.404331 25
1.430469 8.912593 0.404908 30
1.448720 8.925696 0.405134 30
1.495403 8.935807 0.406053 25
1.525469 8.924325 0.406904 25
1.558746 8.930442 0.407570 22
1.596607 8.951863 0.408116 22
1.628554 8.949860 0.408866 25
1.665504 8.973255 0.409358 25
1.695988 8.971317 0.410071 25
1.728838 8.972878 0.410784 25
1.764552 8.988029 0.411362 25
1.801217 9.006953 0.411905 25
1.836045 9.024112 0.412431 27
1.867358 9.009186 0.413341 27
1.900044 9.008166 0.414078 25
1.938449 9.032394 0.414575 25
1.971907 9.041225 0.415183 22
2.009505 9.053100 0.415836 22
2.042884 9.053512 0.416560 25
2.078154 9.061581 0.417213 25
2.112398 9.071841 0.417811 25
2.147838 9.079641 0.418467 25
2.182873 9.085365 0.419143 25
2.220052 9.092489 0.419843 25
2.255229 9.097936 0.420522 25
2.276693 9.108907 0.420826 25
2.329372 9.121954 0.421767 25
2.366352 9.132774 0.422402 25
2.399224 9.128014 0.423169 22
2.434759 9.132771 0.423855 22
2.473624 9.155169 0.424359 22
2.510438 9.163488 0.425018 22
2.549001 9.177428 0.425631 22
2.582654 9.173930 0.426387 22
2.615849 9.174617 0.427072 22
2.657435 9.191472 0.427702 22
2.696997 9.206717 0.428310 25
2.734938 9.216063 0.428965 25
2.771198 9.219524 0.429667 22
2.806316 9.219029 0.430398 22
2.845923 9.237970 0.430947 25
2.886460 9.248097 0.431637 25
2.924257 9.254774 0.432317 22
2.962763 9.263199 0.432985 22
2.995319 9.258725 0.433709 22
3.036863 9.270103 0.434393 22
3.078852 9.287530 0.435000 22
3.120349 9.302887 0.435624 22
3.154433 9.301640 0.436327 22
3.175940 9.311064 0.436628 22
3.236683 9.327753 0.437612 22
3.278003 9.340549 0.438259 22
3.315340 9.341896 0.438983 22
3.355496 9.350602 0.439659 22
3.394356 9.355393 0.440362 25
3.439639 9.376870 0.440959 25
3.478708 9.381324 0.441666 23
3.517652 9.389980 0.442311 23
3.559588 9.405938 0.442912 21
3.600567 9.409263 0.443666 21
3.642930 9.420500 0.444336 21
3.684671 9.429700 0.445019 21
3.724127 9.437533 0.445675 21
3.761540 9.435280 0.446426 21
3.805087 9.447669 0.447095 19
3.850416 9.459182 0.447807 19
3.895105 9.468646 0.448533 21
3.942874 9.494038 0.449100 21
3.977446 9.487972 0.449838 21
4.016059 9.486572 0.450588 21
4.061927 9.501508 0.451253 21
4.112031 9.520995 0.451935 21
4.158227 9.535503 0.452608 21
4.180592 9.536460 0.453014 21
4.246112 9.552974 0.454017 19
4.291057 9.563240 0.454716 19
4.335297 9.575895 0.455368 19
4.378802 9.582146 0.456090 19
4.419881 9.587186 0.456780 16
4.461856 9.589459 0.457521 16
4.509955 9.604179 0.458209 19
4.564308 9.631282 0.458846 19
4.613642 9.647338 0.459534 19
4.649009 9.634459 0.460345 19
4.696800 9.646525 0.461052 19
4.747313 9.659321 0.461797 19
4.796297 9.672727 0.462504 19
4.849977 9.694816 0.463181 19
4.894721 9.698863 0.463929 19
4.932184 9.688514 0.464730 19
4.982781 9.707258 0.465388 19
5.037881 9.725754 0.466127 19
5.086788 9.736053 0.466859 20
5.136021 9.750563 0.467540 20
5.181602 9.757817 0.468248 18
5.233777 9.772727 0.468971 18
5.281301 9.778628 0.469726 15
5.322504 9.813015 0.470008 15
5.379596 9.795030 0.471226 18
5.435055 9.809770 0.471999 18
5.491948 9.830424 0.472720 15
5.544081 9.842124 0.473469 15
5.590645 9.847643 0.474198 18
5.637012 9.848504 0.474979 18
5.692564 9.864686 0.475724 15
5.753389 9.889207 0.476451 15
5.803189 9.894526 0.477228 13
5.858249 9.908190 0.477988 13
5.907258 9.911325 0.478774 15
5.961572 9.922772 0.479544 15
6.030711 9.957809 0.480270 15
6.082251 9.963588 0.481058 15
6.138525 9.980391 0.481787 15
6.189935 9.981196 0.482629 15
6.243982 9.989618 0.483419 15
6.306786 10.011263 0.484190 15
6.367650 10.029228 0.484972 15
6.417823 10.030117 0.485782 15
6.472902 10.041963 0.486537 14
6.534286 10.059078 0.487330 14
6.600296 10.082550 0.488120 18
6.640049 10.104143 0.488505 18
6.714036 10.100286 0.489743 15
6.766064 10.101298 0.490566 15
6.833997 10.125175 0.491371 15
6.897134 10.137602 0.492232 15
6.952978 10.142719 0.493060 13
7.027298 10.173783 0.493874 13
7.070173 10.163210 0.494675 15
7.140309 10.187076 0.495502 15
7.199058 10.194311 0.496340 14
7.264963 10.210995 0.497179 14
7.340476 10.240287 0.498019 16
7.395025 10.240121 0.498870 16
7.459155 10.252580 0.499721 14
7.528233 10.271137 0.500577 14
7.597531 10.289337 0.501437 14
7.667048 10.307178 0.502302 14
7.729530 10.315098 0.503169 15
7.783076 10.314547 0.503993 15
7.863533 10.348628 0.504834 15
7.933862 10.365077 0.505716 15
8.006863 10.384314 0.506605 15
8.057182 10.370297 0.507519 15
8.135505 10.395110 0.508421 17
8.195253 10.429397 0.508937 17
8.282943 10.430996 0.510229 15
8.354483 10.445247 0.511137 15
8.424400 10.460609 0.512006 10
8.500702 10.475718 0.512969 10
8.576674 10.493462 0.513896 10
8.657992 10.516950 0.514837 10
8.728748 10.530808 0.515724 13
8.798950 10.539704 0.516653 13
8.879685 10.560429 0.517606 11
8.963273 10.583755 0.518569 11
4.045648 4.674662 0.510229 1
3.995299 4.585608 0.510440 1
4.037985 4.601068 0.510885 1
3.997599 4.524367 0.511108 1
4.002547 4.498252 0.511447 1
4.058765 4.528137 0.511930 1
4.186979 3.977700 0.519039 1
4.200798 3.962750 0.519357 1
4.213878 3.948503 0.519657 1
4.227595 3.933459 0.519972 1
4.241260 3.918367 0.520286 1
4.248073 3.910803 0.520442 1
4.267755 3.888801 0.520893 1
4.281263 3.873569 0.521202 1
4.294718 3.858290 0.521510 1
4.308120 3.842964 0.521816 1
4.321469 3.827592 0.522121 1
4.277122 3.762642 0.522132 1
4.308447 3.762956 0.522523 1
4.330672 3.755340 0.522868 1
4.327762 3.727785 0.523069 1
4.298376 3.675671 0.523151 1
4.301904 3.652673 0.523392 1
4.351641 3.667837 0.523879 1
4.363743 3.653091 0.524153 1
4.361534 3.624140 0.524369 1
4.361662 3.598541 0.524585 1
4.355420 3.567986 0.524762 1
4.369375 3.553694 0.525051 3
4.378573 3.535631 0.525311 3
4.392423 3.521248 0.525596 1
4.414121 3.512950 0.525925 1
4.391491 3.470319 0.525997 1
4.435284 3.478993 0.526453 1
4.447361 3.463178 0.526724 1
4.478878 3.474590 0.527009 1
4.496349 3.451425 0.527400 1
4.524369 3.447345 0.527764 1
4.558848 3.447868 0.528167 1
4.612733 3.462395 0.528690 1
4.624752 3.445961 0.528957 1
5.283554 3.460304 0.536379 25
5.363028 3.484517 0.537099 1
5.545315 3.585475 0.538442 1
5.593829 3.576043 0.539042 2
5.881288 3.727416 0.541209 2
5.876565 3.697084 0.541357 2
14.825350 9.012635 0.604774 25
14.788041 8.919425 0.604963 3
14.887817 8.908304 0.606115 3
25.524813 14.048158 0.688598 25
25.887474 14.135118 0.691910 8
26.206652 14.184061 0.694978 8
26.580494 14.265665 0.698425 8
26.937550 14.335464 0.701758 8
27.268120 14.394692 0.704867 8
27.619188 14.517617 0.707835 8
28.042967 14.552355 0.712031 9
28.456629 14.640159 0.715826 9
28.856976 14.718002 0.719529 9
29.260788 14.788106 0.723302 9
29.680803 14.869568 0.727175 9
30.142149 14.974839 0.731339 9
30.615288 15.082499 0.735605 10
31.030016 15.144812 0.739500 10
31.481642 15.221646 0.743688 10
31.974890 15.321643 0.748174 10
32.508987 15.437200 0.752988 11
32.986328 15.522038 0.757373 11
33.464657 15.603731 0.761775 11
33.973019 15.695655 0.766420 11
34.391449 15.742709 0.770371 11
34.847954 15.811253 0.774594 11
36.222328 16.128479 0.786771 25
15.872703 6.735142 0.627618 25
15.905150 6.647156 0.628295 31
15.918964 6.587489 0.628671 31
15.946239 6.536633 0.629138 52
15.942219 6.466615 0.629374 52
15.905205 6.386919 0.629326 35
15.916199 6.326649 0.629662 35
15.934419 6.269290 0.630053 45
15.943890 6.211795 0.630356 45
15.971832 6.161458 0.630807 73
15.981173 6.097596 0.631125 73
16.018353 6.044271 0.631667 69
16.033688 5.985928 0.632015 69
16.056320 5.930305 0.632419 113
16.054321 5.865732 0.632618 113
16.067999 5.810143 0.632930 111
16.108871 5.761073 0.633474 111
16.129736 5.707993 0.633839 120
16.161840 5.652450 0.634314 120
16.166300 5.590498 0.634546 59
16.193251 5.536297 0.634961 59
16.226650 5.487368 0.635416 35
16.251360 5.432275 0.635806 35
16.340494 5.398266 0.636728 100
16.408176 5.293201 0.637643 128
16.439859 5.239810 0.638077 128
38.358635 10.295712 0.825439 12
28.922195 6.855989 0.747071 25
28.937759 6.710096 0.747405 16
28.947311 6.605641 0.747623 16
28.987719 6.508179 0.748098 33
29.026962 6.405005 0.748562 33
29.076469 6.309251 0.749102 25
29.089369 6.210845 0.749317 25
29.139132 6.120199 0.749842 16
29.185743 6.023376 0.750338 16
29.275166 5.935004 0.751195 8
29.346672 5.842583 0.751893 8
6.547339 1.133529 0.556899 25
6.434411 1.068788 0.555942 25
6.303752 1.024694 0.554825 1
6.228203 0.990109 0.554179 1
6.093171 0.947074 0.553022 1
5.938545 0.912881 0.551696 1
5.864013 0.869872 0.551054 13
5.795684 0.839044 0.550465 13
5.699474 0.804895 0.549636 6
5.622922 0.774078 0.548974 6
5.558126 0.745355 0.548412 6
5.481295 0.715586 0.547745 6
5.404325 0.686363 0.547077 8
5.339023 0.660057 0.546508 8
5.277579 0.634655 0.545971 8
5.208184 0.607844 0.545365 8
5.142643 0.581959 0.544791 8
5.061076 0.554857 0.544079 8
4.999281 0.530366 0.543536 8
4.957367 0.507396 0.543161 8
4.891380 0.483344 0.542580 9
4.843212 0.461399 0.542151 9
4.792884 0.440473 0.541704 11
4.726673 0.416853 0.541119 11
4.678228 0.396004 0.540685 8
4.619664 0.375549 0.540166 8
4.565006 0.355783 0.539680 9
4.494424 0.333651 0.539055 9
4.435715 0.312842 0.538532 9
4.392383 0.301301 0.538150 9
4.345794 0.277290 0.537721 11
4.298779 0.259087 0.537297 11
4.247697 0.241002 0.536838 9
4.184596 0.221935 0.536275 9
4.141392 0.204250 0.535880 13
4.096087 0.187532 0.535469 13
4.068675 0.172557 0.535211 14
4.039237 0.156974 0.534933 14
4.141645 0.146572 0.535771 1
4.118107 0.131111 0.535541 1
4.142478 0.117769 0.535717 1
3.914907 0.097289 0.533764 1
3.847201 0.082066 0.533162 1
3.823432 0.067968 0.532930 1
3.815604 0.054900 0.532833 3
3.789739 0.041060 0.532583 3
3.781824 0.027483 0.532482 3
3.777863 0.013290 0.532413 3
3.719853 -0.000057 0.531892 1
3.647799 -0.012912 0.531253 1
3.591707 -0.024777 0.530751 1
3.603562 -0.037782 0.530813 1
3.535385 -0.049556 0.530208 1
3.465290 -0.054611 0.529606 1
3.428914 -0.072381 0.529248 11
3.402616 -0.083963 0.528992 11
3.380296 -0.094878 0.528771 20
3.355904 -0.106782 0.528529 20
3.343484 -0.118360 0.528387 31
3.331026 -0.129853 0.528245 31
3.320554 -0.140754 0.528120 34
3.294038 -0.151418 0.527861 34
3.265492 -0.161796 0.527585 35
3.240909 -0.172196 0.527342 35
3.230270 -0.183239 0.527213 30
3.215603 -0.193964 0.527050 30
3.208884 -0.205110 0.526952 33
3.182176 -0.214840 0.526690 33
3.171398 -0.225539 0.526559 36
3.162580 -0.236316 0.526442 36
3.155719 -0.247193 0.526341 40
3.146830 -0.257860 0.526223 40
3.119973 -0.266921 0.525960 38
3.103052 -0.276692 0.525776 38
3.094067 -0.287091 0.525656 38
3.083058 -0.297239 0.525520 38
3.072073 -0.306761 0.525386 38
3.047640 -0.309845 0.525165 38
3.037969 -0.325414 0.525015 41
3.012926 -0.333687 0.524765 41
3.017669 -0.345196 0.524752 45
3.010452 -0.355338 0.524644 45
2.981429 -0.362248 0.524365 47
2.968137 -0.372014 0.524206 47
2.960835 -0.381920 0.524096 55
2.957466 -0.392304 0.524016 55
2.969989 -0.404285 0.524064 72
2.938811 -0.410834 0.523765 72
2.937400 -0.420874 0.523703 121
2.935801 -0.431965 0.523632 121
2.940095 -0.443940 0.523607 134
2.946400 -0.455726 0.523599 134
2.938912 -0.464862 0.523487 139
2.937237 -0.475430 0.523416 139
2.943506 -0.486757 0.523409 138
2.947583 -0.498862 0.523377 138
2.943818 -0.509124 0.523288 138
2.943959 -0.520053 0.523228 138
2.946028 -0.531341 0.523182 169
2.944121 -0.541934 0.523105 169
2.956040 -0.554542 0.523136 152
2.958982 -0.560593 0.523126 152
2.953888 -0.576700 0.522987 175
2.943973 -0.585779 0.522847 175
2.949826 -0.597402 0.522828 140
2.963367 -0.611198 0.522863 140
2.965097 -0.622662 0.522807 141
2.949172 -0.630434 0.522620 141
2.946919 -0.641037 0.522534 126
2.946583 -0.652059 0.522462 126
2.948160 -0.663518 0.522403 78
2.963351 -0.678075 0.522443 78
2.966902 -0.689533 0.522400 55
2.970286 -0.701557 0.522351 55
2.975697 -0.713537 0.522320 56
2.980804 -0.726633 0.522278 56
2.989874 -0.740186 0.522267 56
2.977530 -0.748530 0.522101 56
2.978745 -0.760205 0.522032 55
2.989605 -0.774366 0.522031 55
2.992659 -0.786611 0.521973 55
2.997599 -0.799393 0.521928 55
3.002487 -0.812220 0.521881 55
2.991875 -0.820926 0.521723 55
3.008397 -0.836410 0.521760 55
3.003058 -0.840754 0.521681 55
3.013968 -0.861259 0.521630 52
3.016834 -0.873187 0.521568 52
3.011967 -0.882930 0.521452 52
3.020194 -0.897653 0.521416 52
3.034269 -0.913605 0.521424 53
3.034859 -0.925650 0.521338 53
3.029827 -0.935426 0.521217 52
3.037813 -0.950375 0.521175 52
3.049722 -0.966035 0.521162 50
3.053928 -0.979388 0.521096 50
3.052536 -0.990413 0.520996 47
3.062175 -1.006218 0.520959 47
3.060511 -1.017834 0.520851 43
3.064684 -1.030780 0.520785 43
3.080188 -1.047563 0.520793 52
3.087661 -1.063012 0.520736 52
3.082005 -1.073450 0.520598 50
3.080096 -1.085166 0.520483 50
3.093247 -1.102160 0.520464 55
3.100662 -1.117261 0.520406 55
3.111776 -1.133772 0.520371 55
3.106086 -1.143702 0.520233 55
3.107881 -1.156348 0.520141 57
3.122740 -1.168124 0.520180 57
3.127565 -1.189679 0.520039 53
3.138331 -1.206543 0.519993 53
3.134067 -1.217802 0.519854 52
3.137229 -1.231920 0.519759 52
3.149872 -1.249133 0.519726 45
3.154767 -1.264088 0.519639 45
3.167258 -1.281473 0.519602 44
3.170158 -1.295808 0.519500 44
3.171144 -1.309428 0.519385 39
3.188736 -1.329880 0.519367 39
3.198830 -1.347419 0.519302 45
3.205150 -1.363506 0.519214 45
3.209554 -1.378877 0.519113 44
3.212295 -1.392937 0.519007 44
3.226007 -1.411759 0.518963 44
3.230203 -1.427296 0.518856 44
3.254489 -1.451689 0.518861 39
3.240220 -1.459316 0.518647 39
3.246293 -1.475230 0.518553 35
3.259333 -1.495062 0.518489 35
3.274096 -1.515829 0.518432 34
3.288755 -1.536717 0.518372 34
3.292415 -1.552694 0.518250 31
3.306010 -1.566171 0.518251 31
3.321240 -1.594996 0.518116 28
3.349946 -1.623189 0.518120 28
3.365870 -1.645553 0.518054 40
3.363383 -1.659947 0.517882 40
3.375509 -1.680759 0.517792 72
3.386036 -1.700185 0.517699 72
3.419764 -1.731255 0.517721 73
3.445550 -1.760222 0.517682 73
3.448278 -1.777058 0.517534 63
3.429546 -1.783041 0.517279 63
3.434257 -1.800182 0.517146 3
23.967171 -12.452902 0.615915 3
23.822498 -12.483993 0.614086 14
23.668640 -12.514641 0.612161 14
23.527664 -12.545845 0.610357 13
23.381475 -12.573382 0.608533 13
23.249456 -12.607662 0.606778 13
23.112667 -12.633297 0.605063 13
22.960190 -12.649499 0.603280 13
22.829678 -12.687357 0.601485 13
22.697929 -12.718502 0.599746 19
22.564499 -12.747901 0.598002 19
22.420710 -12.770599 0.596218 19
22.302814 -12.755383 0.595132 19
22.157740 -12.827449 0.592766 12
22.022911 -12.852720 0.591032 12
21.902506 -12.880452 0.589420 12
21.760965 -12.900152 0.587667 12
21.631584 -12.926186 0.585967 12
21.498859 -12.949415 0.584258 12
21.385061 -12.983265 0.582625 12
21.257629 -13.008148 0.580944 12
21.133696 -13.034395 0.579279 12
21.016638 -13.064149 0.577644 12
20.872490 -13.076299 0.575913 12
20.743750 -13.097188 0.574243 12
20.645523 -13.136616 0.572684 17
20.530422 -13.164749 0.571068 17
20.381748 -13.170586 0.569341 11
20.271873 -13.200583 0.567751 11
20.162676 -13.225346 0.566226 17
20.044542 -13.248645 0.564615 17
19.942146 -13.276632 0.563118 11
19.815845 -13.293117 0.561488 11
19.686356 -13.306648 0.559852 16
19.568602 -13.327299 0.558257 16
19.487268 -13.372120 0.556772 11
19.391329 -13.356473 0.555870 11
19.250443 -13.409242 0.553594 10
19.155962 -13.443423 0.552076 10
19.037664 -13.455346 0.550559 16
18.931108 -13.484839 0.548951 16
18.821342 -13.511406 0.547337 15
18.705000 -13.522608 0.545839 15
18.600126 -13.541405 0.544372 10
18.492216 -13.567321 0.542773 10
18.378685 -13.583476 0.541229 10
18.287762 -13.615682 0.539738 10
18.155949 -13.611923 0.538228 10
18.065962 -13.648628 0.536680 10
17.960804 -13.668419 0.535168 10
17.873219 -13.700990 0.533693 10
17.772167 -13.717810 0.532260 15
17.660894 -13.731088 0.530747 15
17.552147 -13.740680 0.529309 14
17.447424 -13.757700 0.527815 14
17.371037 -13.796487 0.526369 14
17.269562 -13.814973 0.524886 14
17.152569 -13.820405 0.523385 14
17.051308 -13.837758 0.521911 14
16.956341 -13.859623 0.520447 14
16.891838 -13.856455 0.519697 14
24.128046 -21.477177 1.635040 9
28.273558 -26.237465 1.839182 9
28.069401 -26.222466 1.831154 7
27.802773 -26.156582 1.820247 7
27.619503 -26.350843 1.815004 9
25.278597 -24.293173 1.705509 6
23.442953 -22.692726 1.619779 6
23.392273 -22.802662 1.618880 19
24.597038 -24.141186 1.677893 19
26.815466 -26.486683 1.785424 7
24.531502 -24.407341 1.677947 7
23.316092 -23.364666 1.621376 10
23.823530 -24.038765 1.647317 10
23.148199 -23.523380 1.616518 5
23.653734 -24.203850 1.642463 5
23.624886 -24.343941 1.642747 5
23.710428 -24.517307 1.647716 5
26.242695 -27.412821 1.772671 7
25.683365 -27.018593 1.747519 7
25.568890 -27.077868 1.743778 14
25.436552 -27.317854 1.741197 7
23.824629 -25.953260 1.666495 12
50.259342 -57.004131 2.980244 39
44.526558 -58.183086 2.781205 35
43.918850 -57.807346 2.754826 35
41.237457 -59.926311 2.682444 9
33.908272 -60.506920 2.432274 9
33.249409 -61.324036 2.420025 9
8.141378 -24.157738 1.095250 20
7.926843 -23.799801 1.083522 20
7.812497 -23.720062 1.078821 27
7.775908 -23.888088 1.080019 27
7.785247 -24.200655 1.084680 20
7.825540 -24.616367 1.091756 20
7.662097 -24.399963 1.083630 17
7.618177 -24.558556 1.084489 17
7.510504 -24.514690 1.080530 14
7.420016 -24.540516 1.078090 14
7.275330 -24.371389 1.071233 8
7.131915 -24.201555 1.064411 8
7.056140 -24.240753 1.062629 25
6.965894 -24.246393 1.059934 25
6.172174 -21.801313 1.000960 26
6.073138 -21.742279 0.997090 26
5.971371 -21.656725 0.992764 42
6.141806 -22.416710 1.008760 42
5.994402 -22.339119 1.003165 25
5.948234 -22.494564 1.003974 25
6.904292 -26.426052 1.089019 3
4.199277 -16.433882 0.864527 3
4.140261 -16.430613 0.862696 13
4.080903 -16.437553 0.861005 13
5.509695 -22.399792 0.989365 22
5.300504 -21.887243 0.975735 22
5.232604 -21.924465 0.974232 47
5.030555 -21.417850 0.960911 47
4.947055 -21.398647 0.958141 4
4.865556 -21.386915 0.955542 4
5.021934 -22.417896 0.975040 15
4.878887 -22.146875 0.966886 15
5.340408 -24.606867 1.016050 23
5.268893 -24.692154 1.015166 23
4.743649 -22.633057 0.969905 30
5.681726 -27.497257 1.067896 30
4.435709 -21.939756 0.950810 21
4.351550 -21.918219 0.948029 21
4.251895 -21.797544 0.943361 4
4.495709 -23.449297 0.974456 4
4.112038 -21.892199 0.940651 21
4.200754 -22.567430 0.953048 21
4.494971 -24.847851 0.994763 31
3.903977 -22.075508 0.937275 31
3.801764 -21.947586 0.932455 33
3.834254 -22.589548 0.942752 33
3.689334 -22.214792 0.933111 47
3.608807 -22.210131 0.930728 47
4.135549 -26.486362 1.008317 9
3.716255 -24.404692 0.965888 16
3.636763 -24.455427 0.964364 16
3.380078 -23.288897 0.939976 2
3.303938 -23.336523 0.938513 2
2.902410 -21.064974 0.893827 14
3.633867 -26.925196 1.000492 14
3.255567 -24.827488 0.959023 17
3.170181 -24.848967 0.956936 17
3.088989 -24.903872 0.955462 23
2.997114 -24.875164 0.952465 23
2.701393 -23.152647 0.918852 37
2.564099 -22.679653 0.908059 37
2.510994 -22.883078 0.909576 65
2.332525 -22.725763 0.902304 14
2.342663 -23.205297 0.909656 14
1.951633 -22.946005 0.895064 9
0.715193 8.784919 0.697654 18
0.747327 8.797961 0.698797 18
0.777989 8.794968 0.699582 18
0.809658 8.801813 0.700592 18
0.842648 8.820475 0.701878 20
0.872519 8.809197 0.702480 20
0.907258 8.841530 0.704091 16
0.936914 8.828048 0.704647 16
0.969586 8.840274 0.705803 18
1.002601 8.854363 0.707007 18
1.032671 8.856626 0.707895 20
1.067410 8.870276 0.709142 20
1.098322 8.866165 0.709930 18
1.130857 8.873830 0.711000 18
1.163460 8.881375 0.712072 18
1.195727 8.896942 0.713295 18
1.228403 8.914370 0.714569 18
1.260967 8.919580 0.715599 18
1.292664 8.918743 0.716485 18
1.327809 8.929394 0.717701 18
1.364335 8.947800 0.719112 16
1.396828 8.950540 0.720098 16
1.429358 8.953162 0.721085 20
1.446314 8.958370 0.721676 20
1.493145 8.968450 0.723227 18
1.527591 8.980559 0.724463 18
1.561779 8.990571 0.725652 16
1.595043 8.986403 0.726535 16
1.629740 8.998121 0.727777 16
1.664156 9.007745 0.728970 16
1.697088 9.017550 0.730126 16
1.732470 9.030836 0.731424 16
1.765550 9.032234 0.732422 16
1.799072 9.035468 0.733471 16
1.832728 9.046737 0.734685 20
1.870483 9.061103 0.736082 20
1.907218 9.077616 0.737493 18
1.938412 9.068619 0.738241 18
1.971979 9.077421 0.739410 18
2.010145 9.091210 0.740817 18
2.045481 9.099375 0.742030 17
2.080900 9.107404 0.743246 17
2.111048 9.100137 0.744006 19
2.148007 9.113735 0.745380 19
2.184119 9.123306 0.746652 17
2.221918 9.132332 0.747967 17
2.261705 9.155168 0.749613 17
2.279253 9.150625 0.750055 17
2.328032 9.148151 0.751483 14
2.368716 9.172462 0.753192 14
2.405400 9.181166 0.754476 19
2.443769 9.195507 0.755924 19
2.475821 9.192812 0.756850 15
2.511120 9.195321 0.757978 15
2.549776 9.209226 0.759432 15
2.588002 9.221052 0.760835 15
2.626427 9.238953 0.762363 15
2.663084 9.238492 0.763484 15
2.699898 9.244116 0.764729 17
2.740294 9.261065 0.766306 17
2.778476 9.270205 0.767666 17
2.817354 9.281099 0.769083 17
2.851097 9.280915 0.770129 15
2.887494 9.277665 0.771200 15
2.929708 9.297615 0.772902 15
2.968349 9.305987 0.774271 15
3.007986 9.322332 0.775827 15
3.045278 9.320366 0.776960 15
3.082262 9.322591 0.778166 17
3.125161 9.341681 0.779883 17
3.163313 9.351716 0.781279 17
3.187538 9.368654 0.782368 17
3.241176 9.364516 0.783987 15
3.277864 9.364096 0.785144 15
3.324163 9.389832 0.787106 17
3.362398 9.392845 0.788381 17
3.408362 9.416317 0.790293 17
3.443276 9.409639 0.791282 17
3.487417 9.427129 0.793027 19
3.528643 9.441323 0.794618 19
3.567114 9.447891 0.795979 17
3.611880 9.460461 0.797657 17
3.649251 9.458611 0.798827 17
3.692591 9.471467 0.800470 17
3.735910 9.488511 0.802192 17
3.779531 9.500992 0.803841 17
3.826330 9.520678 0.805730 15
3.864993 9.515464 0.806890 15
3.907544 9.519309 0.808348 15
3.950761 9.533584 0.810026 15
3.995690 9.551350 0.811827 15
4.040862 9.564531 0.813552 15
4.083776 9.572016 0.815100 17
4.128463 9.578580 0.816690 17
4.174835 9.592995 0.818485 15
4.203833 9.608499 0.819729 15
4.268033 9.621201 0.822084 15
4.308202 9.620448 0.823399 15
4.355960 9.640272 0.825348 14
4.403893 9.655475 0.827220 14
4.446048 9.662207 0.828746 14
4.499405 9.687833 0.830995 14
4.538328 9.682549 0.832196 4
4.583354 9.689713 0.833832 4
4.631112 9.702070 0.835657 3
4.683422 9.723183 0.837797 3
4.747479 9.767330 0.840755 1
23.517342 45.589478 2.125851 9
23.251965 44.713440 2.100989 11
23.529909 44.467350 2.105989 11
29.152754 54.612823 2.480412 11
29.398190 54.635025 2.489186 18
29.653629 54.651005 2.498201 18
24.463646 44.744045 2.142850 11
30.132227 54.844433 2.518057 11
26.596859 47.041550 2.257193 13
26.933533 47.249889 2.272512 13
31.578403 54.946053 2.569654 20
26.872698 45.670879 2.242435 9
33.342281 55.296185 2.637093 22
33.601597 55.288231 2.646007 22
33.894745 55.333645 2.657052 22
34.471432 55.422981 2.678819 23
34.804062 55.502216 2.691881 23
35.104500 55.548759 2.703257 24
35.394932 55.577030 2.713977 24
35.649212 55.546799 2.722423 24
36.190285 55.552959 2.741656 24
31.203505 47.195538 2.421100 13
36.788685 55.406887 2.760365 13
37.107193 55.255901 2.769107 25
37.411980 55.290974 2.780566 25
40.094776 57.075382 2.906857 30
40.524986 57.260639 2.925440 30
40.757080 57.163879 2.932161 30
41.157166 57.299782 2.948859 30
41.497669 57.349442 2.961977 31
41.761200 57.290905 2.970518 31
41.794975 56.918922 2.965528 31
41.876663 56.614845 2.963421 31
42.604767 56.764183 2.992331 9
42.807400 56.621002 2.997331 32
43.014252 56.503696 3.002927 32
43.220795 56.385639 3.008513 32
43.507793 56.350914 3.018421 32
43.822109 56.349552 3.029890 32
44.250469 56.470989 3.047560 32
38.699120 46.658630 2.684167 9
4.091783 4.833414 0.732195 9
4.103333 4.812749 0.732299 56
4.113469 4.790562 0.732329 56
4.102303 4.744421 0.731186 100
4.102837 4.711842 0.730696 100
4.105866 4.682291 0.730347 100
4.118125 4.663153 0.730509 100
4.138376 4.652853 0.731110 16
4.406229 3.823321 0.729155 9
4.418847 3.808375 0.729442 1
4.432736 3.791808 0.729757 1
4.415155 3.750450 0.728496 1
4.403509 3.714346 0.727542 1
4.412674 3.696878 0.727664 1
4.407544 3.665210 0.727029 1
4.415607 3.645708 0.727082 3
4.436067 3.636191 0.727760 3
4.444003 3.616622 0.727809 4
4.462836 3.605713 0.728407 4
4.461204 3.578685 0.727980 9
4.475208 3.563989 0.728338 9
4.489165 3.549239 0.728695 16
4.501489 3.533218 0.728971 16
4.507399 3.512310 0.728929 1
4.538972 3.523605 0.730333 1
4.537519 3.485706 0.729778 52
4.552825 3.471906 0.730207 52
4.561667 3.453285 0.730317 116
4.584929 3.445295 0.731141 116
4.600119 3.431296 0.731567 120
4.623361 3.423092 0.732390 120
4.642764 3.413263 0.733040 116
4.651360 3.394384 0.733143 116
4.674557 3.385885 0.733965 118
4.692848 3.373816 0.734545 118
4.712167 3.363643 0.735193 108
4.739208 3.356247 0.736186 108
4.760797 3.321294 0.736617 63
5.833168 3.729525 0.784981 1
5.808801 3.685558 0.783468 1
34.880741 15.838236 2.115715 9
34.976791 15.741713 2.118782 7
15.911683 6.654769 1.233588 42
15.907057 6.587428 1.232769 42
15.993550 6.560679 1.236156 15
16.017450 6.501636 1.236619 15
15.950927 6.409781 1.232983 34
15.956441 6.347096 1.232648 34
15.974741 6.289543 1.232900 40
15.708501 6.125112 1.220213 40
15.706302 6.064064 1.219578 81
15.713436 6.000412 1.219316 81
15.714705 5.934685 1.218793 100
15.729669 5.877349 1.218925 100
15.757556 5.824800 1.219647 100
15.787148 5.772809 1.220450 100
15.806170 5.720082 1.220804 100
15.824122 5.663845 1.221085 100
15.840899 5.610333 1.221344 100
15.874531 5.556448 1.222316 100
15.895683 5.501290 1.222753 94
15.950704 5.457619 1.224724 94
16.241440 5.495975 1.237364 4
16.307899 5.454629 1.239845 4
16.332500 5.399178 1.240441 35
16.438227 5.306253 1.244186 1
16.433754 5.241241 1.243481 1
16.467171 5.188255 1.244485 38
93.339455 22.602934 4.652755 9
6.327086 1.005764 0.781882 9
6.190261 0.962076 0.775754 3
6.093110 0.936303 0.771430 3
5.993065 0.888749 0.766870 3
5.887276 0.852161 0.762121 3
5.791203 0.817682 0.757803 3
5.663277 0.779645 0.752093 3
5.594600 0.750253 0.748985 9
5.521824 0.720848 0.745701 9
5.462795 0.693670 0.743022 9
5.401547 0.667636 0.740254 9
5.324310 0.640167 0.736790 9
5.258971 0.613630 0.733845 9
5.195499 0.587775 0.730986 10
5.141849 0.563422 0.728558 10
5.072191 0.537825 0.725434 9
5.010461 0.512616 0.722656 9
4.924663 0.486478 0.718835 9
4.868593 0.463678 0.716314 9
4.812350 0.442131 0.713791 9
4.754171 0.419101 0.711181 9
4.689848 0.396857 0.708308 9
4.625366 0.375891 0.705435 9
4.582717 0.356984 0.703515 9
4.516191 0.335060 0.700552 9
4.481467 0.315761 0.698976 9
4.418242 0.302833 0.696191 9
4.357744 0.277845 0.693480 11
4.320750 0.260156 0.691815 11
4.279696 0.242516 0.689975 11
4.236616 0.224312 0.688046 11
4.169509 0.205328 0.685075 11
4.130240 0.188755 0.683319 11
4.090879 0.173190 0.681563 11
4.055481 0.157306 0.679978 11
4.012012 0.142133 0.678047 15
3.962517 0.126368 0.675854 15
3.922933 0.111904 0.674095 12
3.997194 0.098789 0.677271 12
4.129335 0.086914 0.682959 1
4.129579 0.072174 0.682927 1
4.133759 0.058215 0.683068 1
4.133904 0.043460 0.683033 1
4.205928 0.029023 0.686113 1
4.154020 0.013225 0.683823 1
4.086071 -0.001415 0.680842 1
4.042049 -0.015730 0.678899 1
3.570405 -0.024942 0.658449 1
3.538296 -0.037312 0.657028 1
3.508142 -0.049491 0.655693 15
3.486058 -0.055374 0.654723 15
3.441722 -0.073078 0.652763 21
3.423435 -0.084929 0.651945 21
3.411119 -0.096225 0.651388 23
3.402720 -0.108795 0.650998 23
3.382318 -0.120247 0.650092 21
3.347904 -0.130984 0.648581 21
3.329453 -0.141596 0.647763 24
3.312938 -0.152777 0.647027 24
3.292395 -0.163640 0.646119 24
3.277804 -0.174689 0.645469 24
3.255198 -0.185172 0.644473 24
3.232560 -0.195500 0.643477 24
3.227837 -0.206845 0.643255 27
3.211114 -0.217336 0.642517 27
3.192365 -0.227568 0.641691 28
3.171593 -0.237522 0.640779 28
3.158760 -0.247965 0.640211 29
3.141910 -0.257992 0.639470 29
3.131003 -0.268420 0.638986 32
3.118073 -0.278596 0.638416 32
3.091184 -0.287383 0.637244 30
3.066262 -0.296180 0.636158 30
3.063243 -0.306453 0.636019 34
3.056723 -0.311351 0.635733 34
3.045066 -0.326769 0.635216 41
3.027985 -0.335956 0.634472 41
3.016834 -0.345709 0.633984 43
3.011606 -0.356092 0.633752 43
3.006410 -0.365902 0.633522 45
2.997082 -0.376265 0.633114 45
2.985807 -0.385772 0.632623 47
2.972523 -0.394942 0.632046 47
2.967205 -0.404567 0.631814 50
2.973658 -0.416346 0.632089 50
2.972229 -0.426511 0.632026 51
2.966655 -0.437162 0.631784 51
2.953141 -0.446592 0.631201 51
2.963381 -0.459040 0.631642 51
2.957862 -0.468551 0.631405 56
2.964067 -0.480463 0.631674 56
2.950594 -0.488655 0.631095 54
2.952689 -0.500466 0.631188 54
2.954830 -0.511767 0.631283 55
2.952992 -0.522401 0.631208 55
2.962919 -0.535135 0.631641 55
2.949204 -0.543648 0.631055 55
2.951283 -0.554461 0.631150 55
2.958150 -0.561244 0.631449 55
2.962865 -0.579255 0.631664 55
2.960792 -0.589917 0.631582 55
2.958787 -0.600038 0.631504 55
2.956641 -0.610685 0.631420 55
2.962284 -0.622947 0.631674 55
2.967879 -0.635256 0.631926 55
2.969517 -0.646773 0.632008 54
2.963304 -0.656605 0.631752 54
2.960960 -0.667267 0.631663 54
2.978072 -0.682319 0.632415 54
2.971865 -0.691605 0.632161 47
2.971346 -0.702750 0.632153 47
2.970912 -0.713365 0.632149 47
2.970186 -0.725055 0.632134 47
2.977310 -0.738108 0.632459 48
2.982440 -0.750740 0.632698 48
2.999148 -0.766339 0.633438 48
2.986740 -0.774657 0.632921 48
3.011068 -0.792408 0.633992 24
3.031444 -0.809324 0.634893 24
3.042084 -0.823822 0.635374 28
3.060378 -0.840487 0.636188 28
3.047905 -0.848302 0.635670 48
3.054110 -0.855904 0.635950 48
3.061078 -0.875611 0.636288 54
3.065814 -0.888252 0.636517 54
3.074341 -0.902041 0.636911 52
3.061389 -0.910839 0.636379 52
3.065822 -0.924111 0.636598 25
3.075943 -0.939147 0.637065 25
3.084254 -0.953130 0.637452 25
3.090255 -0.967703 0.637744 25
3.086826 -0.978807 0.637626 24
3.096699 -0.994102 0.638086 24
3.100969 -1.007100 0.638302 22
3.112436 -1.023708 0.638834 22
3.122107 -1.039233 0.639287 18
3.109125 -1.046753 0.638758 18
3.109396 -1.058631 0.638803 19
3.124392 -1.076759 0.639493 19
3.133816 -1.092508 0.639939 25
3.146948 -1.109643 0.640548 25
3.143022 -1.120944 0.640417 28
3.140941 -1.132897 0.640367 28
3.159514 -1.152253 0.641215 28
3.166921 -1.167107 0.641577 28
3.174264 -1.182022 0.641937 30
3.172180 -1.187721 0.641868 30
3.173145 -1.208163 0.641979 30
3.187573 -1.226610 0.642653 30
3.194442 -1.242324 0.642999 32
3.203107 -1.258819 0.643424 32
3.200746 -1.270466 0.643367 31
3.205558 -1.285610 0.643627 31
3.208676 -1.299489 0.643811 30
3.224490 -1.319187 0.644552 30
3.232798 -1.336009 0.644967 38
3.233631 -1.349879 0.645057 38
3.238101 -1.365298 0.645306 47
3.257258 -1.386921 0.646199 47
3.268938 -1.405591 0.646766 52
3.271584 -1.419860 0.646936 52
3.261318 -1.428643 0.646543 33
3.263613 -1.443521 0.646703 33
3.265845 -1.458432 0.646862 27
3.269842 -1.474184 0.647098 27
3.272206 -1.488580 0.647261 23
3.257845 -1.496217 0.646696 23
3.263488 -1.512861 0.647007 31
3.272688 -1.531228 0.647476 31
3.294497 -1.555551 0.648500 28
3.304447 -1.567355 0.648971 28
3.305186 -1.589379 0.649107 27
3.310415 -1.606378 0.649407 27
3.337189 -1.633804 0.650655 27
3.352730 -1.656814 0.651415 27
3.368442 -1.679357 0.652181 26
3.373580 -1.696124 0.652480 26
3.392964 -1.720056 0.653407 21
3.408041 -1.743567 0.654154 21
3.435787 -1.772911 0.655457 13
3.468711 -1.805195 0.656991 13
3.468007 -1.819737 0.657040 1
29.723900 -20.856960 1.851424 9
29.322954 -20.722048 1.834330 12
29.303835 -20.870314 1.834670 12
28.759111 -20.642933 1.811136 6
28.742380 -20.775969 1.811473 6
28.776840 -20.946693 1.814151 12
28.922476 -21.215298 1.822029 12
28.285120 -20.901520 1.794162 6
28.751196 -21.400816 1.816629 6
28.462360 -21.333673 1.804593 6
29.006588 -21.907253 1.830770 6
28.866253 -21.960447 1.825609 6
29.443680 -22.561501 1.853339 6
27.027596 -20.857838 1.743769 5
29.005810 -22.697241 1.837062 6
29.033258 -22.882744 1.839660 6
27.122927 -21.535261 1.753048 5
28.078962 -22.452644 1.798392 5
27.579672 -22.212994 1.776692 6
27.014845 -22.072504 1.753249 5
26.021564 -21.339228 1.707962 5
23.890591 -22.834930 2.797911 8
23.862581 -22.968403 2.800607 5
25.327744 -24.545069 2.947104 5
26.975870 -26.505350 3.118266 8
26.706005 -26.415823 3.098125 6
23.251274 -23.170221 2.768683 6
22.945944 -23.027399 2.744520 4
22.927296 -23.170141 2.748272 4
22.798656 -23.202215 2.741304 4
22.845968 -23.413303 2.751607 4
24.397615 -25.261475 2.913135 8
24.430756 -25.562454 2.925768 12
22.223804 -23.424170 2.713201 12
22.158356 -23.511246 2.712225 13
50.353207 -57.579556 5.669713 8
50.096573 -57.671631 5.657607 42
7.871544 -23.968199 1.967890 23
7.856319 -24.204647 1.978395 23
7.765628 -24.213369 1.974983 5
7.557378 -23.854776 1.949285 5
7.515653 -24.012793 1.955018 18
7.443117 -24.075525 1.954969 18
7.378488 -24.164751 1.956521 28
7.296282 -24.213099 1.955423 28
7.058753 -26.341732 2.047478 6
6.823435 -25.848978 2.014522 6
4.250770 -16.456312 1.461985 1
4.180737 -16.423130 1.457645 1
4.019575 -16.499416 1.455062 137
5.347996 -22.837122 1.812147 48
5.277362 -22.894960 1.812265 14
5.322183 -23.454605 1.841067 14
5.182379 -23.218363 1.824357 9
5.116537 -23.304951 1.826093 9
5.165827 -23.917980 1.857698 22
4.968898 -23.411228 1.825770 22
4.882523 -23.386963 1.821403 35
4.886608 -23.814793 1.842377 35
4.794621 -23.789099 1.837764 17
4.598681 -23.246246 1.804177 17
4.639191 -23.855320 1.835355 15
4.558184 -23.883560 1.833817 15
4.389031 -23.450552 1.806602 42
4.173537 -23.222954 1.787809 7
4.091391 -23.231909 1.785349 7
4.058820 -23.521816 1.798407 21
3.997425 -23.656309 1.802856 21
4.015732 -24.267187 1.833456 20
3.563116 -22.059019 1.709433 20
3.492824 -22.088854 1.708481 14
4.036781 -26.018646 1.920196 14
3.867646 -25.527786 1.890306 2
3.610805 -24.433804 1.827793 2
3.916918 -27.061756 1.967455 6
3.772475 -26.729797 1.946268 6
3.217954 -23.440035 1.765692 7
3.147240 -23.562918 1.769407 7
3.055442 -24.820333 1.828453 28
2.970742 -24.847137 1.827032 28
2.972659 -26.379864 1.902856 8
2.889421 -26.427700 1.902569 8
2.801280 -26.475786 1.902155 8
2.679690 -26.209759 1.885156 8
2.461648 -24.555834 1.796422 8
2.339710 -24.636608 1.796620 5
2.235559 -24.454176 1.784355 5
2.393434 -27.119518 1.921345 3
1.895266 -22.544107 1.679207 3
4.755169 53.334244 3.572614 25
4.948370 53.392273 3.581737 25
5.140480 53.433704 3.589950 25
5.331732 53.462524 3.597480 25
5.522625 53.484699 3.604669 25
5.712663 53.496269 3.611284 25
5.907075 53.544865 3.620099 25
6.098230 53.561016 3.627070 25
6.295002 53.622082 3.636711 25
6.478424 53.569466 3.639742 25
6.570098 52.865685 3.604249 12
6.782495 52.985172 3.617693 12
7.728937 53.141006 3.657527 25
7.163558 44.835529 3.186222 9
9.488116 53.393349 3.731700 8
10.299109 53.547417 3.768868 8
10.481972 53.539822 3.775038 39
10.682505 53.570812 3.783966 39
11.890702 53.731197 3.837066 8
13.127060 53.973217 3.896867 8
13.320612 53.947773 3.902953 13
13.534797 53.963760 3.912089 13
13.747791 54.012268 3.922954 13
11.902915 44.853867 3.362120 8
12.732118 46.647133 3.490433 8
13.103438 46.750389 3.510767 8
13.207101 45.889732 3.469310 8
13.853036 43.533020 3.371562 8
