# .PCD v.7 - Point Cloud Data file format
VERSION .7
FIELDS x y z intensity
SIZE 4 4 4 1
TYPE F F F U
COUNT 1 1 1 1
WIDTH 1491
HEIGHT 1
VIEWPOINT 0 0 0 1 0 0 0
POINTS 1491
DATA ascii
-20.512863 -14.030046 -0.420439 2
-17.935083 -12.135592 -0.227905 2
-17.942331 -12.062230 -0.225513 2
-17.987375 -12.011041 -0.225749 2
-18.381123 -12.114107 -0.248282 2
-18.452902 -12.079136 -0.250430 2
-20.969288 -13.674655 -0.429006 2
-20.784801 -13.461757 -0.412434 2
-20.848156 -13.409271 -0.413585 2
-20.908028 -13.354315 -0.414496 2
-20.652676 -13.095126 -0.392892 2
-20.587233 -12.960885 -0.384945 2
-20.625452 -12.893787 -0.384423 2
-20.813978 -12.917209 -0.394418 2
-20.990696 -12.936356 -0.403705 2
-20.691210 -12.662216 -0.379506 2
-20.867613 -12.680870 -0.388790 2
-20.910244 -12.611642 -0.388490 2
-20.950609 -12.545565 -0.388204 2
-21.005835 -12.492979 -0.389127 2
-21.028658 -12.416312 -0.387644 2
-21.085505 -12.360021 -0.388551 2
-20.753498 -12.074355 -0.362462 2
-18.451607 -10.640265 -0.200004 2
-18.454020 -10.564750 -0.197606 2
-18.494173 -10.511242 -0.197835 2
-18.591291 -10.486344 -0.201871 2
-18.895298 -10.581772 -0.220234 2
-19.005188 -10.565740 -0.225229 2
-21.028572 -11.618714 -0.361187 2
-21.065470 -11.552231 -0.360900 2
-21.119646 -11.495212 -0.361806 2
-21.156113 -11.428411 -0.361519 2
-20.837322 -11.170184 -0.337161 2
-20.844482 -11.089316 -0.334972 2
-20.854836 -11.010392 -0.333022 2
-20.822453 -10.909233 -0.328214 2
-20.856874 -10.843472 -0.327932 2
-20.979757 -10.823403 -0.333601 2
-21.033352 -10.762874 -0.334493 2
-21.065573 -10.699705 -0.334222 2
-14.950406 -7.538237 0.076197 1
-14.840896 -7.427034 0.085190 1
-14.777296 -7.339688 0.091089 1
-14.820801 -7.305597 0.089854 1
-14.781623 -7.231139 0.094085 1
-14.751801 -7.164456 0.097593 1
-14.794802 -7.130232 0.096358 1
-14.867655 -7.107203 0.093233 1
-14.923932 -7.081456 0.091040 1
-14.894330 -7.012747 0.094556 1
-15.046797 -7.025555 0.086212 1
-15.034996 -6.965066 0.088542 3
-15.052042 -6.917887 0.088973 3
-15.057983 -6.865767 0.090115 3
-15.089272 -6.825008 0.089598 3
-15.028041 -6.746225 0.094998 1
-14.812680 -6.600942 0.110352 1
-14.843094 -6.560930 0.109831 1
-14.995523 -6.570282 0.101501 1
-15.162881 -6.533418 0.093597 4
-15.193123 -6.492029 0.093082 4
-15.204768 -6.442911 0.093750 4
-15.216231 -6.393778 0.094419 10
-15.201583 -6.334195 0.096743 4
-15.142168 -6.257041 0.101905 1
-15.152951 -6.208206 0.102572 1
-15.110585 -6.141317 0.106539 1
-15.143291 -6.101283 0.105787 1
-15.164689 -6.056802 0.105744 1
-15.190543 -6.011345 0.105475 1
-15.222856 -5.970874 0.104724 1
-15.243813 -5.926076 0.104683 1
-15.272117 -5.883941 0.104169 1
-15.375366 -5.868885 0.098934 1
-15.219322 -5.760170 0.109987 1
-15.928261 -5.959577 0.066767 1
-18.439857 -6.785774 -0.089188 1
-18.433491 -6.719196 -0.087296 1
-18.713923 -6.751168 -0.103324 1
-20.944988 -7.446062 -0.240992 2
-20.967321 -7.379895 -0.240715 2
-20.990520 -7.310337 -0.240423 2
-21.030264 -7.253544 -0.241337 2
-21.051924 -7.187081 -0.241059 2
-20.827190 -7.038187 -0.225463 2
-20.905216 -6.990471 -0.228719 2
-20.925957 -6.924446 -0.228443 2
-20.946468 -6.858349 -0.228167 2
-20.947649 -6.786367 -0.226714 2
-20.986797 -6.725942 -0.227614 2
-21.043909 -6.674316 -0.229703 2
-21.005096 -6.594278 -0.225913 2
-20.902672 -6.489072 -0.218103 38
-20.860229 -6.405517 -0.214069 29
-13.872430 -4.320690 0.215293 1
-13.795318 -4.254938 0.220865 1
-13.552147 -4.144929 0.236528 1
-13.389376 -4.058272 0.247256 1
-13.334792 -3.999253 0.251418 1
-13.275554 -3.941642 0.255804 1
-13.296796 -3.907202 0.255256 3
-13.248237 -3.855087 0.258928 2
-12.995023 -3.748445 0.275037 1
-12.588992 -3.610440 0.300262 0
-12.446579 -3.536986 0.309552 0
-12.242043 -3.448021 0.322593 0
-12.052144 -3.365972 0.334684 0
-11.896825 -3.293325 0.344661 0
-11.756702 -3.225312 0.353698 0
-11.565183 -3.148707 0.365766 0
-11.412630 -3.080300 0.375495 0
-11.295201 -3.018923 0.383122 2
-11.290410 -2.983988 0.383958 4
-11.265939 -2.945050 0.385962 3
-11.104048 -2.879944 0.396138 1
-11.032190 -2.832442 0.400942 1
-10.815152 -2.756903 0.414388 0
-10.695417 -2.703376 0.421982 0
-10.599250 -2.653637 0.428178 0
-10.522747 -2.606761 0.433209 0
-10.551810 -2.581305 0.431931 0
-10.533630 -2.547225 0.433454 0
-10.578248 -2.524326 0.431244 0
-10.532548 -2.484097 0.434405 2
-10.545490 -2.455628 0.434061 4
-10.550210 -2.427284 0.434177 8
-10.527480 -2.392987 0.435931 17
-10.544062 -2.365076 0.435354 23
-10.528749 -2.333697 0.436634 10
-10.549798 -2.274375 0.436186 1
-10.538321 -2.242261 0.437239 0
-10.514857 -2.208586 0.438990 3
-10.503135 -2.176704 0.440042 7
-10.499209 -2.145968 0.440628 11
-10.495174 -2.115273 0.441214 22
-10.498953 -2.085614 0.441336 46
-10.490555 -2.055975 0.442148 30
-10.506023 -2.027741 0.441572 36
-10.505699 -1.996104 0.441931 30
-10.516999 -1.967292 0.441587 27
-10.528202 -1.938413 0.441244 24
-10.535335 -1.909053 0.441133 13
-10.585919 -1.885551 0.438463 38
-10.572998 -1.854030 0.439513 51
-10.579699 -1.825971 0.439397 18
-10.602352 -1.797817 0.438359 41
-10.601044 -1.767439 0.438713 13
-10.627610 -1.737898 0.437450 32
-10.626089 -1.707462 0.437804 30
-10.652334 -1.679168 0.436536 46
-10.658572 -1.649252 0.436427 44
-10.668586 -1.621090 0.436080 35
-10.686577 -1.591877 0.435276 35
-10.696498 -1.562050 0.434936 34
-10.710393 -1.530875 0.434371 29
-10.736053 -1.501787 0.433106 35
-10.757629 -1.472321 0.432072 35
-10.775117 -1.442518 0.431271 37
-10.780535 -1.412063 0.431164 8
-10.797816 -1.382069 0.430363 1
-10.830899 -1.354102 0.428632 1
-10.859956 -1.324234 0.427139 1
-10.880976 -1.292372 0.426115 1
-10.897804 -1.263358 0.425310 0
-10.918568 -1.232775 0.424281 1
-10.935234 -1.201969 0.423483 0
-11.031649 -1.172396 0.418071 0
-11.080049 -1.141511 0.415430 0
-11.116363 -1.110172 0.413482 0
-11.032771 -1.077814 0.418451 0
-11.148731 -1.046621 0.411893 0
3.221976 -0.576705 0.664384 41
3.235505 -0.594878 0.663676 45
3.244918 -0.612537 0.663181 46
3.250221 -0.629636 0.662901 47
3.251547 -0.647966 0.662826 47
3.264766 -0.665495 0.662121 48
3.273941 -0.683366 0.661626 50
3.299003 -0.700334 0.660288 68
3.288118 -0.719514 0.660845 71
3.297109 -0.737549 0.660349 76
3.306037 -0.755644 0.659853 72
3.314904 -0.773798 0.659357 67
3.319679 -0.791253 0.659075 48
3.316449 -0.809982 0.659211 40
3.321138 -0.828397 0.658925 49
3.321770 -0.846973 0.658850 65
3.330323 -0.865319 0.658354 65
3.346800 -0.883519 0.657435 67
3.355226 -0.902008 0.656937 64
3.371577 -0.920406 0.656017 65
3.387863 -0.938917 0.655097 64
3.408080 -0.957494 0.653965 63
3.432227 -0.976179 0.652622 62
3.448316 -0.994118 0.651704 62
3.460353 -1.013122 0.650993 59
3.476317 -1.032218 0.650071 56
3.492214 -1.051425 0.649148 54
3.512038 -1.070781 0.648013 51
3.527800 -1.090225 0.647089 39
12.836454 -1.464966 0.152517 1
12.387487 -1.703000 0.174825 1
12.823815 -1.775585 0.151277 1
12.821076 -1.827326 0.151071 1
12.818157 -1.879057 0.150865 1
12.815057 -1.930778 0.150659 1
12.811777 -1.982488 0.150453 1
12.780598 -2.029696 0.151745 1
12.777158 -2.078705 0.151550 1
12.566048 -2.117258 0.162392 1
12.506370 -2.163702 0.165167 1
12.765227 -2.233393 0.150935 1
12.723598 -2.387936 0.151802 1
12.730651 -2.440474 0.150960 1
12.725592 -2.491886 0.150756 1
12.720353 -2.543279 0.150552 1
12.639474 -2.586580 0.154398 1
12.741384 -2.646949 0.148450 1
12.735897 -2.695825 0.148257 1
12.729946 -2.747254 0.148054 1
12.489853 -2.770398 0.160438 1
12.927262 -2.878775 0.136327 1
12.480896 -2.874549 0.159815 1
12.645698 -2.999678 0.149806 1
12.741553 -3.065060 0.144050 1
12.750499 -3.116183 0.143003 1
12.873515 -3.186661 0.135747 1
12.747334 -3.220880 0.141956 1
12.700067 -3.266311 0.143892 1
12.727642 -3.323166 0.141765 1
12.739223 -3.377716 0.140494 1
12.742509 -3.481278 0.139030 1
12.781066 -3.540783 0.136258 1
12.775342 -3.643432 0.135221 1
12.761685 -3.696857 0.135223 1
12.987899 -3.791954 0.122162 1
12.762240 -3.803550 0.133748 1
12.756346 -3.855818 0.133332 1
12.754185 -3.908846 0.132701 1
12.826260 -3.976736 0.127995 1
12.827579 -4.030856 0.127149 1
12.790121 -4.074356 0.128459 1
12.814538 -4.133359 0.126326 1
12.838722 -4.192569 0.124191 1
12.847061 -4.248591 0.122915 1
12.801161 -4.290054 0.124657 1
13.093621 -4.409973 0.107693 1
12.968757 -4.436862 0.113722 1
12.898363 -4.475556 0.116744 24
12.878424 -4.525710 0.116971 31
12.823355 -4.567399 0.119136 28
12.748770 -4.604031 0.122377 6
12.754363 -4.714673 0.120255 1
12.765247 -4.769479 0.118774 1
12.821680 -4.838936 0.114697 1
12.819163 -4.896268 0.113840 1
12.809392 -4.948998 0.113424 1
12.818717 -5.006896 0.111931 1
12.836232 -5.064420 0.110016 1
12.833563 -5.119376 0.109169 1
12.845347 -5.181264 0.107449 1
12.807667 -5.226511 0.108543 1
12.816656 -5.282218 0.107058 1
12.801677 -5.333913 0.106859 1
12.798772 -5.386365 0.106022 1
12.791082 -5.440284 0.105391 1
12.798489 -5.498831 0.103896 1
12.794209 -5.553972 0.103048 1
12.793540 -5.610322 0.101985 1
12.788847 -5.665525 0.101138 1
12.787754 -5.721961 0.100075 1
12.847282 -5.798024 0.095551 1
12.849491 -5.856007 0.094271 1
12.855268 -5.915314 0.092773 1
12.834290 -5.965876 0.092791 1
12.832062 -6.022735 0.091726 1
12.826720 -6.075760 0.090888 1
12.793867 -6.122276 0.091556 1
12.794811 -6.180464 0.090275 1
12.810596 -6.244034 0.088128 1
12.796943 -6.294462 0.087723 1
12.823520 -6.362332 0.084925 1
12.834791 -6.424983 0.082992 1
12.844851 -6.490368 0.081050 1
12.833139 -6.544942 0.080418 1
12.810987 -6.592695 0.080448 1
12.836232 -6.661397 0.077646 1
12.812710 -6.711720 0.077666 1
12.818803 -6.773511 0.075949 1
12.802336 -6.826663 0.075535 1
12.826522 -6.895957 0.072732 1
12.881108 -6.974770 0.068200 1
12.857565 -7.022590 0.068230 1
12.843905 -7.077435 0.067598 1
12.831111 -7.129670 0.066977 1
12.830730 -7.193198 0.065466 1
12.842217 -7.258860 0.063312 1
12.854527 -7.322084 0.061168 1
12.864357 -7.390648 0.059003 1
12.833564 -7.441914 0.059232 1
12.829344 -7.501653 0.057948 1
12.807756 -7.550794 0.057762 1
12.818848 -7.614478 0.055616 1
12.820067 -7.680210 0.053887 1
12.825815 -7.745101 0.051948 1
12.794974 -7.793488 0.052189 1
12.783298 -7.847538 0.051350 1
12.781084 -7.909225 0.049847 1
12.777405 -7.973558 0.048335 1
12.767462 -8.031952 0.047268 1
12.796913 -8.109345 0.043802 1
12.773311 -8.158376 0.043618 1
12.771089 -8.217825 0.042124 1
12.774536 -8.283440 0.040184 1
12.759814 -8.340294 0.039336 1
12.741302 -8.395346 0.038706 1
12.776072 -8.477351 0.034799 1
12.715652 -8.508197 0.036801 1
12.735605 -8.583229 0.033768 1
12.712649 -8.636456 0.033357 1
12.703663 -8.697011 0.032071 1
12.689548 -8.758299 0.030995 1
12.725924 -8.843258 0.026867 1
12.677389 -8.883298 0.027988 1
12.684979 -8.953468 0.025609 1
12.630517 -8.986843 0.027178 1
12.620111 -9.047477 0.025893 1
12.605965 -9.106201 0.024828 1
12.589521 -9.160431 0.023991 1
12.583323 -9.220514 0.022497 1
12.603238 -9.298947 0.019240 1
12.549965 -9.335999 0.020585 1
12.565824 -9.412661 0.017547 1
12.602046 -9.501570 0.013194 1
12.517192 -9.520201 0.016513 1
12.511497 -9.585035 0.014790 1
12.529552 -9.664228 0.011532 1
12.475300 -9.700517 0.012880 1
12.506424 -9.788181 0.008744 1
12.485949 -9.845000 0.007899 1
12.455043 -9.895513 0.007712 1
12.440942 -9.956426 0.006428 1
12.417994 -10.008492 0.005812 1
12.420337 -10.080014 0.003431 1
12.435853 -10.160209 0.000170 1
12.387012 -10.199803 0.001083 1
12.371665 -10.260769 -0.000200 1
12.339309 -10.310881 -0.000385 1
12.333531 -10.378346 -0.002327 1
12.340803 -10.454665 -0.005149 1
12.302767 -10.497758 -0.004884 1
12.296156 -10.565370 -0.006826 1
12.262736 -10.615216 -0.007009 1
12.295264 -10.709764 -0.011593 1
12.277831 -10.770868 -0.012875 1
12.273307 -10.841024 -0.015039 1
12.238925 -10.890789 -0.015221 1
12.227290 -10.956442 -0.016943 1
12.218637 -11.024431 -0.018887 1
12.199907 -11.085552 -0.020169 1
12.190674 -11.153627 -0.022112 1
12.194107 -11.231090 -0.024937 1
12.163390 -11.280448 -0.025328 1
12.153284 -11.348660 -0.027272 1
12.126785 -11.405100 -0.028112 1
12.096854 -11.459104 -0.028732 1
12.069920 -11.515412 -0.029572 1
12.113009 -11.624443 -0.035266 1
12.060840 -11.739664 -0.037167 5
12.013819 -11.781384 -0.036682 18
11.960361 -11.818020 -0.035754 18
11.908708 -11.851986 -0.034816 9
11.864514 -11.895541 -0.034549 3
11.848391 -11.961205 -0.036270 1
11.881980 -12.066677 -0.041526 1
11.868253 -12.135051 -0.043468 1
11.884144 -12.223617 -0.047391 1
11.869733 -12.292166 -0.049333 1
11.859212 -12.368230 -0.051726 1
11.839981 -12.429370 -0.053218 1
11.824640 -12.498023 -0.055160 1
11.796732 -12.556458 -0.056218 1
11.782830 -12.622725 -0.058151 1
11.764565 -12.693831 -0.060102 1
11.733816 -12.754581 -0.061167 1
11.701840 -12.810266 -0.062002 1
11.713971 -12.900096 -0.065927 1
11.678424 -12.953147 -0.066541 1
11.660675 -13.021911 -0.068482 1
11.633639 -13.082756 -0.069759 1
11.624237 -13.159500 -0.072365 1
11.632299 -13.252330 -0.076301 1
11.570901 -13.278730 -0.074909 1
11.530968 -13.328715 -0.075298 1
11.505576 -13.392060 -0.076795 1
11.471100 -13.447254 -0.077627 1
11.465663 -13.529540 -0.080676 2
11.439400 -13.592840 -0.082172 6
11.392509 -13.636939 -0.082115 4
11.359962 -13.694607 -0.083167 4
11.326510 -13.747117 -0.083988 2
11.290625 -13.801865 -0.084817 4
11.240175 -13.842625 -0.084536 6
11.186744 -13.880399 -0.084031 6
11.110414 -13.895570 -0.081750 8
11.045498 -13.921598 -0.080355 5
10.977157 -13.939429 -0.078506 15
10.912223 -13.964857 -0.077109 13
10.841649 -13.984315 -0.075266 13
10.768296 -14.000590 -0.073200 18
10.694986 -14.016513 -0.071132 16
10.630064 -14.040682 -0.069729 18
10.562357 -14.061680 -0.068103 15
10.491897 -14.079478 -0.066254 15
10.418715 -14.094048 -0.064180 18
10.351066 -14.114077 -0.062551 20
10.282987 -14.128735 -0.060690 28
10.204494 -14.136445 -0.058167 26
10.142359 -14.161368 -0.056979 24
10.072098 -14.177190 -0.055122 26
10.001876 -14.192680 -0.053263 24
9.931692 -14.207842 -0.051403 24
9.864219 -14.225645 -0.049764 30
9.799426 -14.246119 -0.048347 26
9.734634 -14.266301 -0.046929 26
9.672162 -14.284156 -0.045502 26
9.607382 -14.303768 -0.044082 26
9.540285 -14.325104 -0.042667 24
9.467694 -14.335046 -0.040575 24
9.402695 -14.348724 -0.038921 26
9.337987 -14.367141 -0.037496 28
9.278439 -14.391374 -0.036515 21
9.213732 -14.409230 -0.035088 22
9.146484 -14.423727 -0.033436 22
9.076730 -14.434839 -0.031560 21
9.016975 -14.452971 -0.030345 22
8.950004 -14.471580 -0.028920 26
6.096233 -11.108929 0.217191 1
6.030363 -11.095122 0.220002 1
5.980266 -11.104302 0.221248 1
5.930202 -11.113256 0.222494 1
5.882630 -11.125133 0.223518 1
5.791731 -11.150064 0.225350 3
5.723037 -11.137286 0.228158 2
5.690077 -11.167367 0.227846 12
5.654599 -11.194150 0.227757 7
5.626198 -11.230408 0.226998 19
5.578012 -11.236396 0.228255 18
5.535191 -11.253139 0.228838 14
5.468776 -11.237466 0.231658 11
5.418420 -11.239554 0.233141 3
5.371018 -11.249187 0.234174 31
5.323640 -11.258615 0.235208 100
5.278598 -11.271091 0.236018 114
5.233558 -11.283380 0.236830 116
5.193100 -11.302023 0.237195 111
5.109810 -11.413046 0.234490 1
5.142617 -11.535678 0.227700 12
4.955852 -11.334150 0.242843 1
4.931317 -11.379493 0.241417 1
4.886267 -11.390317 0.242235 2
4.840840 -11.396425 0.243281 1
4.796195 -11.411403 0.243872 1
4.750814 -11.417135 0.244920 1
4.705472 -11.422682 0.245968 2
4.658349 -11.429204 0.247013 2
4.613724 -11.443423 0.247607 2
4.571211 -11.460835 0.247978 2
4.523847 -11.462247 0.249254 2
4.485243 -11.481563 0.249406 2
4.440307 -11.490530 0.250231 2
4.397468 -11.502722 0.250832 2
4.352554 -11.511325 0.251659 2
4.315885 -11.533437 0.251589 2
4.270959 -11.541698 0.252417 2
4.226053 -11.549773 0.253245 3
4.185209 -11.564554 0.253626 3
4.142162 -11.571201 0.254459 3
4.101291 -11.585662 0.254841 3
4.058408 -11.596499 0.255448 3
4.013551 -11.603695 0.256280 2
3.968718 -11.610705 0.257113 3
3.941353 -11.644384 0.256155 2
3.884935 -11.634655 0.258107 3
3.843990 -11.648134 0.258493 2
3.801110 -11.657951 0.259104 3
3.758232 -11.667599 0.259716 3
3.721021 -11.687634 0.259655 2
3.683730 -11.703023 0.259822 3
3.642668 -11.715734 0.260212 3
3.597885 -11.721211 0.261050 3
3.554971 -11.730052 0.261665 3
3.515716 -11.745827 0.261832 3
3.478295 -11.760502 0.262002 3
3.438958 -11.775996 0.262170 3
3.397701 -11.792290 0.262335 2
3.356503 -11.803913 0.262729 2
3.315410 -11.810870 0.263351 2
3.277701 -11.829359 0.263296 2
3.234709 -11.836932 0.263916 2
3.269449 -12.006378 0.254425 5
3.255061 -12.075203 0.251226 6
3.102401 -11.851418 0.266230 2
3.066241 -11.872782 0.265954 5
3.031671 -11.897651 0.265454 11
2.992234 -11.907018 0.265855 23
2.939569 -11.887156 0.268056 3
2.917995 -11.940748 0.265759 29
2.861937 -11.917730 0.268183 16
2.851303 -11.996735 0.264313 5
2.795330 -11.973360 0.266739 9
2.753880 -11.982705 0.267142 40
2.711185 -11.983734 0.267997 11
2.724484 -12.121379 0.260529 13
2.747737 -12.285011 0.251486 15
2.585322 -12.006671 0.269437 17
2.541964 -12.016023 0.269840 7
2.509591 -12.046597 0.268897 5
2.484988 -12.091104 0.267057 2
2.520634 -12.292027 0.255764 7
2.397255 -12.096164 0.268548 6
2.349792 -12.089145 0.269857 5
2.311118 -12.104261 0.269816 6
2.276695 -12.130425 0.269101 5
2.239299 -12.149019 0.268837 3
2.199008 -12.160013 0.269023 3
2.164827 -12.181361 0.268537 2
2.127216 -12.199578 0.268274 2
2.090897 -12.221420 0.267787 2
2.054477 -12.243146 0.267300 1
2.042143 -12.332447 0.262761 1
2.015928 -12.384143 0.260474 1
1.961258 -12.483624 0.256125 2
1.957361 -12.603199 0.249786 1
2.010185 -12.893151 0.233312 1
3.123603 -16.546488 0.017929 40
3.063171 -16.545296 0.019012 34
3.012873 -16.565804 0.018747 35
2.954928 -16.571793 0.019381 35
2.898201 -16.581377 0.019791 34
2.843840 -16.598381 0.019751 50
2.789419 -16.615196 0.019712 42
2.733781 -16.627998 0.019899 43
2.674675 -16.629126 0.020763 43
2.622412 -16.653009 0.020276 34
2.567802 -16.669052 0.020240 37
2.504292 -16.654202 0.022008 45
2.458416 -16.700562 0.020171 34
2.403641 -16.716030 0.020138 32
2.351555 -16.730549 0.020106 29
2.295624 -16.741793 0.020300 30
2.240035 -16.765144 0.019817 24
2.187086 -16.787571 0.019336 34
2.133021 -16.805956 0.019081 35
2.076882 -16.816422 0.019278 37
2.025450 -16.833725 0.019026 37
1.969241 -16.843807 0.019224 40
1.914927 -16.861444 0.018972 55
1.857705 -16.867256 0.019398 42
1.802351 -16.880627 0.019373 37
1.747869 -16.897690 0.019124 35
1.697898 -16.921703 0.018425 35
1.643247 -16.938408 0.018178 37
1.583989 -16.947760 0.018380 39
1.529220 -16.964075 0.018134 37
1.474380 -16.980200 0.017889 35
1.418635 -16.992233 0.017870 48
1.368107 -17.015207 0.017176 43
1.312240 -17.026867 0.017158 43
1.256333 -17.038334 0.017142 37
1.199605 -17.045689 0.017351 35
1.146705 -17.072437 0.016434 37
1.091395 -17.087246 0.016194 34
1.037344 -17.093487 0.016407 32
0.980579 -17.116293 0.015717 34
0.925075 -17.130531 0.015480 35
0.871608 -17.156372 0.014566 40
0.815937 -17.170233 0.014331 43
0.759533 -17.179966 0.014321 43
0.703753 -17.193441 0.014087 39
0.652030 -17.214142 0.013403 35
0.599566 -17.230736 0.012945 34
0.543570 -17.243658 0.012713 35
0.484077 -17.252874 0.012707 34
0.429157 -17.273296 0.012026 35
0.373548 -17.289583 0.011571 34
0.316730 -17.297770 0.011568 35
0.262079 -17.321583 0.010663 34
0.205685 -17.333338 0.010436 35
0.149757 -17.348860 0.009985 35
0.093748 -17.364187 0.009534 39
0.038151 -17.383287 0.008858 37
-0.019472 -17.386339 0.009086 43
-0.074762 -17.409019 0.008186 35
-0.128680 -17.419283 0.007964 35
-0.184631 -17.437626 0.007291 35
-0.241113 -17.451805 0.006845 34
-0.296849 -17.473736 0.005949 39
-0.354704 -17.475609 0.006181 37
-0.411017 -17.493179 0.005512 45
-0.471867 -17.462839 0.007550 6
-1.202446 -9.922108 0.435332 3
-1.246546 -9.773639 0.443906 10
-1.284342 -9.688655 0.448872 12
-1.322165 -9.595551 0.454290 20
-1.358126 -9.518220 0.458806 25
-1.390669 -9.480577 0.461068 28
-1.423761 -9.430857 0.464006 33
-1.456239 -9.384995 0.466720 39
-1.487183 -9.334934 0.469658 41
-1.517841 -9.308766 0.471245 41
-1.548309 -9.282486 0.472832 42
-1.578384 -9.260082 0.474193 41
-1.608677 -9.229592 0.476006 41
-1.638929 -9.195001 0.478045 43
-1.668447 -9.172271 0.479408 41
-1.697802 -9.149433 0.480771 44
-1.726725 -9.134474 0.481684 46
-1.754247 -9.115377 0.482821 50
-1.781099 -9.116149 0.482832 50
-1.809273 -9.120857 0.482619 56
-1.839290 -9.105531 0.483534 60
-1.868868 -9.110060 0.483322 61
-1.895702 -9.110451 0.483334 62
-1.923912 -9.114759 0.483122 61
-1.952245 -9.102996 0.483812 59
-2.040028 -9.785962 0.445318 6
-2.066289 -9.246645 0.475759 1
-2.094827 -9.230391 0.476676 0
-2.121584 -9.198086 0.478495 1
-2.151490 -9.193594 0.478738 3
-2.179763 -9.181038 0.479431 4
-2.208459 -9.188346 0.478998 5
-2.237208 -9.195554 0.478566 2
-2.265881 -9.198668 0.478359 2
-2.295153 -9.217647 0.477251 3
-2.322499 -9.220613 0.477044 2
-2.351812 -9.235399 0.476163 2
-2.379980 -9.254135 0.475056 3
-2.410759 -9.264654 0.474402 3
-2.440606 -9.283111 0.473296 1
-2.488938 -9.624424 0.453948 1
-2.517774 -9.602734 0.455097 3
-2.545702 -9.568991 0.456922 5
-2.570448 -9.491327 0.461224 1
-2.584185 -9.286220 0.472731 1
-2.614815 -9.308027 0.471403 5
-2.643129 -9.297868 0.471878 47
-2.672997 -9.307515 0.471227 54
-2.702265 -9.309096 0.471026 50
-2.732956 -9.326486 0.469926 47
-2.763778 -9.343762 0.468826 53
-2.793651 -9.365039 0.467500 53
-2.823566 -9.370168 0.467076 54
-2.855150 -9.391081 0.465753 54
-2.886471 -9.407904 0.464655 55
-2.916618 -9.412699 0.464233 56
-2.946362 -9.413418 0.464036 56
-2.976039 -9.426102 0.463163 56
-3.006806 -9.434541 0.462518 56
-3.037643 -9.442867 0.461872 62
-3.066077 -9.443343 0.461676 63
-3.097981 -9.447300 0.461258 61
-3.131521 -9.463012 0.460166 61
-3.162625 -9.470881 0.459522 62
-3.193436 -9.486753 0.458428 61
-3.222653 -9.490655 0.458009 62
-3.253973 -9.498188 0.457367 61
-3.286557 -9.513503 0.456276 60
-3.319875 -9.532640 0.454961 60
-3.351465 -9.539816 0.454320 60
-3.383970 -9.542690 0.453907 60
-3.416987 -9.557507 0.452818 61
-3.447965 -9.568512 0.451953 60
-3.479164 -9.571278 0.451539 60
-3.511789 -9.581794 0.450677 60
-3.541594 -9.584596 0.450263 61
-3.575147 -9.590672 0.449628 60
-3.609475 -9.608675 0.448317 59
-3.639451 -9.611137 0.447904 60
-3.674010 -9.628885 0.446595 60
-3.706385 -9.634743 0.445961 60
-3.741907 -9.648005 0.444879 58
-3.776844 -9.665344 0.443572 59
-3.808778 -9.675043 0.442712 59
-3.842989 -9.680075 0.442082 57
-3.875924 -9.693434 0.440999 60
-3.908769 -9.698535 0.440368 59
-3.944932 -9.710968 0.439290 59
-3.978807 -9.719704 0.438435 59
-4.011247 -9.728661 0.437579 57
-4.042856 -9.733608 0.436947 59
-4.077892 -9.745851 0.435870 58
-4.114564 -9.757586 0.434795 66
-4.150776 -9.773422 0.433495 65
-4.186157 -9.785237 0.432419 65
-4.219687 -9.789168 0.431793 63
-4.254264 -9.796841 0.430943 63
-4.289929 -9.808243 0.429869 61
-4.324681 -9.815641 0.429020 63
-4.359512 -9.822904 0.428172 62
-4.393375 -9.826177 0.427548 61
-4.429411 -9.837021 0.426477 63
-4.466158 -9.855844 0.424955 64
-4.502428 -9.866397 0.423885 66
-4.538802 -9.876804 0.422815 66
-4.570824 -9.871725 0.422643 68
-4.603968 -9.870360 0.422247 65
-4.639009 -9.880816 0.421177 64
-4.665316 -9.856256 0.422127 22
-4.809034 -9.991750 0.412656 0
-4.835870 -9.962360 0.413835 1
-4.869515 -9.960013 0.413443 2
-4.904413 -9.961338 0.412828 2
-4.941849 -9.970117 0.411766 2
-4.980337 -9.986842 0.410254 2
-5.017991 -9.995313 0.409193 2
-5.055739 -10.003629 0.408132 2
-5.093583 -10.011791 0.407073 3
-5.131521 -10.019798 0.406014 3
-5.169552 -10.027650 0.404955 3
-5.266582 -10.200903 0.394053 1
-5.325655 -10.264606 0.389641 0
-5.346992 -10.222916 0.391494 0
-5.333420 -10.091809 0.398712 0
-5.369051 -10.095682 0.397878 6
-5.411942 -10.113782 0.396153 51
-5.452168 -10.124224 0.394876 39
-5.501081 -10.156871 0.392259 33
-5.551708 -10.193011 0.389419 33
-5.606994 -10.240067 0.385909 27
-5.649439 -10.253421 0.384412 9
-9.665424 -20.217894 -0.216625 26
-9.751827 -20.239170 -0.219386 26
-9.838472 -20.260078 -0.222146 30
-9.929916 -20.291695 -0.225575 27
-10.020144 -20.319220 -0.228778 27
-10.113750 -20.353714 -0.232427 30
-10.206138 -20.384111 -0.235850 30
-10.295692 -20.406755 -0.238825 32
-10.383922 -20.425343 -0.241575 26
-10.478769 -20.458193 -0.245216 28
-10.567330 -20.484802 -0.248416 26
-10.662807 -20.516825 -0.252054 26
-10.753708 -20.537487 -0.255020 28
-10.851447 -20.572304 -0.258877 26
-10.944557 -20.595778 -0.262062 27
-11.044705 -20.624516 -0.265684 27
-11.145128 -20.661617 -0.269758 27
-11.233995 -20.681795 -0.272723 30
-11.335085 -20.718016 -0.276793 30
-11.434816 -20.750168 -0.280638 33
-11.527944 -20.767473 -0.283590 28
-11.635291 -20.813097 -0.288323 25
-11.730748 -20.833118 -0.291493 31
-11.833555 -20.867027 -0.295553 25
-11.936717 -20.900457 -0.299611 25
-12.038434 -20.929846 -0.303444 27
-12.142286 -20.962322 -0.307497 30
-12.239357 -20.988998 -0.311112 33
-12.342040 -21.016991 -0.314939 30
-12.452432 -21.058674 -0.319654 27
-12.563240 -21.099829 -0.324367 28
-12.661361 -21.115757 -0.327520 28
-12.774793 -21.159416 -0.332451 28
-12.879178 -21.184954 -0.336267 28
-12.995323 -21.231056 -0.341415 28
-13.106161 -21.266087 -0.345894 29
-13.207711 -21.283117 -0.349259 39
-13.292008 -21.268290 -0.350621 58
-13.419401 -21.329710 -0.356871 29
-13.559176 -21.411331 -0.364453 29
-13.662009 -21.426342 -0.367809 30
-13.773063 -21.454723 -0.372052 20
-13.890472 -21.492939 -0.376959 20
-13.992150 -21.503010 -0.380086 20
-14.081862 -21.491983 -0.381879 10
-14.198189 -21.525200 -0.386557 14
-14.302571 -21.537302 -0.389900 10
-14.417515 -21.566015 -0.394352 10
-14.541119 -21.607819 -0.399688 10
-14.665166 -21.649010 -0.405022 10
-14.785450 -21.682791 -0.409910 10
-14.914577 -21.729538 -0.415682 10
-15.034188 -21.767765 -0.420797 7
-15.174273 -21.821077 -0.427218 11
-15.313431 -21.879332 -0.433869 11
-15.444513 -21.923429 -0.439630 30
-15.570236 -21.965881 -0.445177 37
-15.686953 -21.985273 -0.449381 46
-15.808359 -22.010778 -0.454026 31
-15.969829 -22.095612 -0.462655 19
-16.140930 -22.192858 -0.472167 12
-16.277205 -22.236147 -0.478131 12
-16.407228 -22.268826 -0.483428 12
-16.533148 -22.294258 -0.488279 8
-16.652626 -22.309200 -0.492464 8
-16.756454 -22.300592 -0.495096 12
-16.846680 -22.271875 -0.496399 8
-16.948376 -22.259117 -0.498807 12
-17.068644 -22.271971 -0.502982 12
-17.196148 -22.293993 -0.507819 12
-17.316990 -22.305658 -0.511989 8
-17.426378 -22.300570 -0.515052 8
-17.531208 -22.288525 -0.517670 8
-17.647972 -22.292095 -0.521392 8
-17.763615 -22.301067 -0.525345 12
-17.893814 -22.328714 -0.530621 13
-18.037691 -22.365707 -0.536765 13
-18.184429 -22.405140 -0.543127 13
-18.337799 -22.444130 -0.549693 9
-18.494106 -22.485451 -0.556476 13
-18.656958 -22.541451 -0.564152 13
-18.813032 -22.587126 -0.571162 13
-17.662672 -12.027543 -0.099380 2
-17.596188 -11.899680 -0.092202 2
-17.551989 -11.788332 -0.086544 2
-17.553288 -11.709098 -0.083923 2
-17.560823 -11.634487 -0.081735 2
-17.554798 -11.550998 -0.078682 2
-17.605839 -11.352788 -0.074301 2
-17.615122 -11.280705 -0.072332 2
-17.632751 -11.136726 -0.068395 2
-17.686546 -11.090153 -0.069227 4
-17.694666 -11.018169 -0.067259 2
-17.742989 -10.971863 -0.067885 12
-17.764111 -10.908361 -0.066781 12
-17.784981 -10.844834 -0.065678 10
-17.793703 -10.777742 -0.063939 6
-17.865139 -10.745517 -0.066075 100
-17.888767 -10.683853 -0.065187 80
-18.023476 -10.537344 -0.066622 2
-18.066936 -10.487439 -0.067027 2
-18.086107 -10.423237 -0.065921 2
-18.196503 -10.408284 -0.070409 2
-18.440407 -10.473143 -0.083312 2
-18.938908 -10.606942 -0.109756 4
-20.469940 -11.388500 -0.202111 2
-21.200493 -11.710634 -0.244681 2
-20.867081 -11.438879 -0.221574 2
-20.864817 -11.351854 -0.218923 2
-20.999060 -11.339323 -0.224664 2
-21.267071 -11.397956 -0.238576 2
-21.422981 -11.394624 -0.245599 2
-26.231215 -13.854381 -0.535990 4
-26.113222 -13.684291 -0.525739 4
-26.089993 -13.564995 -0.521295 4
-26.073322 -13.449679 -0.517282 4
-26.145027 -13.380136 -0.518640 4
-25.831867 -13.115017 -0.496805 4
-14.859326 -7.489941 0.166280 1
-14.756742 -7.382620 0.173984 1
-14.910249 -7.405806 0.166225 1
-14.563075 -7.179591 0.188514 1
-14.566547 -7.126973 0.189774 1
-14.677763 -7.126404 0.184601 1
-14.670175 -7.068349 0.186505 1
-14.687610 -7.022379 0.186908 1
-14.751893 -6.998402 0.184526 1
-14.736470 -6.937027 0.186857 1
-14.757057 -6.892533 0.187047 1
-14.786845 -6.798399 0.188068 44
-14.796011 -6.748835 0.188900 56
-14.785741 -6.693411 0.190792 52
-14.810117 -6.648119 0.190777 82
-14.822370 -6.600183 0.191395 63
-14.834444 -6.552230 0.192012 78
-14.857361 -6.508966 0.191989 93
-14.843342 -6.450055 0.194102 50
-14.880651 -6.412905 0.193224 82
-14.910477 -6.372501 0.192773 99
-14.918007 -6.322854 0.193605 58
-14.932748 -6.276227 0.194009 17
-14.943173 -6.175469 0.195884 1
-15.001081 -6.148644 0.193720 1
-15.030076 -6.107591 0.193272 1
-15.071003 -6.068436 0.192194 1
-15.096018 -6.025632 0.191960 1
-15.158254 -5.996847 0.189596 1
-15.194261 -5.957888 0.188725 1
-15.196444 -5.906255 0.189771 1
-15.157171 -5.839554 0.193158 1
-15.361694 -5.861639 0.182709 1
-15.577810 -5.886395 0.171628 1
-16.125563 -6.027141 0.141832 1
-17.981478 -6.625425 0.038241 1
-18.408531 -6.710966 0.015512 1
-18.893047 -6.813026 -0.010393 1
-25.642893 -9.035581 -0.388207 3
-25.515467 -8.900965 -0.379150 3
-25.451849 -8.788691 -0.373708 3
-25.437084 -8.693113 -0.371030 3
-25.547354 -8.638309 -0.375358 3
-25.590357 -8.556818 -0.375845 3
-25.601303 -8.469620 -0.374652 3
-25.325932 -8.293261 -0.357550 3
-25.349939 -8.215872 -0.357227 3
-25.332899 -8.121531 -0.354554 3
-25.602386 -8.113625 -0.367779 3
-25.371540 -7.866707 -0.351627 18
-25.334301 -7.679267 -0.346288 3
-13.995911 -4.398217 0.279562 1
-13.880635 -4.321036 0.286720 3
-13.861276 -4.271099 0.288585 10
-13.355860 -4.089990 0.317100 2
-13.343358 -4.044160 0.318533 1
-13.106611 -3.939555 0.332227 1
-12.958209 -3.859687 0.341053 0
-12.793905 -3.776937 0.350720 0
-12.621411 -3.693420 0.360804 0
-12.463523 -3.616812 0.370031 0
-12.301365 -3.540333 0.379464 0
-12.182388 -3.471704 0.386586 0
-12.023764 -3.396523 0.395806 0
-11.891971 -3.328836 0.403545 0
-11.752042 -3.260309 0.411702 0
-11.588758 -3.185829 0.421127 0
-11.369519 -3.067667 0.434047 2
-11.263363 -3.010613 0.440292 2
-11.195666 -2.964185 0.444420 1
-11.124186 -2.915824 0.448764 13
-11.091618 -2.875974 0.451000 4
-10.823892 -2.789258 0.465862 0
-10.708524 -2.734527 0.472511 0
-10.612494 -2.684413 0.478105 0
-10.602559 -2.651364 0.479070 0
-10.584644 -2.616944 0.480455 0
-10.554807 -2.580518 0.482470 0
-10.579868 -2.554163 0.481542 0
-10.541898 -2.516622 0.483976 14
-10.566761 -2.490175 0.483048 6
-10.611239 -2.466883 0.481071 13
-10.616244 -2.436816 0.481195 6
-10.656638 -2.412442 0.479430 22
-10.649614 -2.380355 0.480183 6
-10.622731 -2.345301 0.481984 5
-10.579908 -2.308078 0.484623 3
-10.584139 -2.279620 0.484740 10
-10.600352 -2.251348 0.484234 9
-10.600438 -2.222269 0.484560 8
-10.604794 -2.190740 0.484689 8
-10.604875 -2.160173 0.485021 6
-10.624655 -2.132174 0.484306 6
-10.624528 -2.101566 0.484638 5
-10.628257 -2.071455 0.484761 4
-10.643782 -2.042739 0.484256 3
-10.682847 -2.018177 0.482491 1
-10.753944 -1.993855 0.479067 1
-10.836728 -1.971849 0.475012 1
-10.804246 -1.937273 0.477018 1
-10.787529 -1.904536 0.478187 1
-10.834304 -1.878105 0.476015 1
-10.916795 -1.854710 0.471965 1
-10.895790 -1.821430 0.473344 1
-10.842824 -1.785551 0.476391 1
-10.952932 -1.763607 0.470885 2
-10.867876 -1.725384 0.475599 1
-10.961902 -1.701391 0.470930 0
-10.908341 -1.667615 0.473968 1
-10.958375 -1.639825 0.471594 1
-11.036224 -1.613526 0.467762 2
-11.046221 -1.582477 0.467474 2
-11.076050 -1.552535 0.466144 2
-11.053929 -1.519532 0.467521 1
-11.047646 -1.487513 0.468065 1
-11.065189 -1.456698 0.467360 0
-10.950937 -1.419883 0.473519 0
-10.972240 -1.389459 0.472606 0
-11.005417 -1.359342 0.471070 0
-11.014537 -1.328179 0.470781 0
-11.027543 -1.297080 0.470284 0
-11.028461 -1.265567 0.470411 0
-11.065211 -1.234903 0.468670 0
-11.129814 -1.204551 0.465476 0
-11.230261 -1.174352 0.460416 0
-11.230728 -1.143744 0.460539 0
-11.203134 -1.112852 0.462114 0
-11.219397 -1.079224 0.461420 0
-11.219559 -1.045434 0.461556 0
3.086026 -0.444938 0.701218 0
3.191268 -0.451384 0.696298 1
3.173351 -0.471614 0.697156 20
3.211004 -0.486010 0.695404 55
3.173071 -0.508138 0.697196 61
3.178714 -0.524916 0.696940 64
3.176428 -0.543362 0.697053 64
3.186017 -0.560730 0.696606 64
3.199529 -0.577820 0.695972 53
3.212985 -0.594998 0.695338 53
3.222400 -0.612576 0.694890 50
3.227772 -0.630512 0.694629 51
3.237067 -0.648197 0.694181 49
3.238329 -0.666480 0.694107 47
3.255478 -0.683747 0.693284 50
3.272570 -0.701130 0.692461 61
3.281573 -0.718160 0.692015 59
3.278601 -0.736813 0.692128 51
3.287535 -0.754840 0.691679 32
3.292416 -0.773113 0.691417 26
3.289250 -0.791761 0.691530 26
3.282027 -0.810542 0.691830 38
3.294701 -0.828548 0.691193 52
3.307314 -0.846641 0.690556 52
3.323859 -0.864702 0.689730 53
3.336324 -0.882048 0.689095 53
3.336769 -0.900676 0.689020 51
3.349134 -0.919080 0.688382 51
3.361436 -0.937568 0.687743 50
3.373673 -0.956142 0.687103 51
3.393837 -0.974732 0.686087 49
3.397954 -0.993541 0.685824 50
3.417988 -1.012356 0.684807 48
3.441952 -1.031319 0.683601 45
3.469844 -1.050471 0.682207 48
3.489677 -1.069745 0.681189 43
3.505448 -1.089108 0.680358 35
13.092532 -1.467725 0.226930 1
13.039079 -1.623825 0.228565 1
13.044737 -1.679292 0.227967 1
13.026370 -1.731050 0.228513 1
13.155603 -1.787545 0.222077 1
13.124894 -1.838932 0.223189 1
13.018070 -1.888366 0.227886 1
13.150693 -1.946455 0.221255 1
13.103668 -1.993865 0.223137 1
13.144016 -2.049562 0.220845 1
13.144305 -2.102704 0.220445 1
13.148393 -2.156160 0.219856 1
13.116234 -2.209481 0.220962 1
13.104232 -2.258949 0.221142 1
13.243120 -2.323925 0.214108 1
13.103154 -2.365076 0.220344 1
13.126206 -2.420367 0.218807 1
13.141102 -2.475070 0.217649 1
13.136184 -2.525273 0.217450 1
13.150700 -2.580146 0.216292 1
13.129259 -2.631330 0.216842 1
13.119560 -2.683696 0.216823 1
13.121591 -2.737365 0.216234 1
13.151210 -2.794322 0.214315 1
13.144914 -2.847200 0.214106 1
13.154622 -2.899380 0.213147 1
13.175702 -2.955808 0.211607 1
13.267881 -3.021755 0.206640 1
13.248553 -3.076100 0.206991 1
13.245231 -3.129864 0.206591 1
13.253963 -3.182652 0.205630 1
13.238404 -3.234736 0.205801 1
13.238077 -3.291752 0.205200 1
13.254148 -3.345885 0.203857 1
13.257770 -3.400967 0.203076 1
13.229628 -3.451064 0.203820 1
13.292018 -3.515795 0.200178 1
13.279707 -3.565836 0.200169 1
13.251022 -3.615806 0.200914 1
13.273813 -3.671834 0.199188 1
13.260519 -3.724437 0.199170 1
13.325193 -3.793873 0.195321 1
13.323759 -3.846128 0.194740 1
13.329496 -3.902555 0.193766 1
13.318817 -3.958723 0.193546 1
13.300613 -4.010645 0.193720 1
13.313581 -4.068718 0.192363 1
13.319041 -4.122656 0.191399 1
13.304194 -4.175305 0.191382 1
13.370718 -4.247799 0.187333 1
13.453121 -4.321469 0.182527 2
13.406353 -4.367755 0.184041 23
13.348339 -4.408491 0.186141 30
13.316916 -4.457673 0.186891 16
13.350905 -4.578054 0.183598 1
13.307899 -4.621620 0.184935 1
13.310766 -4.678748 0.183959 1
13.321187 -4.737824 0.182600 1
13.320403 -4.791477 0.181827 1
13.349102 -4.858267 0.179496 1
13.366581 -4.919685 0.177752 1
13.357424 -4.971617 0.177362 1
13.355124 -5.028229 0.176577 1
13.344181 -5.085505 0.176167 1
13.349178 -5.144227 0.174998 1
13.342387 -5.199882 0.174406 1
13.408567 -5.275749 0.170158 1
13.335896 -5.313354 0.172837 1
13.363847 -5.376175 0.170523 1
13.421497 -5.450741 0.166657 1
13.413598 -5.506780 0.166064 1
13.401664 -5.561687 0.165664 1
13.363538 -5.605880 0.166623 1
13.408617 -5.677979 0.163332 1
13.392253 -5.731738 0.163125 1
13.371885 -5.784257 0.163111 1
13.362774 -5.840279 0.162518 1
13.357267 -5.897505 0.161733 1
13.359156 -5.957196 0.160562 1
13.383611 -6.024376 0.158232 1
13.366037 -6.078045 0.158026 1
13.374812 -6.140490 0.156467 1
13.345474 -6.190301 0.156841 1
13.392528 -6.263061 0.153360 1
13.397712 -6.321881 0.152005 1
13.390420 -6.379539 0.151219 1
13.429083 -6.450444 0.148122 1
13.410022 -6.504269 0.147916 1
13.397325 -6.563421 0.147313 1
13.377870 -6.617135 0.147107 1
13.392962 -6.680510 0.145170 1
13.432015 -6.759174 0.141856 1
13.425823 -6.821323 0.140865 1
13.364387 -6.859521 0.142791 1
13.389687 -6.927622 0.140271 1
13.396077 -6.988733 0.138720 1
13.434659 -7.065755 0.135412 1
13.406020 -7.116656 0.135595 1
13.410603 -7.180779 0.134032 1
13.400106 -7.239023 0.133246 1
13.459680 -7.325940 0.128771 1
13.404316 -7.366170 0.130313 1
13.433701 -7.441390 0.127390 1
13.432148 -7.507205 0.126010 1
13.406862 -7.556784 0.126011 1
13.399781 -7.614131 0.125040 1
13.398662 -7.677360 0.123670 1
13.386303 -7.735867 0.122883 1
13.373723 -7.794368 0.122096 1
13.365767 -7.851805 0.121125 1
13.360039 -7.913581 0.119950 1
13.346788 -7.972102 0.119163 1
13.373285 -8.048889 0.116235 1
13.363155 -8.109206 0.115254 1
13.367279 -8.176284 0.113494 1
13.353042 -8.234981 0.112707 1
13.338582 -8.293666 0.111921 1
13.323898 -8.352338 0.111134 1
13.308993 -8.410995 0.110348 1
13.293864 -8.469638 0.109563 1
13.303613 -8.540601 0.107411 1
13.289317 -8.596631 0.106636 1
13.278393 -8.654434 0.105665 1
13.305154 -8.734695 0.102537 1
13.281681 -8.789885 0.102141 1
13.282894 -8.857767 0.100379 1
13.244785 -8.905560 0.100766 1
13.231323 -8.966120 0.099785 1
13.242374 -9.039702 0.097436 1
13.210747 -9.090988 0.097433 1
13.189515 -9.147805 0.096844 1
13.213779 -9.229237 0.093713 1
13.202567 -9.291841 0.092536 1
13.184096 -9.350624 0.091752 1
13.173858 -9.410598 0.090586 1
13.154934 -9.469351 0.089801 1
13.160163 -9.541778 0.087647 1
13.116409 -9.586766 0.088234 1
13.108722 -9.648737 0.086872 1
13.095810 -9.711391 0.085697 1
13.074205 -9.772681 0.084904 1
13.050446 -9.829285 0.084317 1
13.072758 -9.909590 0.081191 1
13.055361 -9.970317 0.080211 1
13.051431 -10.039246 0.078448 1
13.016424 -10.089665 0.078450 1
13.018788 -10.162803 0.076294 1
13.000392 -10.223531 0.075315 1
12.985152 -10.286343 0.074140 1
12.969656 -10.349161 0.072966 1
12.947138 -10.407734 0.072184 1
12.948024 -10.481219 0.070027 1
12.938473 -10.548381 0.068460 1
12.918553 -10.609110 0.067482 1
12.930258 -10.686757 0.064744 1
12.899757 -10.740998 0.064356 1
12.875737 -10.799534 0.063576 1
12.864813 -10.866846 0.062008 1
12.853599 -10.934201 0.060441 1
12.861987 -11.014975 0.057693 1
12.846840 -11.080239 0.056322 1
12.831417 -11.145519 0.054951 1
12.805845 -11.204022 0.054171 1
12.808106 -11.278091 0.051825 1
12.798406 -11.348012 0.050061 1
12.781860 -11.413393 0.048690 1
12.815773 -11.510839 0.044373 1
12.740022 -11.534652 0.046550 7
12.703217 -11.586041 0.046363 19
12.643579 -11.620903 0.047557 19
12.603246 -11.669600 0.047569 10
12.572410 -11.725243 0.046990 1
12.579901 -11.809317 0.044042 1
12.609404 -11.910287 0.039713 1
12.590456 -11.975612 0.038344 1
12.583977 -12.050576 0.036185 1
12.579089 -12.123085 0.034035 1
12.566809 -12.198336 0.032065 1
12.551011 -12.271202 0.030291 1
12.533700 -12.339111 0.028725 1
12.514935 -12.402038 0.027365 1
12.499049 -12.467439 0.025808 1
12.471497 -12.527927 0.024835 1
12.459291 -12.600851 0.022874 1
12.449860 -12.676338 0.020715 1
12.430776 -12.744342 0.019149 1
12.417577 -12.817414 0.017187 1
12.390698 -12.875322 0.016224 1
12.370738 -12.943341 0.014659 1
12.371937 -13.029297 0.011707 1
12.378824 -13.120551 0.008359 1
12.388296 -13.214581 0.004813 1
12.287639 -13.301714 0.005446 22
12.320180 -13.416884 0.000314 7
12.327999 -13.511428 -0.003234 5
12.242266 -13.524466 -0.000636 46
12.183553 -13.560873 0.000180 26
12.154596 -13.623592 -0.000988 11
12.085938 -13.646462 0.000632 9
12.021006 -13.676817 0.001847 7
11.929428 -13.682687 0.004849 7
11.849769 -13.698862 0.007059 11
11.781916 -13.725468 0.008477 15
11.711118 -13.749036 0.010095 15
11.576120 -13.712242 0.016083 22
11.525903 -13.754078 0.016314 16
11.481358 -13.801216 0.016148 13
11.410642 -13.823369 0.017771 15
11.339294 -13.840089 0.019602 15
11.262872 -13.856012 0.021626 15
11.195085 -13.879925 0.023054 16
11.112431 -13.884442 0.025685 15
11.047539 -13.910481 0.026918 15
10.980371 -13.938491 0.028143 21
10.909788 -13.958271 0.029776 15
10.839228 -13.977716 0.031410 14
10.765886 -13.993979 0.033244 19
10.687004 -14.004173 0.035478 22
10.627170 -14.028975 0.036527 22
10.559491 -14.049963 0.037967 22
10.486779 -14.069931 0.039600 21
10.416371 -14.087375 0.041242 24
10.342793 -14.096520 0.043291 22
10.280223 -14.116980 0.044545 21
10.213072 -14.141432 0.045785 22
10.145490 -14.160514 0.047232 19
10.077923 -14.179285 0.048681 17
10.001908 -14.183839 0.050937 21
9.934422 -14.201962 0.052388 21
9.877640 -14.231658 0.053043 19
9.802525 -14.245297 0.054889 26
9.737391 -14.260449 0.056351 24
9.669971 -14.277351 0.057808 21
9.604896 -14.291919 0.059272 21
9.537532 -14.308215 0.060731 24
9.478022 -14.333280 0.061592 19
9.405487 -14.342917 0.063453 17
9.343375 -14.364387 0.064516 26
9.276099 -14.379479 0.065980 19
9.211653 -14.402346 0.067038 17
9.149530 -14.422974 0.068105 17
9.077020 -14.425998 0.070178 17
9.020010 -14.452229 0.070847 21
8.960428 -14.475128 0.071717 16
6.340086 -11.328003 0.276502 2
6.266515 -11.310335 0.279403 2
6.071106 -11.139243 0.292104 1
6.005963 -11.129773 0.294410 2
5.933578 -11.110550 0.297317 3
5.860724 -11.086425 0.300430 1
5.906306 -11.217994 0.293736 3
5.795781 -11.151917 0.299643 3
5.726406 -11.134623 0.302354 3
5.702472 -11.172921 0.301468 9
5.651925 -11.176073 0.302785 7
5.623597 -11.212319 0.302096 12
5.573674 -11.219625 0.303210 10
5.504830 -11.200981 0.305926 8
5.469237 -11.227117 0.305840 12
5.431206 -11.249896 0.305954 10
5.393106 -11.272533 0.306070 5
5.345104 -11.277506 0.307192 2
5.288414 -11.273778 0.308911 2
5.250266 -11.295894 0.309029 19
5.191925 -11.292945 0.310746 10
5.135496 -11.288462 0.312469 3
5.104137 -11.319884 0.311987 2
5.124550 -11.427033 0.306893 2
5.139400 -11.523290 0.302404 8
4.962358 -11.344033 0.314756 8
4.930714 -11.374914 0.314276 34
4.870203 -11.362440 0.316406 9
4.789066 -11.396781 0.317055 1
4.745906 -11.405837 0.317786 1
4.698781 -11.412533 0.318714 1
4.655997 -11.425757 0.319242 1
4.621766 -11.452301 0.318967 1
4.570398 -11.451691 0.320299 1
4.531526 -11.466648 0.320632 1
4.490800 -11.482594 0.320961 1
4.447948 -11.494983 0.321492 1
4.409254 -11.514018 0.321622 1
4.358321 -11.516938 0.322754 1
4.311118 -11.517424 0.323894 1
4.272382 -11.535959 0.324026 1
4.219352 -11.530286 0.325565 1
4.188503 -11.557743 0.325099 1
4.147651 -11.572377 0.325434 1
4.106773 -11.586856 0.325769 1
4.065869 -11.601177 0.326105 1
4.024939 -11.615342 0.326442 1
3.985946 -11.632830 0.326579 1
3.968360 -11.688525 0.324503 2
3.894249 -11.642923 0.328261 1
3.849419 -11.649435 0.329003 1
3.802703 -11.652256 0.329947 1
3.767447 -11.675961 0.329684 1
3.724540 -11.685469 0.330227 1
3.685390 -11.701860 0.330367 1
3.646196 -11.718109 0.330509 1
3.601401 -11.723596 0.331255 1
3.564027 -11.738566 0.331400 1
3.522958 -11.746305 0.331949 1
3.485475 -11.765519 0.331892 2
3.451532 -11.791731 0.331432 22
3.403141 -11.789271 0.332584 68
3.351276 -11.779451 0.334140 68
3.313792 -11.793556 0.334289 79
3.267372 -11.794095 0.335241 35
3.261191 -11.974652 0.327075 3
3.250383 -12.050666 0.323797 9
3.133243 -11.907233 0.332810 3
3.059688 -11.849080 0.336991 3
3.045569 -11.912924 0.334322 11
2.992509 -11.897794 0.336086 5
3.022302 -12.064255 0.327771 2
2.913149 -11.925099 0.336390 31
2.875045 -11.942184 0.336341 12
2.854652 -11.999327 0.334075 4
2.800262 -11.979613 0.336044 8
2.757522 -11.980814 0.336806 40
2.705024 -11.964324 0.338575 24
2.701214 -12.061545 0.334092 7
2.636249 -12.015311 0.337476 15
2.583978 -11.998251 0.339247 9
2.539515 -11.999418 0.340010 5
2.502667 -12.018895 0.339765 2
2.545270 -12.234474 0.328826 2
2.512039 -12.265103 0.327976 9
2.387218 -12.065446 0.339638 6
2.341319 -12.062105 0.340607 3
2.302740 -12.077192 0.340566 8
2.265545 -12.095874 0.340324 7
2.228785 -12.109959 0.340287 2
2.192861 -12.132129 0.339845 1
2.152641 -12.142955 0.340008 1
2.127623 -12.194858 0.337952 1
2.087211 -12.205446 0.338117 1
2.061713 -12.257216 0.336061 1
2.031869 -12.297659 0.334611 1
2.005787 -12.349329 0.332556 1
1.993898 -12.442435 0.328280 1
1.989149 -12.824252 0.309999 1
3.120524 -16.519201 0.114590 30
3.066607 -16.528503 0.114953 25
3.012173 -16.554575 0.114505 33
2.950340 -16.557617 0.115269 30
2.894863 -16.570993 0.115431 30
2.842911 -16.595615 0.114987 30
2.787703 -16.600134 0.115556 28
2.734839 -16.612104 0.115722 30
2.678795 -16.633183 0.115480 30
2.625849 -16.644783 0.115648 28
2.571269 -16.660835 0.115612 28
2.515527 -16.672859 0.115779 28
2.463037 -16.696213 0.115340 28
2.406117 -16.704006 0.115711 30
2.350265 -16.715441 0.115881 27
2.296494 -16.734386 0.115647 21
2.243683 -16.757004 0.115211 18
2.183912 -16.764730 0.115584 28
2.134707 -16.790113 0.114949 33
2.077623 -16.796715 0.115325 33
2.023502 -16.814726 0.115095 30
1.972066 -16.831858 0.114867 30
1.915033 -16.850189 0.114637 30
1.861560 -16.859205 0.114815 30
1.806236 -16.872589 0.114790 30
1.752704 -16.893555 0.114362 30
1.695393 -16.911095 0.114135 31
1.639889 -16.923899 0.114113 30
1.584341 -16.936510 0.114091 30
1.531529 -16.948309 0.114072 30
1.475896 -16.960541 0.114052 31
1.422734 -16.984297 0.113426 30
1.370589 -16.999470 0.113206 30
1.314779 -17.011139 0.113188 31
1.257334 -17.014784 0.113576 30
1.202254 -17.029976 0.113358 30
1.148648 -17.052818 0.112736 30
1.090607 -17.068174 0.112518 30
1.036042 -17.086718 0.112100 31
0.982007 -17.092772 0.112290 30
0.925873 -17.103083 0.112278 34
0.868996 -17.125500 0.111660 34
0.812749 -17.135418 0.111649 37
0.757140 -17.149076 0.111438 37
0.705609 -17.169952 0.110822 36
0.650500 -17.187183 0.110410 34
0.596862 -17.195887 0.110403 30
0.542849 -17.220640 0.109587 42
0.483442 -17.229853 0.109581 30
0.428606 -17.250277 0.108970 31
0.372503 -17.262609 0.108764 33
0.319181 -17.274343 0.108558 36
0.264620 -17.298168 0.107747 31
0.209383 -17.317852 0.107138 30
0.152468 -17.325466 0.107137 28
0.097563 -17.348732 0.106328 31
0.042027 -17.367847 0.105722 31
-0.014099 -17.382809 0.105319 33
-0.071706 -17.385675 0.105524 30
-0.124181 -17.407858 0.104718 31
-0.179646 -17.430189 0.103913 31
-0.236951 -17.436445 0.103918 33
-0.293039 -17.454420 0.103317 36
-0.349629 -17.468229 0.102919 34
-0.406296 -17.481844 0.102521 34
-1.205635 -9.869034 0.490117 4
-1.246147 -9.760311 0.495786 13
-1.286878 -9.639470 0.502063 13
-1.322427 -9.554176 0.506519 20
-1.355281 -9.496627 0.509559 25
-1.389215 -9.439060 0.512599 32
-1.423102 -9.397403 0.514832 38
-1.456155 -9.363585 0.516660 41
-1.486051 -9.329457 0.518488 42
-1.515015 -9.307188 0.519709 45
-1.547367 -9.273011 0.521538 47
-1.576798 -9.234571 0.523569 46
-1.607205 -9.200087 0.525399 45
-1.638257 -9.177526 0.526622 46
-1.667555 -9.158782 0.527644 46
-1.695001 -9.147864 0.528260 51
-1.723652 -9.140895 0.528675 55
-1.752859 -9.113860 0.530102 53
-1.782854 -9.102732 0.530721 59
-1.811262 -9.095454 0.531137 61
-1.839616 -9.088076 0.531554 66
-1.867720 -9.092582 0.531364 67
-1.894600 -9.084988 0.531781 68
-1.922681 -9.093296 0.531390 68
-1.949434 -9.097504 0.531201 68
-1.977724 -9.065673 0.532833 23
-2.038325 -9.752742 0.498093 11
-2.068845 -9.756551 0.497907 16
-2.121416 -9.188647 0.526645 0
-2.148509 -9.188200 0.526661 1
-2.177545 -9.211596 0.525465 2
-2.204015 -9.183008 0.526897 3
-2.232628 -9.186240 0.526713 4
-2.262819 -9.193319 0.526328 3
-2.291638 -9.200337 0.525942 3
-2.319884 -9.191287 0.526366 3
-2.347832 -9.210138 0.525374 3
-2.376975 -9.220847 0.524788 1
-2.408565 -9.279332 0.521778 0
-2.456205 -9.632904 0.503818 1
-2.483119 -9.575420 0.506669 3
-2.511790 -9.553744 0.507701 4
-2.540063 -9.527986 0.508936 3
-2.550171 -9.255099 0.522694 1
-2.578041 -9.261201 0.522312 1
-2.638645 -9.296797 0.520339 58
-2.668983 -9.294401 0.520365 60
-2.700994 -9.311798 0.519381 54
-2.731691 -9.329199 0.518397 58
-2.760338 -9.338662 0.517815 58
-2.788678 -9.344050 0.517436 58
-2.818908 -9.353174 0.516857 61
-2.849615 -9.366163 0.516076 62
-2.880004 -9.375067 0.515498 61
-2.909602 -9.375916 0.515324 62
-2.940554 -9.388571 0.514545 62
-2.973991 -9.408877 0.513364 62
-3.003231 -9.417502 0.512787 62
-3.034494 -9.429810 0.512009 61
-3.065354 -9.438038 0.511434 61
-3.094813 -9.446344 0.510858 61
-3.127284 -9.454155 0.510285 61
-3.159439 -9.469959 0.509308 61
-3.188571 -9.473980 0.508934 61
-3.219220 -9.477689 0.508563 61
-3.249908 -9.481286 0.508193 61
