# .PCD v.7 - Point Cloud Data file format
VERSION .7
FIELDS x y z intensity
SIZE 4 4 4 1
TYPE F F F U
COUNT 1 1 1 1
WIDTH 1490
HEIGHT 1
VIEWPOINT 0 0 0 1 0 0 0
POINTS 1490
DATA ascii
11.148303 -11.211062 0.795518 9
11.074813 -11.227360 0.795770 8
10.979362 -11.225963 0.796267 6
10.899757 -11.236440 0.796592 6
10.823365 -11.248981 0.796884 5
10.740808 -11.256103 0.797248 4
10.652138 -11.257741 0.797683 2
10.577804 -11.266798 0.797987 1
10.515919 -11.285622 0.798154 1
10.427584 -11.285943 0.798594 1
10.336324 -11.283214 0.799071 1
10.223774 -11.261992 0.799796 1
9.989246 -11.136929 0.801932 1
10.065422 -11.349928 0.799898 27
10.025040 -11.384659 0.799826 17
10.022012 -11.455412 0.799288 13
9.499413 -11.068843 0.804880 7
9.464264 -11.108922 0.804737 3
9.207816 -11.167964 0.805518 7
9.147496 -11.180824 0.805707 10
8.998349 -11.254202 0.805839 27
8.949090 -11.283503 0.805841 10
9.192425 -11.585241 0.802270 2
9.105135 -11.572703 0.802785 25
9.013322 -11.558861 0.803330 20
8.927503 -11.550058 0.803805 10
8.428896 -11.282369 0.808303 5
8.429944 -11.355309 0.807707 11
8.418266 -11.412438 0.807298 37
8.173101 -11.238976 0.809843 29
8.148615 -11.285802 0.809575 27
8.122126 -11.334349 0.809301 22
8.683461 -11.982633 0.801430 18
8.083248 -11.439254 0.808621 16
8.184469 -11.613925 0.806728 77
8.014852 -11.510540 0.808348 15
7.994682 -11.562851 0.808009 25
8.007168 -11.650097 0.807233 9
7.972731 -11.687885 0.807077 9
46.533825 -54.750328 0.278067 39
46.153675 -54.705032 0.280121 39
46.168163 -55.099792 0.276762 39
45.830696 -55.099819 0.278241 39
45.377678 -54.965916 0.281340 38
6.615512 -11.397070 0.815441 9
6.594501 -11.445598 0.815117 24
6.527654 -11.438393 0.815460 37
6.458439 -11.427744 0.815841 24
6.364285 -11.385612 0.816595 37
6.478105 -11.602038 0.814271 45
6.461033 -11.656610 0.813875 16
6.312294 -11.544827 0.815448 12
6.183537 -11.452744 0.816769 21
6.129865 -11.459156 0.816934 8
6.284210 -11.734285 0.813935 18
6.163950 -11.655262 0.815106 21
6.109804 -11.661426 0.815272 69
6.099154 -11.724756 0.814768 21
5.948834 -11.602650 0.816429 25
5.959664 -11.694462 0.815590 19
5.865238 -11.645025 0.816396 8
5.809152 -11.646630 0.816605 47
5.734292 -11.622123 0.817114 30
5.587216 -11.570607 0.818142 2
5.610762 -11.681669 0.817079 9
5.548060 -11.672272 0.817406 3
5.533840 -11.731271 0.816944 12
5.478086 -11.731267 0.817159 4
5.424703 -11.734292 0.817338 5
5.247027 -11.715427 0.818180 3
5.030809 -11.634004 0.819713 10
4.979552 -11.791907 0.818502 18
4.810262 -11.615533 0.820693 6
4.790148 -11.661661 0.820356 83
4.718723 -11.631228 0.820887 36
4.688025 -11.664777 0.820699 31
4.619084 -11.637144 0.821195 17
4.502952 -11.614917 0.821810 5
4.364705 -11.633294 0.822134 16
4.343979 -11.682946 0.821759 14
4.320950 -11.729137 0.821423 40
4.269682 -11.736068 0.821539 12
4.197959 -11.694537 0.822161 14
4.134569 -11.666512 0.822632 20
4.152942 -11.785094 0.821496 7
4.107171 -11.889189 0.820707 14
4.080831 -11.926848 0.820453 30
4.027203 -11.915454 0.820736 11
3.962198 -11.887332 0.821209 6
3.914668 -11.890511 0.821337 10
3.870987 -11.900531 0.821389 18
25.718317 -53.258987 0.372065 28
25.904493 -54.033730 0.364371 29
25.728518 -54.148544 0.363886 29
25.423401 -54.014107 0.366097 29
25.439089 -54.500973 0.361577 30
2.528506 -11.803142 0.826366 8
2.490837 -11.818883 0.826322 39
2.503370 -11.956545 0.824996 17
2.451576 -11.938864 0.825303 17
2.347561 -11.791137 0.826973 13
2.270244 -11.701503 0.828025 9
2.243233 -11.742377 0.827712 42
2.192239 -11.728062 0.827982 30
2.143273 -11.712793 0.828255 50
2.100626 -11.707802 0.828414 32
2.075103 -11.747516 0.828105 11
2.034349 -11.758636 0.828105 28
2.019629 -11.828189 0.827485 19
1.988270 -11.865373 0.827212 28
1.984572 -11.973199 0.826200 54
1.886725 -11.821445 0.827884 33
1.842290 -11.816105 0.828045 32
1.799268 -11.814359 0.828167 29
1.731325 -11.740672 0.829033 34
1.714704 -11.814145 0.828375 20
1.677002 -11.827046 0.828343 15
1.632879 -11.820860 0.828507 30
1.586940 -11.802485 0.828791 20
1.528323 -12.002599 0.827019 0
1.451761 -11.901079 0.828164 0
1.414461 -11.908649 0.828176 0
1.370513 -11.901399 0.828344 1
1.339529 -11.936047 0.828082 2
1.285623 -11.902265 0.828525 2
1.244943 -11.897769 0.828657 2
1.210342 -11.920540 0.828514 3
1.168589 -11.911923 0.828687 5
1.126133 -11.907539 0.828820 7
1.084837 -11.906840 0.828914 7
1.043836 -11.914222 0.828929 7
1.007692 -11.924255 0.828908 7
0.964359 -11.915391 0.829082 8
0.926308 -11.925672 0.829061 8
0.880036 -11.904886 0.829354 9
0.840003 -11.907133 0.829413 11
0.799083 -11.913595 0.829432 12
0.761960 -11.918940 0.829453 12
0.720990 -11.916873 0.829552 12
0.681024 -11.918536 0.829613 13
0.643906 -11.931716 0.829556 35
0.601158 -11.921426 0.829736 15
0.539304 -11.829201 0.830743 23
0.516972 -11.896014 0.830138 14
0.479113 -11.896502 0.830202 13
0.435004 -11.877769 0.830463 28
0.404842 -11.921355 0.830095 18
0.356597 -11.882777 0.830554 37
0.319498 -11.894849 0.830502 38
0.282083 -11.915022 0.830371 28
0.245940 -11.922530 0.830359 24
0.200244 -11.882875 0.830822 31
0.166993 -11.914027 0.830574 21
0.119751 -11.874417 0.831037 21
0.077305 -11.878549 0.831066 21
0.037174 -11.873940 0.831175 21
0.006967 -11.912105 0.830852 13
-0.031300 -11.906893 0.830963 16
-0.073503 -11.890068 0.831192 24
-0.109407 -11.908549 0.831067 35
-0.154133 -11.875650 0.831455 35
-0.183501 -11.933319 0.830936 22
-0.219036 -11.955384 0.830773 23
-0.261015 -11.949988 0.830887 21
-0.298502 -11.947791 0.830962 21
-0.336659 -11.953664 0.830958 27
-0.374248 -11.963360 0.830916 30
-0.414180 -11.957093 0.831031 27
-0.452141 -11.950411 0.831148 35
-0.489759 -11.959710 0.831107 30
-0.527956 -11.964915 0.831106 28
-0.567729 -11.958089 0.831224 35
-0.605415 -11.966990 0.831185 34
-0.643637 -11.971791 0.831185 36
-0.682831 -11.968517 0.831266 35
-0.722449 -11.961130 0.831386 42
-0.759749 -11.973472 0.831309 35
-0.797557 -11.981710 0.831273 35
-0.835829 -11.985841 0.831276 35
-0.874932 -11.981880 0.831359 36
-0.913204 -11.985741 0.831364 35
-0.951870 -11.985486 0.831408 35
-0.990521 -11.985095 0.831453 35
-1.026889 -11.988382 0.831459 33
-1.065183 -11.991713 0.831466 33
-1.103814 -11.990923 0.831512 35
-1.141493 -12.001960 0.831441 35
-1.180131 -12.000901 0.831489 35
-1.218752 -11.999706 0.831537 33
-1.256544 -12.010348 0.831468 28
-1.294658 -12.016868 0.831438 28
-1.333049 -12.019263 0.831449 26
-1.371677 -12.017531 0.831499 25
-1.410285 -12.015664 0.831550 24
-1.448672 -12.017655 0.831562 22
-1.484959 -12.023418 0.831535 22
-1.521451 -12.025066 0.831547 22
-1.559870 -12.026670 0.831561 22
-1.598295 -12.028139 0.831575 22
-1.636592 -12.033472 0.831551 21
-1.674922 -12.038672 0.831527 21
-1.713387 -12.039740 0.831543 20
-1.751946 -12.036674 0.831598 19
-1.790328 -12.041472 0.831576 18
-1.828989 -12.030140 0.831711 29
-1.867280 -12.042668 0.831611 18
-1.905758 -12.043064 0.831630 15
-1.942523 -12.003319 0.832041 26
-1.980828 -12.023452 0.831864 17
-2.019253 -12.031451 0.831806 22
-2.057879 -12.067315 0.831473 15
-2.096478 -12.071046 0.831455 20
-2.135151 -12.078641 0.831398 19
-2.173565 -12.066104 0.831538 21
-2.212123 -12.065432 0.831561 19
-2.250770 -12.068623 0.831545 19
-2.289546 -12.075677 0.831491 20
-2.328137 -12.074599 0.831515 20
-2.366326 -12.061394 0.831658 20
-2.405159 -12.068042 0.831605 18
-2.444044 -12.074553 0.831553 17
-2.483154 -12.084925 0.831462 17
-2.521776 -12.083171 0.831489 18
-2.560189 -12.077288 0.831556 17
-2.598568 -12.071271 0.831624 15
-2.637832 -12.081094 0.831535 15
-2.677417 -12.094770 0.831408 14
-2.715556 -12.084355 0.831516 14
-2.752244 -12.081922 0.831545 14
-2.790854 -12.079228 0.831576 13
-2.829753 -12.080390 0.831569 13
-2.868984 -12.085401 0.831523 10
-2.907605 -12.082300 0.831555 10
-2.946897 -12.087036 0.831510 9
-2.983947 -12.087819 0.831503 7
-3.024049 -12.100248 0.831381 7
-3.061957 -12.088644 0.831494 7
-3.101776 -12.096810 0.831413 6
-3.139616 -12.084939 0.831527 5
-3.179505 -12.092826 0.831446 4
-3.218151 -12.088642 0.831483 3
-3.258587 -12.100220 0.831365 2
-3.297723 -12.099731 0.831364 1
-3.336871 -12.099105 0.831364 1
-3.376523 -12.102310 0.831325 1
-3.416721 -12.109341 0.831248 1
-3.456464 -12.112260 0.831211 0
-3.496245 -12.115036 0.831174 0
-3.531127 -12.082011 0.831488 0
-3.568046 -12.064719 0.831646 0
-3.609471 -12.078969 0.831494 0
-3.636858 -11.998118 0.832275 0
-3.692073 -12.103050 0.831232 0
-3.691851 -11.848109 0.833720 0
-3.708176 -11.707849 0.835082 0
-3.767406 -11.836035 0.833808 0
-3.960372 -12.298359 0.829217 19
-3.989948 -12.236311 0.829807 19
-4.035501 -12.264719 0.829507 16
-5.382332 -14.925910 0.802768 1
-5.840363 -14.914378 0.802450 2
-5.889104 -14.892508 0.802610 1
-5.982646 -14.674390 0.804603 5
-6.356391 -15.773572 0.793645 3
-6.405293 -15.759046 0.793729 3
-6.492639 -15.862255 0.792639 8
-6.178746 -14.644950 0.804662 60
-6.193084 -14.531696 0.805728 22
-6.224639 -14.467370 0.806305 20
-6.203676 -14.239085 0.808512 31
-6.179945 -14.007305 0.810756 5
-6.193049 -13.893753 0.811823 5
-5.609467 -11.972026 0.830902 5
-5.674246 -12.039043 0.830179 18
-5.773450 -12.199832 0.828516 14
-5.818254 -12.209970 0.828359 16
-5.899049 -12.317566 0.827225 13
-5.801381 -11.911141 0.831224 13
-5.883308 -12.022275 0.830053 77
-5.926491 -12.028174 0.829936 19
-6.008316 -12.134806 0.828807 15
-6.030650 -12.075652 0.829335 12
-6.201706 -12.174352 0.828145 37
-6.252002 -12.189522 0.827924 9
-6.568127 -12.895107 0.820771 15
-6.655923 -12.998389 0.819658 16
-6.794999 -13.236067 0.817196 9
-6.901013 -13.379135 0.815677 75
-6.929252 -13.324823 0.816143 11
-7.489798 -14.586721 0.803350 10
-7.152747 -13.627040 0.812931 38
-7.476932 -13.903565 0.809782 38
-7.517139 -13.873343 0.809994 13
-7.582650 -13.901716 0.809612 11
-7.632393 -13.893145 0.809603 15
-7.669215 -13.855112 0.809891 11
-7.583678 -13.542993 0.812959 3
-7.624075 -13.516131 0.813135 7
-7.651119 -13.460007 0.813607 25
-7.665680 -13.383020 0.814295 47
-7.803996 -13.574741 0.812250 25
-7.883299 -13.630526 0.811579 7
-7.602180 -12.812381 0.819714 1
-7.970527 -13.469800 0.812898 1
-7.809884 -12.921007 0.818294 4
-8.207959 -13.303853 0.813944 28
-8.254108 -13.293891 0.813938 10
-8.700853 -13.941223 0.807040 2
-8.716257 -13.861046 0.807742 1
-34.506371 -62.645298 0.304685 37
-8.417389 -12.878345 0.817389 2
-6.243880 -8.797056 0.859509 0
-6.258081 -8.761912 0.859797 0
-6.190650 -8.579831 0.861608 0
-6.220282 -8.567912 0.861648 0
-6.439096 -8.894600 0.858173 0
-6.338738 -8.657257 0.860561 0
-6.166584 -8.294977 0.864250 0
-6.143955 -8.197255 0.865189 0
-6.144839 -8.141263 0.865693 0
-6.140542 -8.074281 0.866308 0
-6.140701 -8.018476 0.866811 0
-6.138472 -7.959321 0.867350 0
-6.158549 -7.937976 0.867493 0
-6.143291 -7.858421 0.868246 0
-6.149274 -7.817332 0.868600 0
-6.139442 -7.748299 0.869244 0
-6.140883 -7.695693 0.869711 0
-6.184196 -7.715845 0.869421 0
-6.243779 -7.758738 0.868884 0
-6.222267 -7.672963 0.869706 0
-6.193744 -7.577313 0.870633 0
-6.187306 -7.519658 0.871163 0
-6.205613 -7.498292 0.871305 0
-6.240281 -7.499569 0.871202 0
-6.260672 -7.481390 0.871309 0
-6.293141 -7.483885 0.871199 0
-6.322352 -7.478832 0.871165 0
-6.359417 -7.482843 0.871029 0
-6.404434 -7.500668 0.870748 0
-6.451888 -7.521558 0.870434 0
-6.433672 -7.446715 0.871143 0
-6.472059 -7.454191 0.870970 0
-6.525484 -7.485202 0.870548 0
-6.564161 -7.492248 0.870378 0
-7.665631 -8.878165 0.855115 0
-6.762211 -7.576762 0.869073 0
-6.754366 -7.518135 0.869606 0
-6.686843 -7.379146 0.871012 0
-6.723319 -7.382017 0.870880 0
-6.702380 -7.307833 0.871586 0
-6.736334 -7.307355 0.871489 0
-6.743746 -7.271666 0.871776 0
-6.780114 -7.274137 0.871645 1
-7.100629 -7.597793 0.867887 0
-7.235457 -7.675198 0.866810 1
-7.285982 -7.691368 0.866516 1
-7.326702 -7.694760 0.866361 1
-7.362499 -7.691714 0.866275 1
-7.420990 -7.716479 0.865881 1
-7.494884 -7.759517 0.865282 1
-7.512127 -7.735075 0.865436 1
-7.372425 -7.518496 0.867720 0
-7.412992 -7.521220 0.867567 1
-7.443364 -7.511481 0.867553 0
-7.478895 -7.507720 0.867470 0
-7.518189 -7.505875 0.867359 0
-7.563086 -7.514881 0.867137 0
-7.593562 -7.504509 0.867125 0
-7.634526 -7.506082 0.866977 0
-7.651865 -7.480353 0.867136 0
-7.687603 -7.475592 0.867057 0
-7.726032 -7.473651 0.866946 0
-7.791166 -7.501347 0.866497 0
-7.808404 -7.475146 0.866657 0
-7.867374 -7.497352 0.866274 0
-7.904993 -7.495593 0.866161 0
-7.943794 -7.492619 0.866054 0
-8.004372 -7.512945 0.865678 0
-8.048348 -7.510325 0.865549 0
-8.090128 -7.509590 0.865411 0
-8.141829 -7.521343 0.865135 0
-8.196433 -7.535722 0.864827 0
-8.252338 -7.548718 0.864525 0
-8.266761 -7.518217 0.864725 0
-8.325633 -7.533605 0.864392 0
-8.376298 -7.540082 0.864160 0
-8.438312 -7.557684 0.863796 0
-8.489260 -7.563571 0.863567 0
-8.534674 -7.563522 0.863405 0
-8.657043 -7.593625 0.862721 1
-46.611546 -28.313728 0.549829 18
-46.638168 -28.116331 0.551100 18
-45.617725 -27.299356 0.561377 16
-47.305676 -28.101231 0.548232 19
-46.532944 -27.428783 0.556385 17
-47.128201 -27.569294 0.552739 18
-47.189514 -27.393461 0.553686 18
-47.202793 -27.179575 0.555109 18
-48.282482 -27.589178 0.547405 20
-48.350616 -27.413607 0.548308 19
-43.987675 -24.359955 0.589085 13
-44.149460 -24.257668 0.589046 13
-44.318062 -24.158371 0.588951 13
-44.676357 -24.161140 0.587291 28
-44.852493 -24.053808 0.587210 14
-44.318775 -23.396994 0.594101 27
-43.688133 -22.877665 0.600505 13
-43.544144 -22.617624 0.602914 26
-43.825497 -22.578768 0.601869 26
-43.847076 -22.405338 0.602926 39
-44.271317 -22.427109 0.600805 13
-44.470753 -22.351446 0.600377 40
-46.292301 -23.073067 0.587089 14
-46.150219 -22.810339 0.589487 14
-46.103855 -22.596333 0.591112 14
-46.232895 -22.468430 0.591344 14
-46.123634 -22.225534 0.593448 14
-46.081833 -22.016346 0.595010 14
-50.444828 -23.887335 0.562212 20
-50.024372 -23.484215 0.566818 19
-47.772675 -22.236525 0.585573 15
-50.114613 -23.118351 0.568752 19
-50.227867 -22.966833 0.569187 19
-50.351589 -22.819727 0.569540 19
-51.048260 -22.928137 0.565518 20
-22.170000 -9.119555 0.791718 2
-22.211617 -9.058538 0.791892 2
-21.960415 -8.878046 0.794229 2
-21.894550 -8.772018 0.795201 2
-23.037363 -9.132853 0.787400 2
-22.041615 -8.668596 0.795112 2
-21.974644 -8.563264 0.796081 2
-23.214844 -8.947113 0.787657 2
-23.283655 -8.888268 0.787674 2
-23.175756 -8.764468 0.788951 2
-24.519133 -9.166764 0.779903 3
-24.076675 -8.919659 0.783569 2
-24.032475 -8.817195 0.784399 2
-22.152990 -8.072994 0.798142 2
-23.533892 -8.387933 0.789418 2
-23.165424 -8.179427 0.792480 2
-22.154673 -7.759219 0.799984 2
-22.273022 -7.720206 0.799622 2
-23.104240 -7.750617 0.795285 2
-23.505295 -7.795911 0.793012 2
-18.265965 -6.082750 0.829181 1
-18.205229 -5.940020 0.830303 12
-18.074263 -5.777952 0.831885 1
-18.063898 -5.713961 0.832299 1
-17.995636 -5.633473 0.833098 1
-17.960838 -5.566160 0.833652 1
-17.957357 -5.505008 0.834012 1
-17.972918 -5.449280 0.834244 1
-17.891827 -5.367113 0.835113 1
-17.883736 -5.305363 0.835496 1
-17.817425 -5.228296 0.836259 1
-17.835888 -5.174073 0.836463 1
-17.897480 -5.128013 0.836401 1
-17.876839 -5.063611 0.836858 1
-17.886284 -5.009965 0.837101 1
-17.880701 -4.949685 0.837457 1
-17.890436 -4.893280 0.837711 1
-17.911640 -4.839656 0.837891 1
-17.905415 -4.779491 0.838246 1
-17.934025 -4.727575 0.838376 1
-17.911781 -4.663897 0.838829 1
-17.908796 -4.604815 0.839158 1
-17.979792 -4.562247 0.839017 1
-18.015509 -4.511558 0.839100 1
-18.058887 -4.462340 0.839134 1
-18.023840 -4.396367 0.839660 1
-18.055113 -4.344469 0.839768 1
-18.050943 -4.285217 0.840097 1
-18.207373 -4.258165 0.839427 1
-18.253155 -4.149477 0.839748 22
-18.271841 -4.094210 0.839933 4
-18.337536 -4.047596 0.839829 2
-19.859232 -4.265151 0.830826 1
-20.299690 -4.279240 0.828466 1
-82.285294 -15.030139 0.452122 46
-96.089996 -17.100891 0.369926 59
-115.283188 -19.974453 0.255665 45
-96.444725 -16.483711 0.371148 59
-100.447731 -16.786480 0.348781 63
-99.858032 -16.341887 0.354046 62
-99.764633 -15.977825 0.356319 62
-38.950394 -6.021609 0.722553 7
-38.674171 -5.853920 0.724802 7
-39.521111 -5.035628 0.724206 7
-38.911423 -4.709928 0.728914 7
-39.835835 -4.668994 0.724239 8
-167.536224 -13.492125 0.011777 45
-167.578766 -12.914226 0.014119 45
-173.202179 -12.717641 -0.014671 45
-173.678940 -11.546642 -0.012046 45
-171.322693 -10.809027 0.003607 45
-171.008347 -10.199056 0.007913 45
-171.414886 -9.628137 0.008233 45
-169.844467 -8.373950 0.021907 45
-170.668457 -7.820253 0.019912 45
-135.563889 -5.471221 0.215356 45
-135.978439 -5.016902 0.215072 45
-179.750336 -5.111979 -0.016722 45
-184.710526 -4.588105 -0.040780 45
-132.165405 -3.107463 0.243151 45
-122.144836 -2.527297 0.298515 45
10.493220 0.735820 0.940507 1
10.483421 0.690029 0.940328 1
10.568611 0.657024 0.940151 1
10.368121 0.586352 0.939972 1
10.310158 0.535148 0.939797 1
10.322923 0.497445 0.939639 1
10.296884 0.446329 0.939448 1
10.277838 0.402780 0.939283 1
10.298629 0.361701 0.939107 1
10.299400 0.318330 0.938932 1
10.252283 0.269944 0.938763 1
10.288547 0.230408 0.938585 1
10.276914 0.185941 0.938413 1
10.380636 0.108922 0.938049 49
10.352624 0.062904 0.937879 33
10.359951 0.024429 0.937721 19
10.351909 -0.024001 0.937531 23
10.351322 -0.067431 0.937357 50
10.350582 -0.110844 0.937183 50
10.357368 -0.149367 0.937025 42
10.372593 -0.196025 0.936829 20
10.375120 -0.234898 0.936672 23
10.369929 -0.280737 0.936491 44
10.376428 -0.323696 0.936315 46
10.378783 -0.366902 0.936140 15
10.402821 -0.448093 0.935802 13
10.366542 -0.536257 0.935467 1
10.368232 -0.581585 0.935284 1
10.373684 -0.624633 0.935108 1
10.386922 -0.665324 0.934938 1
10.404134 -0.710327 0.934748 1
10.433086 -0.750856 0.934570 1
10.433949 -0.794257 0.934396 1
10.434662 -0.837661 0.934221 1
10.455196 -0.878669 0.934046 1
10.515613 -0.921675 0.933841 1
10.603888 -0.967179 0.933613 1
57.595798 -2.008093 0.904829 46
57.380028 -2.211859 0.904124 46
56.128513 -6.432720 0.887836 44
14.813380 -2.647782 0.924662 2
14.368236 -2.717220 0.924616 1
28.998898 -4.338207 0.910449 9
13.699999 -2.758797 0.924799 1
13.471591 -2.785454 0.924812 5
13.199170 -2.808135 0.924864 3
12.799398 -2.816120 0.925041 1
12.598867 -2.840928 0.925046 1
12.255186 -2.848616 0.925195 3
12.109917 -2.880067 0.925145 19
11.988386 -2.913746 0.925074 29
11.922261 -2.954306 0.924945 35
11.883745 -2.998377 0.924789 39
11.845090 -3.042203 0.924633 43
11.830035 -3.089335 0.924452 42
11.823096 -3.135185 0.924271 43
11.807347 -3.184596 0.924081 51
11.796144 -3.229738 0.923906 49
11.784399 -3.277235 0.923721 51
11.788271 -3.327318 0.923518 55
11.780132 -3.375434 0.923329 54
11.771827 -3.423521 0.923141 52
11.764208 -3.466774 0.922971 55
11.759519 -3.515518 0.922778 58
11.766457 -3.566443 0.922570 60
11.764439 -3.620768 0.922353 63
11.764056 -3.665507 0.922173 60
11.758662 -3.714305 0.921980 61
11.772710 -3.767009 0.921761 61
11.778717 -3.818252 0.921552 60
11.784534 -3.869570 0.921343 60
11.782331 -3.919317 0.921145 60
11.795595 -3.972430 0.920925 60
11.808656 -4.025672 0.920704 56
11.817608 -4.078176 0.920489 55
11.830806 -4.129244 0.920277 52
11.847164 -4.183740 0.920049 48
11.847726 -4.234770 0.919844 47
11.875351 -4.292269 0.919599 47
11.894964 -4.348136 0.919365 42
11.929902 -4.407962 0.919106 39
11.945174 -4.463277 0.918876 35
11.999030 -4.528465 0.918586 24
33.868908 -10.276147 0.884062 12
33.795448 -10.383905 0.883668 12
33.754810 -10.506745 0.883196 12
30.245123 -9.696119 0.888288 10
30.071859 -9.769670 0.888083 10
30.029554 -9.878368 0.887669 10
29.889034 -9.965452 0.887393 10
32.798859 -10.906304 0.882093 11
28.124826 -9.806158 0.888956 9
28.043592 -10.010518 0.888179 9
27.935465 -10.092132 0.887908 9
27.962568 -10.438285 0.886504 9
28.036238 -10.576774 0.885909 9
27.983658 -10.675430 0.885541 27
26.052000 -10.161589 0.888615 8
27.444185 -10.957537 0.884691 27
24.063745 -10.316134 0.889036 7
24.053715 -10.415198 0.888643 7
24.037893 -10.517479 0.888241 7
116.625519 -45.206551 0.700510 63
22.103355 -10.388315 0.889772 6
22.012581 -10.444809 0.889593 6
107.536224 -45.363903 0.704638 63
107.153732 -46.098511 0.701889 63
20.559975 -10.419930 0.890454 5
20.508591 -10.490865 0.890196 5
20.324821 -10.514602 0.890197 5
20.155195 -10.524762 0.890245 5
19.993416 -10.546395 0.890243 5
19.830090 -10.570826 0.890230 5
19.664574 -10.579612 0.890281 4
19.466646 -10.581936 0.890376 4
19.307426 -10.604758 0.890367 4
19.131796 -10.614583 0.890420 4
18.985447 -10.636630 0.890408 4
18.781116 -10.630908 0.890538 4
18.629509 -10.643962 0.890565 4
18.452967 -10.653038 0.890621 4
18.301678 -10.664169 0.890656 4
18.150778 -10.683167 0.890658 4
17.981787 -10.683757 0.890744 8
17.843679 -10.702579 0.890741 8
17.710970 -10.718881 0.890745 7
17.542734 -10.725231 0.890808 7
17.401447 -10.739639 0.890824 7
17.258429 -10.748015 0.890865 7
17.103178 -10.753438 0.890925 10
16.973028 -10.770695 0.890924 7
16.825235 -10.777958 0.890972 7
16.702438 -10.797281 0.890959 7
16.562044 -10.806540 0.890995 6
16.421816 -10.814937 0.891035 6
16.302908 -10.833817 0.891021 3
16.148907 -10.832961 0.891105 3
16.037279 -10.854129 0.891079 6
15.953769 -10.890052 0.890978 6
15.980419 -10.982491 0.890593 9
15.690616 -10.902784 0.891065 3
15.537514 -10.897734 0.891165 2
15.415968 -10.909512 0.891182 2
14.788726 -10.708957 0.892315 7
14.647543 -10.697324 0.892436 15
14.553298 -10.723886 0.892379 15
14.490073 -10.768207 0.892234 23
14.662117 -10.948561 0.891420 26
14.486768 -10.922220 0.891617 15
14.428197 -10.957403 0.891507 23
14.477037 -11.069619 0.891031 100
14.322589 -11.053758 0.891175 36
14.304466 -11.121205 0.890914 23
14.023647 -11.102706 0.891135 2
13.966475 -11.140796 0.891012 2
12.602878 -11.078701 0.891975 2
12.240539 -10.976415 0.892576 4
12.168196 -10.995949 0.892535 25
12.107186 -11.026830 0.892443 12
12.029862 -11.045778 0.892408 8
12.163588 -11.216213 0.891653 4
12.153814 -11.284377 0.891385 2
12.020598 -11.337892 0.891240 36
11.986306 -11.384329 0.891071 19
10.044659 -11.460664 0.891782 22
10.028052 -11.516328 0.891567 7
9.323669 -11.183611 0.893271 10
9.261415 -11.198936 0.893242 12
9.221682 -11.230840 0.893135 10
9.121090 -11.210497 0.893269 21
9.030305 -11.273476 0.893064 3
8.988605 -11.306449 0.892954 1
9.080699 -11.465468 0.892267 1
9.016180 -11.550862 0.891958 17
8.935082 -11.542958 0.892032 1
8.837960 -11.522609 0.892165 3
8.778331 -11.538027 0.892134 1
8.390631 -11.230742 0.893571 17
8.378411 -11.283023 0.893367 16
8.368032 -11.344589 0.893125 11
8.247194 -11.295747 0.893385 30
8.171859 -11.291663 0.893441 37
8.127527 -11.318551 0.893356 17
8.136231 -11.399628 0.893026 17
8.005260 -11.337316 0.893345 16
8.182829 -11.594029 0.892221 40
8.096095 -11.577475 0.892333 21
8.020618 -11.572044 0.892394 26
7.991956 -11.615689 0.892234 19
7.950428 -11.720337 0.891836 1
7.787323 -11.615179 0.892343 1
46.406006 -54.535107 0.699830 57
46.226925 -54.712673 0.699211 57
46.103107 -54.952332 0.698314 57
46.028591 -55.248672 0.697163 57
6.635068 -11.480187 0.893489 43
6.550325 -11.451488 0.893648 22
6.486086 -11.447145 0.893699 10
6.437067 -11.461146 0.893669 43
6.340493 -11.415655 0.893902 34
6.279232 -11.413419 0.893943 24
6.264575 -11.465912 0.893740 9
6.255240 -11.529298 0.893490 21
6.186568 -11.592999 0.893271 4
6.156236 -11.707129 0.892828 12
6.130960 -11.751475 0.892663 10
6.057383 -11.731843 0.892781 22
6.003189 -11.737468 0.892787 22
5.841860 -11.598247 0.893430 51
5.804887 -11.625555 0.893340 22
5.737144 -11.610745 0.893435 19
5.677989 -11.599390 0.893511 15
5.629323 -11.609900 0.893494 9
5.431934 -11.725007 0.893136 3
5.399060 -11.757472 0.893023 1
5.257659 -11.631360 0.893603 2
5.186875 -11.606987 0.893738 2
5.165899 -11.659799 0.893537 1
4.978600 -11.611547 0.893829 9
4.828322 -11.623510 0.893859 23
4.922655 -11.852883 0.892889 26
4.837932 -11.807237 0.893117 11
4.638662 -11.578259 0.894140 15
4.644113 -11.669241 0.893772 59
4.604304 -11.679860 0.893750 35
4.563095 -11.700587 0.893689 9
4.458907 -11.609600 0.894108 23
4.428115 -11.642348 0.893993 8
4.320427 -11.711420 0.893772 30
4.247645 -11.758741 0.893620 13
4.204123 -11.770091 0.893598 5
4.117000 -11.709436 0.893887 42
4.073725 -11.720287 0.893866 15
4.059801 -11.778707 0.893639 5
4.008626 -11.779890 0.893661 6
3.984596 -11.825293 0.893491 6
3.923732 -11.804047 0.893608 5
3.886053 -11.824658 0.893545 12
3.814054 -11.777259 0.893773 8
3.765131 -11.776335 0.893802 8
3.721919 -11.781266 0.893805 11
3.671248 -11.780934 0.893833 12
3.624388 -11.782940 0.893850 12
3.579461 -11.783775 0.893870 13
3.525350 -11.775689 0.893931 15
3.480572 -11.776133 0.893952 15
3.433975 -11.777347 0.893972 15
3.389228 -11.781942 0.893977 16
3.340957 -11.779192 0.894013 17
3.296415 -11.778900 0.894038 23
3.258953 -11.792810 0.894001 22
3.214348 -11.796699 0.894009 22
3.176543 -11.819345 0.893938 24
3.125083 -11.808445 0.894009 18
3.077171 -11.804555 0.894049 22
3.032730 -11.807713 0.894060 21
2.984972 -11.803430 0.894102 21
2.940637 -11.806218 0.894114 25
2.894919 -11.800690 0.894160 25
2.850452 -11.807613 0.894156 26
2.807884 -11.813517 0.894154 26
2.766948 -11.822915 0.894138 25
2.728176 -11.826843 0.894143 26
2.680288 -11.830235 0.894154 26
2.638415 -11.826508 0.894191 23
2.590955 -11.825028 0.894222 22
2.550107 -11.833614 0.894209 26
2.504640 -11.830970 0.894243 36
2.454671 -11.817047 0.894325 36
2.410904 -11.817719 0.894345 27
2.368686 -11.821926 0.894351 25
2.329467 -11.833396 0.894325 31
2.282851 -11.826132 0.894379 53
2.242183 -11.833569 0.894370 31
2.205858 -11.852039 0.894315 27
2.135464 -11.776321 0.894656 48
2.092203 -11.775738 0.894681 70
2.052283 -11.778019 0.894693 54
1.996070 -11.747819 0.894843 50
1.954449 -11.750443 0.894854 57
1.918843 -11.763496 0.894821 50
1.882675 -11.780873 0.894770 40
1.845895 -11.802567 0.894702 36
1.802911 -11.800837 0.894732 31
1.773730 -11.832272 0.894621 36
1.734660 -11.841597 0.894604 29
1.703923 -11.869063 0.894509 31
1.653238 -11.844028 0.894637 34
1.603419 -11.826988 0.894731 29
1.574437 -11.866093 0.894589 27
1.538450 -11.877887 0.894561 30
1.500527 -11.890172 0.894531 27
1.457711 -11.887078 0.894566 21
1.417357 -11.891450 0.894570 24
1.373931 -11.892442 0.894588 24
1.332442 -11.892679 0.894609 30
1.295209 -11.899842 0.894600 30
1.253772 -11.899781 0.894622 29
1.211244 -11.895728 0.894660 31
1.171022 -11.899191 0.894668 30
1.130815 -11.902505 0.894675 28
1.092809 -11.913367 0.894652 27
1.054508 -11.915861 0.894662 24
1.011958 -11.902800 0.894736 24
0.969737 -11.897812 0.894778 23
0.930887 -11.912486 0.894740 23
0.890643 -11.906681 0.894784 22
0.849710 -11.913333 0.894779 20
0.808671 -11.911594 0.894807 20
0.772537 -11.920849 0.894789 21
0.733454 -11.918344 0.894820 19
0.694435 -11.923935 0.894818 18
0.653491 -11.938087 0.894782 15
0.609777 -11.923943 0.894862 16
0.571699 -11.932986 0.894846 28
0.534686 -11.929323 0.894880 25
0.498373 -11.945903 0.894832 18
0.464609 -11.974070 0.894737 14
0.419442 -11.951363 0.894852 9
0.370209 -11.908931 0.895048 38
0.326325 -11.889759 0.895148 41
0.290584 -11.917785 0.895054 38
0.255765 -11.941382 0.894977 42
0.218740 -11.944883 0.894983 28
0.178244 -11.940793 0.895020 25
0.143579 -11.976182 0.894896 23
0.109904 -11.986791 0.894871 15
0.048608 -11.872242 0.895363 28
0.015811 -11.906858 0.895242 18
-0.020536 -11.933852 0.895152 19
-0.048329 -11.987614 0.894951 15
-0.096931 -11.935251 0.895187 15
-0.131678 -11.961543 0.895099 21
-0.165266 -11.995614 0.894980 12
-0.203571 -12.014108 0.894926 14
-0.241935 -12.008156 0.894970 9
-1.276325 -13.494925 0.889543 13
-1.362892 -13.467605 0.889698 1
-1.434093 -13.827399 0.888291 6
-1.475063 -13.921220 0.887936 11
-1.521884 -13.875008 0.888146 4
-1.568915 -13.812634 0.888421 1
-1.616713 -13.710110 0.888858 1
-1.746704 -13.861398 0.888318 9
-1.817760 -12.246430 0.894839 27
-1.856949 -12.246998 0.894857 95
-1.896843 -12.171432 0.895181 31
-1.935839 -12.159725 0.895248 22
-1.974624 -12.203881 0.895091 19
-2.013693 -12.227901 0.895016 12
-2.058113 -13.351764 0.890527 41
-2.103292 -13.611475 0.889508 27
-2.145232 -13.439051 0.890222 6
-2.170119 -12.222618 0.895119 2
-2.208625 -12.189962 0.895270 1
-2.245049 -12.161216 0.895404 1
-2.283633 -12.148297 0.895476 3
-2.351097 -13.134817 0.891552 9
-2.397019 -13.245458 0.891131 1
-2.432215 -13.036134 0.891990 1
-2.538448 -13.604385 0.889765 1
-2.582898 -13.566367 0.889941 1
-2.627285 -13.620296 0.889747 1
-5.355670 -14.858865 0.886204 1
-5.413964 -14.898155 0.886077 1
-5.873789 -14.884909 0.886371 1
-5.882053 -14.720528 0.887035 1
-6.516558 -15.792887 0.883062 3
-6.564755 -15.757129 0.883231 5
-6.191355 -14.394533 0.888506 4
-6.147166 -14.085518 0.889723 81
-6.163386 -13.979563 0.890157 9
-5.539526 -11.906997 0.898150 6
-5.581258 -11.905974 0.898176 6
-6.437827 -14.352734 0.888802 8
-6.476681 -14.314417 0.888977 6
-5.730547 -11.978332 0.897964 11
-6.284476 -13.462934 0.892294 16
-6.387081 -13.617888 0.891726 15
-6.368583 -13.425174 0.892490 22
-6.397099 -13.368399 0.892732 15
-6.449661 -13.379319 0.892716 6
-6.881311 -14.431195 0.888720 9
-6.111810 -12.195494 0.897291 2
-6.644309 -13.375896 0.892832 19
-6.580879 -13.079164 0.893990 9
-6.689547 -13.110288 0.893922 13
-6.756533 -13.157156 0.893769 9
-6.857771 -13.289242 0.893291 9
-6.992669 -13.502474 0.892506 58
-7.063990 -13.560028 0.892312 13
-7.474004 -14.446939 0.888967 9
-7.239784 -13.738878 0.891686 100
-7.731949 -14.803585 0.887670 21
-7.773133 -14.760358 0.887865 17
-7.497669 -13.977893 0.890862 16
-7.536567 -13.943917 0.891019 27
-7.578471 -13.917170 0.891148 52
-7.613852 -13.875625 0.891333 37
-7.658692 -13.855950 0.891436 32
-7.669312 -13.759377 0.891829 27
-7.717494 -13.759750 0.891853 19
-7.710209 -13.613841 0.892435 21
-7.724175 -13.528362 0.892785 12
-8.372530 -14.823977 0.887924 19
-7.690939 -13.235305 0.893944 27
-7.824202 -13.402582 0.893342 7
-7.875966 -13.400246 0.893379 6
-7.915690 -13.372444 0.893511 1
-8.177859 -13.476047 0.893233 9
-8.242779 -13.497333 0.893181 3
-8.306120 -13.514746 0.893144 14
-8.282212 -13.365427 0.893731 7
-8.287221 -13.264037 0.894141 21
-8.471619 -13.099559 0.894898 6
-8.405373 -12.876299 0.895759 4
-8.418017 -12.801179 0.896068 1
-8.435873 -12.741263 0.896317 4
-6.325654 -8.830061 0.910913 0
-6.356790 -8.821899 0.910962 0
-6.243351 -8.559913 0.911955 0
-6.346629 -8.680736 0.911524 0
-6.345538 -8.616907 0.911779 0
-6.499914 -8.823461 0.911031 0
-6.391119 -8.576777 0.911964 0
-6.370211 -7.967796 0.914398 0
-6.461737 -8.061387 0.914070 0
-6.356163 -7.839361 0.914906 0
-6.254366 -7.629038 0.915697 0
-6.401488 -7.805428 0.915066 0
-6.220489 -7.479378 0.916280 0
-6.295801 -7.544788 0.916057 0
-6.300860 -7.503088 0.916227 0
-6.330133 -7.498013 0.916263 0
-6.424823 -7.491938 0.916337 0
-6.454195 -7.486335 0.916375 0
-6.483582 -7.480607 0.916413 0
-6.508398 -7.468195 0.916476 0
-6.558521 -7.491661 0.916408 0
-6.606546 -7.511592 0.916353 0
-6.843191 -7.794842 0.915340 0
-6.841097 -7.742190 0.915550 1
-6.871579 -7.734964 0.915595 1
-6.873747 -7.688853 0.915781 0
-6.757082 -7.481749 0.916552 0
-6.708130 -7.368717 0.916980 0
-6.714797 -7.333839 0.917123 0
-6.736808 -7.317343 0.917201 0
-6.758761 -7.300770 0.917279 0
-6.756389 -7.252324 0.917472 0
-6.779200 -7.234849 0.917554 0
-7.315831 -7.836163 0.915421 1
-7.317353 -7.789256 0.915610 1
-7.318614 -7.742421 0.915799 1
-7.342047 -7.723815 0.915886 1
-7.370423 -7.711366 0.915951 1
-7.411349 -7.714355 0.915960 1
-7.475091 -7.745057 0.915871 0
-7.521358 -7.753742 0.915860 0
-7.505461 -7.689126 0.916111 0
-7.527546 -7.670832 0.916196 0
-7.473707 -7.559478 0.916615 0
-7.488460 -7.526183 0.916756 0
-7.498188 -7.491743 0.916900 0
-7.559752 -7.518102 0.916826 0
-7.589101 -7.508721 0.916879 0
-7.636794 -7.520372 0.916857 0
-7.709440 -7.557901 0.916745 0
-7.790342 -7.604012 0.916602 0
-7.777299 -7.540830 0.916849 0
-7.820191 -7.545517 0.916852 0
-7.854763 -7.536043 0.916908 0
-7.895122 -7.537358 0.916924 0
-7.945910 -7.545274 0.916919 0
-7.989148 -7.549102 0.916926 0
-8.039044 -7.557539 0.916919 0
-8.084764 -7.558787 0.916937 0
-8.093877 -7.522914 0.917086 0
-8.138501 -7.524876 0.917102 0
-8.188725 -7.532405 0.917098 0
-8.206389 -7.510040 0.917197 0
-8.273399 -7.534436 0.917134 0
-8.357364 -7.575671 0.917012 0
-8.360646 -7.533408 0.917184 0
-8.450138 -7.574511 0.917066 0
-8.484241 -7.563321 0.917128 0
-8.527361 -7.565577 0.917142 0
-8.620494 -7.608181 0.917020 0
-8.703199 -7.644074 0.916919 0
-46.627460 -27.718290 0.856193 34
-46.303020 -27.325094 0.857601 34
-46.139534 -27.020058 0.858740 33
-47.217747 -27.443003 0.857607 35
-48.223305 -27.814596 0.856642 37
-48.514206 -27.766741 0.856986 37
-48.566753 -27.570324 0.857802 37
-44.587654 -24.723885 0.867145 29
-44.631615 -24.553820 0.867851 29
-44.281948 -24.168596 0.869214 28
-44.608562 -24.154469 0.869442 28
-44.773582 -24.051109 0.869943 28
-44.754921 -23.848909 0.870745 28
-45.060589 -23.819319 0.871024 29
-43.432873 -22.772659 0.874373 25
-44.533939 -23.161680 0.873388 27
-45.343189 -23.391001 0.872891 29
-45.022198 -23.035488 0.874150 28
-44.278332 -22.468941 0.876035 26
-44.356518 -22.323030 0.876662 26
-46.261322 -22.895227 0.875362 30
-45.256187 -22.210911 0.877583 28
-46.139496 -22.452909 0.877074 29
-46.091496 -22.239729 0.877905 29
-46.071308 -22.059748 0.878616 29
-50.201332 -23.825174 0.873692 36
-50.114048 -23.578672 0.874636 36
-47.130875 -21.968985 0.879536 31
-47.301846 -21.856451 0.880077 31
-50.369476 -23.083561 0.876757 36
-50.136368 -22.774565 0.877875 36
-50.171856 -22.588425 0.878641 36
-22.434357 -9.160061 0.918023 4
-22.674753 -9.172318 0.918100 4
-22.677000 -9.089921 0.918432 4
-22.145348 -8.801503 0.919311 3
-22.278086 -8.448736 0.920797 3
-22.115858 -8.309767 0.921270 3
-22.996798 -8.216987 0.922103 4
-23.120289 -8.177030 0.922328 4
-22.692583 -7.955680 0.922993 3
-22.500237 -7.811704 0.923470 3
-23.118011 -7.853135 0.923627 4
-23.236986 -7.809832 0.923863 4
-23.733522 -7.885057 0.923822 4
-23.953287 -7.866087 0.924013 4
-68.588669 -21.530773 0.892530 55
-68.564186 -21.269110 0.893568 55
-68.033386 -20.868639 0.894897 54
-67.998734 -20.607292 0.895928 54
-18.179834 -5.760509 0.929442 2
-18.227024 -5.712893 0.929658 2
-18.154840 -5.630971 0.929949 2
-17.978327 -5.520331 0.930301 2
-18.236738 -5.532001 0.930389 2
-19.074074 -5.700547 0.930151 2
-18.024576 -5.352765 0.930998 2
-17.846355 -5.245275 0.931336 1
-18.069908 -5.244856 0.931454 2
-17.790281 -5.112467 0.931840 1
-17.889732 -5.079105 0.932026 1
-17.849499 -5.009944 0.932282 1
-17.917683 -4.968077 0.932486 1
-17.845882 -4.891603 0.932755 1
-17.758186 -4.811936 0.933029 1
-17.825817 -4.769819 0.933234 1
-17.862829 -4.717237 0.933464 1
-17.867205 -4.662825 0.933685 1
-18.098318 -4.656776 0.933830 2
-18.704433 -4.732467 0.933844 2
-18.619596 -4.652781 0.934119 2
-18.354517 -4.535069 0.934453 2
-18.366688 -4.477960 0.934688 2
-18.124088 -4.367951 0.935003 1
-18.163111 -4.317244 0.935227 1
-18.327482 -4.291453 0.935417 2
-18.237316 -4.211530 0.935690 2
-18.293495 -4.110480 0.936125 2
-18.327778 -4.057977 0.936354 2
-20.345154 -4.367124 0.936169 2
-82.597130 -15.434650 0.924336 63
-82.602135 -15.130876 0.925559 63
-101.157784 -18.040680 0.923594 63
-96.179237 -16.847870 0.925775 63
-96.652290 -16.587843 0.927067 63
-96.287437 -16.190001 0.928473 63
-96.932526 -15.954026 0.929758 63
-116.755791 -18.662205 0.929266 63
-100.048676 -15.743549 0.932234 63
-39.248241 -5.818083 0.940242 12
-39.268734 -5.688532 0.940773 12
-39.221272 -5.550679 0.941302 12
-39.360001 -5.435279 0.941838 12
-38.938049 -5.254728 0.942342 12
-39.256248 -4.764987 0.944474 12
-172.056885 -10.974601 0.989082 63
-171.792679 -10.334816 0.991512 63
-175.248230 -9.342008 0.997306 63
-170.811096 -7.918500 1.000697 63
-171.132828 -7.369924 1.003068 63
10.467360 0.774066 1.013881 0
10.471360 0.688078 1.013488 0
10.342156 0.628705 1.012527 0
10.344430 0.580789 1.012310 0
10.326133 0.534686 1.011995 0
10.301757 0.403083 1.011247 0
10.286534 0.360049 1.010966 1
10.287535 0.314576 1.010759 1
10.280185 0.270423 1.010516 0
10.276656 0.226742 1.010296 0
10.288686 0.186806 1.010176 0
10.288639 0.145671 1.009988 1
10.328681 0.103892 1.010008 2
10.292495 0.059504 1.009617 1
10.296370 0.014443 1.009434 2
10.291932 -0.029128 1.009215 4
10.307116 -0.068970 1.009117 9
10.294563 -0.115258 1.008844 10
10.289516 -0.156593 1.008634 3
10.300439 -0.198964 1.008505 1
10.311214 -0.241400 1.008376 1
10.301751 -0.282947 1.008144 1
10.304250 -0.325892 1.007970 0
10.322690 -0.370151 1.007876 0
10.328879 -0.412972 1.007724 0
10.334821 -0.453675 1.007581 0
10.336815 -0.498888 1.007398 0
10.350467 -0.539334 1.007299 0
10.377511 -0.624801 1.007081 0
10.390811 -0.667667 1.006972 0
10.395965 -0.710821 1.006819 0
10.476950 -0.752377 1.007075 0
10.461812 -0.796218 1.006814 0
10.446520 -0.839950 1.006553 0
10.791023 -0.877390 1.008222 0
10.559437 -0.921624 1.006817 0
57.198608 -0.762955 1.254103 61
57.198971 -1.176238 1.252444 61
57.266003 -1.393638 1.251932 61
57.304440 -1.590552 1.251354 61
57.462074 -1.799655 1.251361 3
57.431171 -1.996372 1.250425 61
57.403408 -2.203339 1.249469 61
70.177307 -3.226725 1.313043 63
66.957489 -3.839273 1.293695 63
60.789829 -5.114743 1.256397 63
56.503258 -5.861877 1.231116 59
55.197166 -6.156063 1.223203 55
14.572546 -2.683260 1.021450 3
14.256608 -2.706021 1.019711 2
13.900338 -2.727998 1.017763 2
13.620269 -2.750328 1.016216 3
13.367743 -2.776677 1.014801 3
13.099336 -2.799411 1.013316 2
12.680070 -2.801978 1.011107 2
12.435929 -2.820938 1.009764 5
12.187860 -2.837791 1.008408 9
12.058492 -2.871116 1.007622 21
11.964741 -2.908386 1.007010 33
11.914145 -2.953500 1.006599 23
11.872018 -2.994557 1.006247 35
11.857126 -3.041811 1.006019 50
11.834161 -3.087804 1.005753 58
11.826859 -3.136081 1.005563 71
11.835197 -3.186808 1.005448 93
11.811751 -3.232557 1.005184 93
11.807893 -3.281402 1.005013 75
11.799915 -3.329586 1.004824 66
11.795713 -3.378416 1.004653 68
11.795699 -3.425525 1.004511 66
11.799033 -3.475768 1.004377 69
11.790378 -3.523921 1.004188 68
11.793354 -3.574227 1.004055 68
11.792215 -3.623843 1.003902 66
11.798756 -3.674994 1.003787 66
11.801180 -3.725452 1.003653 65
11.811266 -3.777526 1.003555 66
11.817236 -3.828906 1.003438 65
11.823016 -3.880362 1.003322 68
11.833027 -3.930302 1.003232 65
11.842341 -3.982756 1.003133 66
11.843642 -4.033608 1.002998 63
11.848660 -4.085371 1.002880 63
11.861292 -4.138961 1.002798 62
11.873162 -4.195098 1.002706 63
11.897624 -4.249233 1.002685 60
11.913519 -4.304157 1.002619 60
11.933089 -4.360163 1.002570 61
11.956325 -4.417293 1.002538 52
11.967680 -4.471746 1.002453 18
12.048662 -4.543837 1.002679 6
30.882284 -9.506200 1.086091 7
30.604813 -9.556091 1.084548 7
30.261675 -9.586699 1.082722 7
29.957348 -9.625416 1.081075 7
29.614561 -9.651578 1.079267 6
29.310534 -9.686123 1.077636 6
28.995100 -9.715410 1.075964 6
28.722170 -9.754635 1.074485 6
28.391689 -9.775452 1.072761 6
28.092161 -9.803034 1.071180 6
27.840384 -9.837034 1.069826 5
27.527397 -9.851124 1.068213 5
27.259045 -9.882248 1.066788 5
26.990835 -9.911608 1.065369 5
26.763243 -9.957272 1.064119 5
26.453331 -9.970003 1.062533 5
26.198608 -9.992749 1.061204 5
25.984364 -10.032269 1.060041 5
25.941326 -10.126179 1.059617 5
27.419664 -10.841401 1.065434 11
27.451363 -10.960651 1.065334 11
27.367275 -11.046593 1.064730 5
24.034286 -10.219261 1.049920 4
24.010330 -10.405298 1.049418 9
116.735863 -44.826183 1.437541 63
22.133472 -10.497694 1.040010 3
107.582932 -45.385426 1.391640 63
107.712914 -45.862068 1.391402 63
107.629166 -46.297474 1.390210 63
107.321472 -47.066372 1.387354 63
107.746124 -47.674328 1.388341 63
19.894016 -10.503866 1.029139 3
20.030495 -10.750794 1.029378 6
18.028402 -10.879906 1.019679 7
16.138882 -10.909971 1.010876 2
16.030916 -11.015029 1.010256 12
14.881232 -10.684368 1.005420 1
14.741685 -10.678331 1.004796 26
14.637026 -10.699397 1.004302 11
14.658344 -10.789788 1.004300 7
14.534616 -10.794951 1.003739 29
14.500396 -10.852608 1.003526 13
14.407681 -10.875132 1.003089 16
14.561379 -11.046279 1.003600 19
14.435839 -11.044906 1.003043 16
14.363263 -11.079173 1.002688 14
14.389427 -11.249621 1.002641 1
12.583916 -11.141259 0.994908 1
12.400981 -11.088963 0.994168 1
12.051538 -10.987721 0.992758 18
11.997134 -11.022755 0.992506 5
12.119727 -11.181266 0.992922 2
12.148942 -11.277446 0.992985 13
12.054907 -11.284308 0.992588 28
11.980330 -11.304862 0.992266 23
11.952181 -11.363180 0.992116 5
10.048407 -11.321448 0.984470 6
10.083906 -11.421363 0.984585 9
9.979219 -11.407929 0.984182 18
9.998946 -11.494947 0.984241 3
9.316469 -11.245423 0.981671 9
9.197870 -11.209485 0.981226 20
9.147490 -11.234999 0.981034 5
9.034070 -11.345705 0.980603 2
9.123136 -11.502119 0.980928 11
9.054564 -11.510594 0.980674 7
8.939798 -11.474502 0.980251 7
8.787953 -11.401680 0.979693 1
8.722925 -11.411436 0.979456 2
8.632195 -11.395723 0.979124 3
8.492153 -11.327207 0.978613 12
8.473173 -11.380646 0.978548 5
8.360432 -11.340919 0.978138 33
8.284807 -11.337360 0.977867 11
8.122099 -11.245275 0.977275 21
8.094758 -11.289104 0.977184 41
8.058851 -11.324278 0.977061 23
8.031175 -11.367943 0.976970 8
8.008863 -11.417303 0.976900 4
7.906174 -11.382783 0.976534 18
7.896545 -11.441681 0.976512 6
7.829921 -11.444151 0.976281 6
7.768868 -11.452123 0.976072 7
7.702432 -11.453937 0.975844 8
7.630675 -11.449537 0.975597 8
7.572585 -11.459505 0.975401 10
7.511849 -11.466237 0.975197 11
7.453866 -11.475640 0.975003 12
7.387916 -11.475837 0.974782 12
7.322081 -11.475700 0.974561 14
7.261664 -11.481222 0.974361 14
7.206605 -11.492458 0.974182 15
7.142886 -11.489789 0.973970 15
7.082700 -11.494441 0.973774 15
7.022593 -11.498801 0.973579 17
6.959968 -11.499829 0.973375 16
6.900034 -11.503597 0.973182 18
6.842761 -11.510133 0.973000 15
6.790687 -11.522532 0.972838 15
6.723293 -11.516237 0.972619 16
6.650959 -11.503430 0.972383 56
6.583892 -11.496435 0.972167 31
6.554844 -11.535644 0.972095 16
6.457077 -11.486174 0.971763 45
6.409805 -11.498562 0.971622 29
6.330801 -11.474673 0.971364 31
6.242802 -11.442389 0.971075 42
6.203901 -11.467952 0.970969 31
6.151991 -11.473020 0.970814 31
6.144841 -11.539365 0.970830 19
6.098321 -11.555046 0.970698 14
6.046938 -11.564172 0.970549 13
5.988343 -11.563501 0.970373 15
5.922638 -11.552962 0.970171 23
5.878644 -11.570938 0.970052 44
5.791196 -11.526321 0.969766 39
5.778189 -11.585666 0.969767 24
5.724740 -11.590145 0.969614 28
5.644186 -11.564672 0.969363 35
5.604504 -11.583471 0.969262 28
5.564781 -11.602122 0.969161 22
5.513908 -11.608891 0.969021 20
5.463533 -11.620006 0.968887 25
5.413179 -11.630895 0.968753 30
5.357432 -11.625840 0.968594 28
5.308608 -11.630415 0.968461 29
5.251615 -11.630711 0.968304 31
5.187191 -11.611670 0.968112 41
5.152411 -11.640012 0.968040 31
5.082327 -11.619593 0.967833 36
5.038295 -11.629687 0.967722 36
4.994273 -11.639606 0.967613 39
4.948740 -11.655124 0.967504 36
4.893845 -11.647905 0.967353 28
4.848045 -11.658451 0.967242 27
4.791786 -11.656508 0.967093 25
4.731067 -11.642984 0.966923 35
4.657469 -11.604300 0.966699 45
4.624983 -11.638811 0.966647 32
4.587877 -11.661872 0.966574 50
4.536036 -11.660944 0.966442 39
4.494689 -11.676863 0.966353 62
4.453104 -11.688073 0.966260 62
4.413768 -11.707104 0.966181 30
4.355778 -11.690512 0.966022 22
4.306455 -11.696514 0.965908 28
4.257015 -11.697756 0.965789 43
4.223583 -11.721904 0.965733 28
4.166334 -11.713456 0.965588 27
4.114947 -11.706071 0.965458 41
4.065762 -11.706479 0.965343 54
4.030385 -11.731072 0.965286 26
3.987110 -11.741580 0.965197 15
3.945708 -11.750878 0.965111 15
3.894675 -11.742495 0.964986 14
3.843808 -11.738421 0.964866 10
3.800681 -11.752729 0.964785 10
3.753734 -11.755284 0.964683 9
3.708717 -11.761175 0.964590 7
3.660000 -11.759805 0.964481 6
3.613214 -11.761770 0.964381 3
3.572005 -11.774196 0.964307 2
3.525342 -11.771267 0.964203 1
3.480455 -11.780753 0.964119 1
3.426634 -11.767682 0.963990 0
3.385591 -11.774888 0.963913 0
3.346339 -11.785523 0.963845 0
3.301548 -11.794279 0.963763 0
3.313152 -11.908861 0.963925 0
3.123489 -11.618552 0.963190 0
2.478705 -11.664107 0.962043 0
2.433831 -11.661215 0.961962 0
2.433172 -11.877831 0.962255 6
2.289124 -11.836628 0.961961 28
2.235265 -11.810575 0.961838 20
2.197136 -11.829755 0.961805 43
2.150769 -11.821937 0.961721 53
2.107815 -11.816948 0.961647 47
2.081376 -11.861170 0.961669 64
2.049094 -11.890344 0.961662 39
2.019425 -11.926930 0.961670 39
1.998594 -11.994205 0.961737 28
1.996882 -12.109698 0.961901 17
1.698037 -11.621512 0.960763 0
13.039482 -53.956993 1.039465 48
12.888080 -54.128563 1.039577 48
12.770848 -54.426945 1.039928 49
12.426417 -53.899334 1.038739 47
12.062986 -53.285000 1.037397 45
11.913292 -53.457489 1.037527 45
11.615564 -53.857838 1.037889 46
11.517128 -54.205082 1.038360 47
11.331398 -54.251942 1.038269 47
12.183487 -59.335842 1.047288 63
12.045066 -59.657291 1.047698 63
11.804493 -59.554127 1.047331 63
11.615173 -59.713432 1.047442 63
11.446305 -59.871346 1.047570 63
11.177629 -59.636936 1.046978 63
10.978123 -59.706009 1.046945 63
10.829299 -60.008923 1.047341 63
10.605489 -60.020344 1.047203 63
10.203257 -59.079288 1.045356 61
0.215239 -11.937506 0.959759 13
-0.030998 -11.887041 0.959533 8
-0.075446 -11.846251 0.959441 43
-0.114620 -11.845022 0.959420 22
-0.175018 -11.960819 0.959591 2
-0.214533 -11.947072 0.959551 2
-0.227436 -12.111233 0.959829 0
-1.189074 -13.525716 0.962209 0
-1.240568 -13.400711 0.961994 0
-1.281479 -13.443219 0.962078 0
-1.324631 -13.449646 0.962098 0
-1.449396 -13.579917 0.962361 0
-1.573349 -13.812867 0.962816 0
-1.705654 -13.792588 0.962827 4
-1.898612 -12.187522 0.960025 53
-1.929421 -13.267776 0.961982 19
-1.974311 -13.267953 0.962005 21
-2.015009 -13.335971 0.962148 33
-2.058187 -13.375843 0.962243 35
-2.101612 -13.411563 0.962332 11
-2.139394 -12.943166 0.961512 6
-2.187631 -13.378555 0.962323 2
-2.207617 -12.138043 0.960107 0
-2.283382 -12.064347 0.960024 1
-2.322048 -12.067288 0.960056 6
-2.359955 -12.046108 0.960044 1
-2.455939 -13.635743 0.962966 12
-2.496170 -13.538150 0.962821 7
-2.542276 -13.592290 0.962953 4
-5.874209 -14.868249 0.970014 0
-5.818285 -13.977081 0.968494 6
-5.885227 -14.036499 0.968732 51
-5.930639 -14.022858 0.968811 13
-5.971319 -13.993758 0.968856 3
-6.002372 -13.933969 0.968833 2
-6.109379 -13.959085 0.969114 4
-6.260240 -14.116467 0.969700 3
-6.412231 -14.424470 0.970519 5
-6.479217 -14.469708 0.970745 5
-5.671739 -11.918059 0.965012 12
-6.323964 -13.707383 0.969237 34
-6.583311 -14.316180 0.970765 15
-6.591843 -14.198922 0.970612 2
-6.085475 -12.621645 0.967054 48
-6.780389 -14.437840 0.971426 9
-6.640589 -13.910074 0.970309 39
-6.534507 -13.472023 0.969409 9
-6.338891 -12.806724 0.967955 2
-6.504140 -12.997041 0.968649 21
-6.547341 -12.984984 0.968743 6
-6.584776 -12.957837 0.968802 6
-7.230405 -14.505143 0.972670 11
-6.773259 -13.206503 0.969646 8
-6.996208 -13.505419 0.970655 17
-7.466122 -14.549481 0.973359 6
-7.498201 -14.493283 0.973369 21
-7.289839 -13.848092 0.971921 8
-7.262309 -13.655998 0.971585 8
-7.534332 -14.179569 0.973043 14
-7.567724 -14.130716 0.973071 9
-7.579655 -14.038651 0.972982 13
-7.646614 -14.075146 0.973219 24
-7.617559 -13.878420 0.972878 3
-7.646267 -13.822135 0.972886 5
-8.234306 -15.022846 0.976139 40
-7.750668 -13.586668 0.972886 9
-7.696789 -13.126608 0.972148 26
-7.685827 -12.994636 0.971951 7
-7.948813 -13.436454 0.973291 10
-8.610131 -14.694069 0.976842 4
-8.390763 -14.129154 0.975484 1
-8.747814 -14.733726 0.977312 1
-8.033545 -13.074279 0.973115 7
-8.228827 -13.356651 0.974060 8
-8.155672 -13.106715 0.973537 4
-8.228895 -13.145640 0.973814 15
-8.267081 -13.013230 0.973785 16
-8.282798 -12.941740 0.973754 3
-8.441525 -12.938636 0.974269 11
-8.412268 -12.786124 0.974005 5
-8.297264 -12.479718 0.973292 3
-8.804425 -13.300884 0.975864 3
-8.876513 -13.329438 0.976136 0
-6.402922 -8.837322 0.963069 1
-6.460413 -8.878338 0.963307 0
-6.417644 -8.736966 0.963015 0
-6.458549 -8.745749 0.963164 0
-6.586061 -8.903012 0.963762 0
-6.387635 -8.504725 0.962676 0
-6.334000 -7.548313 0.961605 0
-6.361209 -7.539794 0.961700 0
-6.393980 -7.541883 0.961825 0
-6.398746 -7.500030 0.961810 0
-6.437145 -7.507747 0.961962 0
-6.466573 -7.502100 0.962070 0
-6.503990 -7.505399 0.962215 0
-6.538066 -7.506024 0.962347 0
-6.568765 -7.504019 0.962464 0
-6.820591 -7.810945 0.963665 1
-6.827979 -7.771301 0.963666 1
