# .PCD v.7 - Point Cloud Data file format
VERSION .7
FIELDS x y z intensity
SIZE 4 4 4 1
TYPE F F F U
COUNT 1 1 1 1
WIDTH 1506
HEIGHT 1
VIEWPOINT 0 0 0 1 0 0 0
POINTS 1506
DATA ascii
34.332047 59.623478 2.600482 63
34.961948 60.178413 2.618297 63
35.325863 60.299706 2.624013 63
28.739975 49.447430 2.321453 53
28.992893 49.471428 2.324063 54
29.138384 49.344986 2.322360 54
36.638248 60.548504 2.640438 63
37.002861 60.630947 2.645346 63
37.344975 60.698338 2.649740 63
37.679806 60.774319 2.654282 63
38.055550 60.908588 2.660509 63
38.417850 60.973843 2.665070 63
38.752728 61.017876 2.668931 63
32.929111 52.046787 2.415777 63
33.147972 51.983986 2.416251 63
41.314720 63.401936 2.744978 63
41.378925 63.030869 2.737178 63
41.731052 63.072166 2.741205 63
42.087025 63.139019 2.745857 63
42.917194 63.844090 2.769057 63
43.152710 63.709793 2.768156 63
43.429272 63.608795 2.768386 63
36.181553 53.225151 2.471036 63
36.318672 53.030499 2.467946 63
44.423088 63.589558 2.776997 63
36.425190 52.419117 2.455330 63
36.674202 52.377518 2.456709 63
46.911812 65.547745 2.843426 63
47.330894 65.631165 2.849183 63
34.424526 48.361576 2.346929 62
48.201931 65.829521 2.861754 63
48.455044 65.688744 2.861058 63
39.464035 53.769314 2.513656 63
48.736950 65.121910 2.851316 63
49.264435 65.326241 2.860865 63
49.573807 65.253120 2.862261 63
49.797859 65.072861 2.860508 63
50.053017 64.953629 2.860405 63
50.502567 65.025513 2.866379 63
51.008327 65.184387 2.874814 63
42.824230 54.900555 2.571050 63
43.956478 55.872604 2.603332 63
52.911240 66.112671 2.913823 63
43.262241 54.282307 2.562093 63
43.577930 54.276142 2.565147 63
45.345348 55.974022 2.619501 63
54.921276 66.662529 2.945967 63
55.279022 66.611259 2.948530 63
48.238945 58.116146 2.694903 63
48.560627 58.099140 2.697861 63
67.872375 79.376259 3.350407 63
12.074645 16.410032 1.433347 8
12.106781 16.337368 1.432153 12
12.417949 16.567341 1.440292 13
12.578419 16.636761 1.443457 27
12.591976 16.542120 1.441617 13
12.629732 16.473770 1.440592 18
12.669940 16.408249 1.439656 18
5.763522 9.019506 1.210928 1
5.745598 8.942325 1.209130 1
5.748181 8.889621 1.208066 1
5.736476 8.822734 1.206554 1
5.739820 8.768895 1.205480 1
5.748643 8.726324 1.204701 1
5.731781 8.658370 1.203117 1
5.767033 8.639916 1.203132 1
5.743687 8.561090 1.201258 1
5.780203 8.546679 1.201374 1
5.786441 8.500132 1.200496 1
5.838543 8.498010 1.201043 1
5.841585 8.448636 1.200076 1
5.854683 8.411710 1.199478 1
5.884748 8.385763 1.199298 1
5.875491 8.325541 1.197977 1
5.902707 8.302241 1.197823 1
5.925252 8.272040 1.197478 1
5.953576 8.247175 1.197309 1
5.919731 8.165659 1.195285 1
5.931151 8.123323 1.194575 1
5.954769 8.097118 1.194331 1
5.994459 8.082756 1.194514 1
6.019175 8.054949 1.194256 1
6.043793 8.027055 1.193997 1
6.055042 7.989954 1.193400 1
6.071585 7.952674 1.192864 1
6.095847 7.924598 1.192604 1
6.192967 7.958798 1.194441 1
6.158116 7.882549 1.192532 1
6.182132 7.854171 1.192270 1
6.280848 7.885878 1.194085 1
6.406378 7.941409 1.196691 1
6.444811 7.926356 1.196869 1
6.509190 7.929928 1.197728 1
6.576798 7.935659 1.198670 1
6.697433 7.983723 1.201081 1
6.855940 8.061055 1.204523 1
6.940013 8.077574 1.205882 1
6.964705 8.046466 1.205597 1
7.130842 8.126392 1.209191 1
7.291335 8.200327 1.212604 1
7.435370 8.262630 1.215592 1
7.529191 8.285058 1.217197 1
7.681763 8.348945 1.220327 1
7.818957 8.399777 1.223020 1
8.010952 8.490609 1.227161 1
8.578535 8.746099 1.239174 1
8.608781 8.711627 1.238924 1
98.451286 73.814949 3.600080 63
98.792572 73.527115 3.599187 63
99.041977 73.172676 3.595905 63
99.476044 72.949272 3.597451 63
111.671158 81.005737 3.903664 63
16.429579 11.088001 1.386602 4
16.403275 10.994442 1.384680 4
16.080912 10.733236 1.375810 4
16.107773 10.666430 1.375090 4
16.123791 10.593927 1.374127 4
16.079367 10.489754 1.371790 4
15.838236 10.208572 1.363775 4
15.859644 10.140911 1.362984 4
15.862978 10.064141 1.361792 4
15.905265 10.007282 1.361483 4
15.947371 9.950238 1.361173 4
15.949889 9.873463 1.359982 4
15.995154 9.817954 1.359750 4
4.913673 4.339814 1.112562 0
4.565217 4.141858 1.104383 0
4.145250 3.889221 1.094306 1
3.837381 3.717027 1.087126 0
3.540419 3.530595 1.079886 0
3.331068 3.411524 1.074976 0
3.027311 3.209637 1.067408 5
2.976102 3.167264 1.066006 5
2.936033 3.129206 1.064835 6
2.877774 3.082668 1.063268 6
2.799880 3.010624 1.061027 7
2.766353 2.976948 1.060024 7
2.732650 2.943532 1.059023 7
2.695074 2.908852 1.057947 9
2.679860 2.882715 1.057332 10
2.656450 2.855333 1.056577 11
2.640335 2.831099 1.055979 4
2.658209 2.818644 1.056065 2
2.664567 2.802513 1.055925 5
2.663724 2.782661 1.055623 5
2.677424 2.769376 1.055637 5
2.672086 2.749728 1.055273 6
2.681641 2.735767 1.055217 6
2.673018 2.713167 1.054763 6
2.675254 2.695604 1.054546 5
2.681181 2.679415 1.054406 5
2.679235 2.661305 1.054120 6
2.688522 2.647255 1.054063 5
2.687023 2.627549 1.053764 5
2.692714 2.611319 1.053624 6
2.687004 2.591160 1.053256 5
2.700138 2.577510 1.053268 8
2.690493 2.556129 1.052825 15
2.657989 2.527255 1.051930 17
2.659530 2.509877 1.051715 25
2.672153 2.497025 1.051734 29
2.685263 2.482485 1.051738 44
2.671388 2.460212 1.051224 41
2.680310 2.445234 1.051160 42
2.700393 2.434575 1.051327 50
2.709234 2.419470 1.051262 50
2.713950 2.403980 1.051129 52
2.711196 2.385367 1.050840 52
2.708609 2.365977 1.050545 52
2.717227 2.350790 1.050479 52
2.725794 2.335560 1.050414 52
2.734313 2.320287 1.050348 52
2.742552 2.305791 1.050289 52
2.747346 2.288548 1.050141 52
2.759346 2.275033 1.050156 52
2.771530 2.260627 1.050162 52
2.783671 2.246151 1.050168 52
2.799639 2.232617 1.050247 52
2.800076 2.214999 1.050032 52
2.815744 2.202160 1.050117 52
2.823619 2.187289 1.050055 52
2.831861 2.170706 1.049979 52
2.851502 2.157746 1.050128 52
2.859441 2.141874 1.050058 52
2.863633 2.124203 1.049908 52
2.879059 2.110909 1.049989 52
2.890550 2.096636 1.049998 52
2.906092 2.082327 1.050071 52
2.917688 2.067060 1.050071 52
2.925514 2.050024 1.049992 52
2.944833 2.036303 1.050135 52
2.944543 2.018355 1.049918 44
2.951846 2.002894 1.049852 41
2.955354 1.985744 1.049707 39
2.966647 1.970142 1.049705 37
2.981817 1.955239 1.049774 33
2.997108 1.939378 1.049834 29
3.016116 1.925024 1.049973 26
3.030991 1.910695 1.050046 24
3.041890 1.895565 1.050048 22
3.060930 1.880019 1.050177 21
3.071889 1.863857 1.050171 15
3.094625 1.849641 1.050375 8
3.093652 1.831336 1.050156 17
3.096561 1.813691 1.050008 17
3.119156 1.799183 1.050211 7
90.700455 8.579000 2.531895 63
22.969667 -1.049672 1.349414 6
22.660421 -1.193164 1.343449 6
22.561062 -1.270642 1.341329 6
22.501276 -1.351265 1.339833 6
22.469086 -1.434262 1.338773 6
22.432634 -1.516654 1.337653 6
22.332273 -1.592058 1.335551 5
22.329575 -1.763378 1.334428 11
22.347633 -1.851394 1.334173 11
22.369345 -1.940048 1.333977 12
22.410580 -2.031348 1.334086 12
22.448046 -2.118205 1.334165 6
22.485205 -2.205344 1.334243 6
22.569048 -2.303424 1.335011 6
-10.138556 1.005876 1.112888 1
-10.106460 1.032828 1.112512 1
-10.082249 1.062472 1.112306 1
-9.993982 1.088329 1.110875 1
-9.969570 1.117392 1.110664 1
-9.969072 1.145350 1.110893 1
-9.944520 1.171363 1.110658 0
-9.903854 1.198185 1.110130 0
-9.887085 1.225437 1.110054 0
-9.810266 1.250585 1.108840 0
-9.805358 1.276470 1.108976 0
-9.788377 1.301848 1.108884 0
-9.791232 1.329345 1.109183 0
-9.749982 1.356167 1.108655 0
-9.740595 1.384311 1.108735 0
-9.751147 1.412117 1.109185 0
-9.733730 1.437032 1.109089 0
-9.696274 1.460623 1.108608 0
-9.730499 1.489935 1.109519 0
-9.744570 1.519497 1.110058 0
-9.718833 1.543601 1.109805 0
-9.720837 1.570979 1.110102 0
-9.746667 1.600253 1.110862 0
-9.752457 1.628082 1.111237 0
-9.746309 1.653580 1.111369 0
-9.767721 1.684238 1.112066 0
-9.741352 1.709279 1.111820 0
-9.770768 1.738129 1.112651 0
-9.768106 1.765389 1.112872 0
-9.777282 1.793867 1.113326 0
-9.782377 1.821995 1.113702 0
-9.846849 1.858098 1.115264 0
-9.843924 1.884247 1.115475 0
-9.836778 1.911296 1.115618 0
-9.837480 1.939264 1.115919 0
-9.865864 1.970694 1.116770 0
-9.870322 1.999297 1.117149 0
-9.870893 2.026042 1.117439 0
-9.883079 2.055782 1.117977 0
-9.879114 2.084814 1.118211 0
-9.926912 2.118359 1.119452 1
-9.926878 2.146736 1.119754 1
-9.966300 2.181011 1.120852 1
-9.985810 2.212564 1.121553 1
-10.021005 2.246732 1.122575 1
-10.052108 2.280531 1.123518 1
-10.063337 2.311344 1.124064 1
-10.102301 2.345432 1.125159 1
-10.132998 2.379880 1.126107 1
-10.187196 2.418664 1.127539 1
-10.241221 2.457842 1.128973 1
-10.287202 2.495992 1.130250 1
-10.329084 2.533756 1.131449 1
-10.461200 2.588830 1.134506 2
-10.482770 2.625253 1.135319 1
-87.384163 17.674124 2.720622 63
-87.372421 17.981569 2.723967 63
-87.316460 18.280401 2.726420 63
-93.992386 19.967405 2.868492 63
-86.281631 18.684504 2.712204 63
-86.101196 18.938160 2.711900 63
-86.279579 19.268764 2.719089 63
-86.394867 19.602581 2.725179 63
-83.484497 19.259670 2.667918 63
-83.349998 19.528145 2.668699 63
-83.296432 19.814838 2.671195 63
-83.241859 20.101383 2.673688 63
-83.306854 20.416574 2.678727 63
-90.875488 22.552410 2.842675 63
-82.687645 20.865448 2.672996 63
-82.524612 21.123846 2.673241 63
-84.985092 22.046936 2.729407 63
-85.031097 22.367514 2.734257 63
-81.597000 21.765608 2.664457 63
-81.690186 22.087454 2.670213 63
-73.188072 20.104002 2.491225 63
-75.443893 20.984598 2.543231 63
-75.126884 21.172920 2.539921 63
-75.052094 21.427118 2.541845 63
-74.918701 21.664686 2.542514 63
-75.130486 22.000908 2.550697 63
-75.436806 22.366789 2.560984 63
-74.728760 22.436598 2.549172 63
-74.549950 22.659590 2.548898 63
-75.021225 23.078337 2.562892 63
-75.261116 23.416431 2.571683 63
-73.761292 23.231962 2.542368 63
-73.229080 23.340055 2.534297 63
-72.418747 23.356377 2.520036 63
-72.340202 23.602186 2.521957 63
-72.367287 23.882343 2.526243 63
-72.951698 24.346687 2.542983 63
-72.664795 24.526144 2.540335 63
-72.741341 24.826410 2.545824 63
-72.354828 24.970173 2.540946 63
-72.285774 25.220961 2.543198 63
-73.439369 25.897919 2.573059 63
-24.356798 8.965836 1.467824 16
-71.886467 26.443357 2.553296 63
-71.575714 26.605812 2.550130 63
-65.214691 24.528809 2.408595 63
-64.825172 24.634024 2.403257 63
-64.667877 24.812538 2.403064 63
-64.449898 24.979685 2.401655 63
-64.347092 25.190437 2.402909 63
-62.553200 24.738253 2.364964 63
-62.283985 24.876003 2.362275 63
-62.252186 25.107220 2.365110 63
-63.754543 25.958754 2.403811 63
-63.544788 26.124435 2.402610 63
-63.615620 26.404785 2.407998 63
-63.083462 26.435417 2.399221 63
-63.126945 26.704414 2.403995 63
-58.634182 25.048819 2.301429 63
-58.513618 25.219301 2.301912 63
-58.571808 25.478479 2.306832 63
-58.772469 25.789265 2.315002 63
-58.121300 25.750494 2.303207 63
-60.866905 27.194653 2.372443 63
-57.472778 25.928925 2.294803 63
-57.407207 26.132456 2.296812 63
-57.403496 26.352785 2.300150 63
-62.030952 28.723618 2.415938 63
-61.667889 28.821953 2.411275 63
-61.754887 29.117014 2.417362 63
-76.945259 36.582653 2.792608 63
-76.430992 36.657619 2.785055 63
-58.940105 28.525373 2.360271 63
-58.859230 28.719429 2.361974 63
-59.685719 29.359501 2.386106 63
-56.031029 27.809902 2.299745 63
-56.641579 28.351007 2.318683 63
-56.650478 28.582623 2.322549 63
-56.369736 28.667734 2.319204 63
-56.652115 29.064199 2.330341 63
-56.919533 29.444315 2.340976 63
-55.245930 28.814144 2.302766 63
-55.176754 29.014883 2.304886 63
-54.973995 29.133074 2.303444 63
-52.846962 28.243471 2.253475 54
-52.920380 28.512148 2.259120 55
-68.406609 37.175972 2.658868 63
-67.647842 37.344696 2.649132 63
-58.096855 32.328083 2.408028 63
-66.737122 37.433758 2.635626 63
-51.662800 29.181791 2.249533 52
-52.395306 29.818766 2.272269 56
-51.073215 29.302406 2.241914 51
-50.429222 29.145735 2.228742 48
-50.211800 29.256489 2.227081 48
-50.006058 29.361712 2.225528 47
-46.580357 27.549318 2.138897 32
-50.857758 30.315405 2.255685 52
-51.535347 30.957581 2.277698 55
-60.511021 36.662926 2.521096 63
-50.757168 28.016430 2.539544 66
-50.355282 28.015049 2.530853 64
-50.208347 28.154392 2.530421 64
-50.304443 28.431204 2.537927 32
-50.208317 28.599791 2.539192 32
-64.346169 36.979774 3.007668 56
-50.214779 29.052538 2.548311 33
-46.420429 27.263050 2.431753 44
-49.488747 29.300547 2.537827 63
-49.557564 29.567129 2.544657 32
-50.552128 30.395529 2.582446 35
-61.354858 37.202465 2.948610 53
-52.810978 32.494743 2.672776 43
-59.883438 37.142879 2.916453 52
-59.545101 37.492863 2.916584 52
-52.553543 33.309101 2.684167 44
-59.725819 38.175339 2.934501 52
-51.820618 33.581184 2.674616 43
-53.072212 34.654545 2.723010 45
-58.527840 38.531647 2.917163 52
-58.323280 38.679981 2.916082 52
-58.048737 38.780430 2.912570 51
-57.909813 38.971497 2.913781 51
-57.770241 39.162052 2.914988 51
-48.999359 33.891476 2.623371 37
-56.692543 39.543404 2.901259 51
-56.384762 39.611584 2.896510 50
-56.070671 39.673439 2.891516 50
-55.740593 39.721886 2.885926 50
-55.436726 39.787289 2.881253 50
-55.146305 39.846481 2.876731 50
-54.881844 39.923126 2.873128 50
-54.587776 40.004925 2.869066 49
-54.255386 40.056374 2.863592 49
-53.974884 40.130497 2.859670 49
-53.688599 40.184456 2.855203 49
-53.404716 40.267033 2.851439 49
-53.127792 40.339123 2.847598 48
-46.655010 35.585442 2.613838 35
-39.866314 30.767014 2.372461 33
-39.711937 30.859459 2.371542 32
-38.752636 30.299395 2.340185 31
-38.520203 30.333944 2.336462 46
-38.585419 30.597118 2.343726 31
-38.767067 30.957029 2.355461 32
-38.835339 31.227301 2.362973 32
-38.596966 31.246359 2.358837 32
-38.069054 31.012377 2.343338 15
-37.933342 31.112572 2.343063 15
-36.198364 30.068859 2.285854 28
-36.175617 30.255768 2.289778 28
-35.967190 30.283695 2.286496 28
-36.002739 30.511566 2.292503 43
-35.872345 30.606548 2.292285 28
-35.717682 30.679857 2.291116 28
-35.652714 30.831976 2.293494 28
-35.575161 30.973358 2.295397 28
-35.901558 31.477928 2.313428 29
-35.694077 31.505028 2.310233 29
-35.536499 31.565580 2.308769 29
-35.456051 31.706921 2.310667 29
-35.292782 31.772120 2.309235 29
-35.346127 32.038040 2.316599 14
-34.418278 31.589880 2.288898 28
-34.235840 31.631422 2.286596 28
-34.293381 31.901386 2.294185 28
-33.822327 31.664669 2.279943 41
-33.789661 31.848063 2.283827 27
-33.839069 32.112598 2.291175 28
-33.713093 32.206871 2.291236 42
-33.584011 32.297832 2.291173 42
-33.437687 32.371334 2.290388 28
-34.806450 33.965355 2.353897 30
-42.420494 41.893906 2.684050 37
-42.229794 41.986404 2.682994 37
-37.284519 37.203941 2.477664 19
-41.983109 42.294018 2.686333 37
-41.769337 42.361450 2.684298 37
-41.286812 42.435345 2.677801 36
-41.087017 42.514175 2.676342 36
-40.930862 42.638824 2.676802 36
-40.773438 42.747330 2.676848 36
-35.202953 37.018295 2.437120 17
-40.478951 43.029903 2.678993 36
-40.401184 43.225414 2.682642 36
-40.186455 43.285191 2.680543 36
-39.947742 43.317204 2.677351 36
-39.690655 43.327171 2.673303 35
-39.465755 43.371792 2.670695 35
-39.248413 43.408848 2.668035 35
-39.034344 43.463451 2.665895 69
-38.817730 43.514057 2.663626 68
-38.593781 43.570065 2.661393 68
-38.387749 43.630806 2.659592 33
-38.168499 43.659916 2.656771 67
-32.444359 37.169586 2.395163 15
-32.240879 37.183784 2.392240 15
-31.626350 36.701859 2.369762 15
-32.381718 37.872375 2.412484 16
-7.998060 8.519533 1.253780 26
-7.966752 8.534308 1.253677 22
-7.937894 8.552094 1.253695 22
-7.923795 8.588641 1.254443 16
-7.929174 8.650412 1.256166 9
-31.819130 39.837856 2.455557 17
-36.250340 45.926865 2.686145 35
-36.057011 45.998486 2.685100 69
-35.849186 46.050137 2.683316 34
-26.926390 34.440678 2.236409 24
-26.766596 34.469799 2.234778 36
-35.199207 46.179714 2.676978 33
-35.008213 46.250263 2.676020 67
-34.806267 46.288403 2.674039 33
-24.845036 32.783817 2.160533 31
-24.586569 32.669022 2.153599 31
-24.466570 32.734768 2.153619 20
-24.171022 32.527470 2.143648 30
-24.078152 32.641441 2.145400 30
-23.973354 32.738724 2.146535 20
-23.835167 32.775852 2.145554 30
-23.708097 32.804813 2.144520 30
-23.684425 33.009567 2.149800 20
-25.091040 35.340294 2.233916 24
-24.987160 35.458092 2.235686 12
-32.292339 46.737793 2.649901 61
-31.967594 46.592903 2.641337 29
-31.707626 46.543388 2.636333 29
-31.520821 46.569534 2.634458 29
-31.277109 46.541328 2.630299 28
-30.861992 46.592934 2.626028 28
-30.717489 46.717236 2.627523 28
-30.555538 46.813953 2.628025 28
-30.397470 46.916893 2.628769 28
-30.247404 47.032913 2.630003 28
-30.103117 47.158688 2.631603 28
-29.827345 47.432896 2.635656 28
-29.335754 46.976788 2.616332 27
-29.234255 47.542801 2.630994 56
-29.300573 48.031784 2.645694 29
-29.078926 48.390316 2.653018 60
-28.881687 48.429058 2.651606 89
-28.705009 48.464638 2.650379 88
-28.513735 48.512341 2.649327 59
-28.320515 48.555786 2.648144 88
-28.125389 48.594959 2.646831 87
-27.934139 48.640373 2.645760 87
-27.735285 48.670963 2.644186 86
-27.511980 48.654938 2.640990 57
-27.172749 48.419060 2.630080 82
-27.161732 48.800339 2.640918 57
-26.602034 48.136845 2.615063 52
-26.429911 48.208382 2.615068 52
-26.260359 48.264381 2.614669 26
-19.821400 36.342888 2.193734 21
-19.706808 36.422897 2.194715 21
-19.540314 36.398689 2.192080 21
-19.331837 36.287659 2.186448 31
-19.227770 36.387611 2.188164 21
-19.088409 36.415279 2.187384 21
-18.968073 36.482067 2.187971 21
-18.814890 36.479832 2.186183 21
-23.884872 48.431229 2.592383 23
-23.752388 48.580177 2.595304 24
-20.434353 41.709229 2.357336 14
-17.301256 35.424770 2.138643 19
-17.174477 35.463482 2.138433 29
-17.135695 35.703213 2.145098 29
-16.934967 35.572533 2.139128 19
-16.776310 35.536415 2.136405 28
-16.677483 35.639442 2.138432 19
-22.243994 49.211906 2.597992 23
-22.044756 49.208607 2.595861 70
-21.864084 49.248859 2.595226 23
-21.707558 49.347660 2.596590 23
-16.407551 36.725014 2.167945 10
-16.116774 36.703598 2.164436 20
-16.025579 36.838402 2.167571 30
-15.589162 36.086006 2.140858 9
-20.628487 49.564507 2.592490 23
-15.032473 36.476105 2.147287 19
-14.961881 36.668022 2.152404 19
-14.849435 36.747044 2.153752 19
-16.540186 41.861862 2.323122 26
-19.186708 49.818768 2.586766 22
-19.371702 50.897827 2.620969 25
-16.269041 42.469627 2.339036 13
-16.017365 42.682175 2.343264 13
-15.194139 40.697994 2.276104 12
-15.805944 43.022331 2.351752 13
-25.525333 73.377129 3.354475 60
-13.197178 36.344788 2.127217 18
-13.017376 36.204521 2.121473 27
-12.919709 36.281090 2.123006 18
-12.758620 36.217819 2.119777 27
-12.613548 36.182598 2.117543 27
-12.498624 36.246387 2.118577 27
-12.352831 36.206272 2.116209 27
-12.250510 36.290443 2.117984 27
-12.119924 36.324085 2.118008 27
-12.008499 36.401646 2.119531 27
-11.893423 36.467312 2.120674 18
-11.785090 36.509907 2.121170 27
-11.631669 36.460823 2.118533 18
-11.484923 36.409431 2.115885 18
-11.367349 36.465656 2.116760 18
-11.269722 36.598850 2.120153 18
-11.156552 36.648884 2.120891 18
-11.029700 36.697857 2.121510 27
-10.918563 36.783600 2.123380 18
-10.840436 37.004864 2.129659 18
-10.735396 37.121117 2.132532 19
-10.612913 37.167084 2.133132 28
-10.508544 37.290470 2.136250 28
-10.394417 37.345886 2.137216 28
-10.280779 37.433575 2.139193 19
-10.355039 38.359585 2.168282 20
-10.224513 38.388664 2.168361 20
-10.648315 40.968441 2.250807 11
-12.713733 51.275398 2.582525 21
-12.536453 51.304810 2.582363 21
-10.583860 42.739399 2.305270 12
-12.038003 51.513008 2.585881 21
-11.678392 51.595619 2.586399 43
-11.499425 51.617455 2.586080 43
-11.323330 51.654381 2.586261 65
-11.158085 51.700893 2.586813 65
-10.983074 51.744507 2.587236 65
-10.632476 51.829922 2.588067 65
-10.454260 51.855946 2.587970 43
-10.284994 51.936588 2.589634 44
-10.109590 51.981133 2.590157 44
-9.935210 52.032978 2.590928 22
-9.752121 52.028893 2.589926 22
-7.935949 42.052761 2.269974 12
-7.812095 42.159435 2.272745 12
-8.882822 52.258945 2.593171 44
-7.451957 42.761528 2.289993 12
-8.304495 51.926830 2.580341 42
-8.117488 51.873260 2.577905 42
-7.931398 51.822975 2.575590 62
-7.752524 51.831600 2.575163 41
-7.401187 51.906590 2.576187 42
-7.225848 51.949142 2.576880 42
-7.055439 52.042805 2.579208 42
-6.942887 52.648399 2.597811 45
-6.765454 52.697330 2.598740 45
-6.582399 52.685921 2.597771 45
-6.406668 52.757515 2.599446 46
-6.059789 52.858337 2.601525 69
-5.874754 52.820511 2.599779 46
-5.754652 53.679256 2.626404 50
-5.387676 53.720432 2.626666 50
-5.205514 53.764008 2.627545 76
-5.023551 53.814934 2.628671 76
-4.326581 44.419949 2.331511 13
-4.171473 44.360073 2.329248 13
-4.290807 53.972412 2.631859 51
-4.107749 54.028168 2.633210 51
-3.933154 54.070961 2.634185 52
-3.748890 54.109497 2.635020 52
-3.378882 54.156677 2.635793 52
-3.177207 53.469841 2.613814 24
-2.812858 53.608990 2.617581 24
-2.454370 53.589603 2.616425 49
-2.270223 53.507057 2.613569 24
-2.067314 45.415859 2.358602 14
-1.727740 53.863308 2.624111 50
-1.542728 53.914154 2.625511 51
-1.365772 53.224770 2.603634 23
-1.173201 53.294205 2.605644 47
-0.989996 53.323124 2.606402 24
-0.791172 54.050888 2.629158 77
-0.620609 53.470963 2.610792 48
0.141841 54.198219 2.633321 52
0.331723 54.286427 2.636046 26
0.883299 54.311928 2.636791 53
1.072854 54.361557 2.638362 53
1.252744 54.399105 2.639567 27
0.791261 44.209194 2.319156 13
0.936783 44.119553 2.316381 13
2.016052 54.588295 2.645770 27
2.205640 54.605984 2.646428 27
2.399283 54.670822 2.648584 28
2.592080 54.719028 2.650233 28
2.776931 54.779312 2.652270 28
2.164339 46.023338 2.376934 14
3.162258 54.848431 2.654785 28
2.485369 46.061100 2.378433 14
3.741645 54.938969 2.658263 29
2.938975 45.845173 2.372199 14
3.253232 47.226254 2.415900 15
4.216808 54.105900 2.632796 27
3.566927 47.113323 2.412822 15
4.851262 53.338970 2.609817 25
5.239468 53.456516 2.614215 51
5.429853 53.482544 2.615406 51
5.624506 53.535576 2.617465 52
5.818448 53.579979 2.619267 26
6.012794 53.623669 2.621063 26
4.900904 45.239483 2.356831 14
6.404560 53.720741 2.625010 26
6.600777 53.766212 2.626911 27
5.745622 47.517330 2.429946 15
7.181338 53.891968 2.632351 55
7.378488 53.930614 2.634102 55
7.578143 53.980335 2.636220 56
5.316259 40.620049 2.214020 11
5.594470 40.539490 2.212368 22
5.730951 40.541698 2.212871 11
5.838563 39.652279 2.185623 21
5.993608 39.722736 2.188338 32
6.168869 39.886505 2.194027 32
6.357011 40.104271 2.201446 22
6.614478 39.974983 2.198395 22
9.870773 53.942371 2.642786 58
10.072404 53.974838 2.644574 58
8.418881 45.965824 2.390595 15
7.259144 39.704365 2.192596 21
7.437485 39.850712 2.197860 22
7.566530 39.761658 2.195668 22
7.686360 39.666107 2.193249 11
11.882425 54.923340 2.681503 32
10.354656 47.649242 2.450894 33
12.752480 55.955917 2.717293 36
13.197461 56.075462 2.723127 73
13.410106 56.095398 2.724798 73
13.633950 56.152992 2.727696 100
13.856181 56.202007 2.730339 100
14.084517 56.269341 2.733590 75
14.286447 56.243694 2.733878 75
14.384542 55.868618 2.722957 74
14.492918 55.535641 2.713393 72
14.736987 55.653778 2.718345 36
14.952447 55.708893 2.721232 37
13.469216 49.117413 2.512267 19
12.973344 47.017277 2.445581 16
13.200052 47.166203 2.451458 16
16.120155 55.418644 2.719286 37
16.334278 55.427219 2.720863 37
16.544323 55.453331 2.722960 37
16.782444 55.528316 2.726728 38
14.199252 47.482777 2.467257 17
13.933260 46.207764 2.427066 16
17.929152 56.307640 2.757682 41
18.186365 56.414494 2.762618 41
18.662035 56.542221 2.769692 42
18.903622 56.597183 2.773011 42
19.141588 56.639915 2.775956 43
19.381538 56.685398 2.779014 43
19.629648 56.778393 2.783568 43
16.636732 48.526127 2.515272 20
20.106287 56.819561 2.788255 44
17.138718 48.822163 2.527788 21
20.875393 57.040886 2.800577 45
21.337761 57.079865 2.805264 45
21.579851 57.108818 2.807997 45
21.836462 57.169895 2.811814 45
22.106363 57.259274 2.816591 45
22.605505 57.361744 2.823615 45
22.889116 57.473282 2.829208 46
23.147842 57.525063 2.832853 46
23.421949 57.608559 2.837577 46
23.682112 57.658043 2.841201 46
23.926319 57.670033 2.843606 46
24.209415 57.764519 2.848781 46
24.476624 57.821468 2.852737 47
20.899757 49.686897 2.583608 27
20.977318 49.433765 2.576877 27
25.203627 57.845692 2.859771 47
25.424543 57.797359 2.860315 47
25.773109 58.010647 2.869641 47
26.284128 58.044991 2.875254 48
26.477804 57.935333 2.873839 48
26.690845 57.864296 2.873740 48
26.938150 57.860191 2.875917 48
23.885258 51.437248 2.661505 35
27.426704 57.883995 2.881192 48
27.740412 57.978016 2.886884 48
28.101044 58.181908 2.896212 48
28.605772 58.652451 2.914623 49
24.552738 50.587162 2.643387 34
24.595722 50.273716 2.634807 33
30.326662 59.896030 2.967203 100
30.632700 59.964947 2.972233 100
30.943504 60.039433 2.977489 100
31.249352 60.102005 2.982375 100
31.534359 60.124893 2.985937 100
31.643476 59.837498 2.978886 100
31.731049 59.515415 2.970647 100
31.961102 59.465633 2.971632 51
32.221684 59.420300 2.973082 51
32.293476 59.076782 2.964128 51
32.526806 59.031631 2.965333 51
32.727196 58.907478 2.963977 100
33.179226 59.200230 2.977086 52
28.128506 50.442364 2.676169 38
28.102425 50.013245 2.663841 37
34.119133 59.366478 2.992004 52
34.614769 59.731884 3.007703 53
28.618517 49.702557 2.660847 37
28.679398 49.423206 2.653736 37
29.862549 50.945362 2.709444 42
29.200895 49.531868 2.662644 38
36.885540 60.560688 3.056395 55
37.244793 60.655304 3.063153 55
37.576485 60.704796 3.068365 55
37.920094 60.769329 3.074151 55
38.307011 60.895233 3.082155 56
38.643726 60.943024 3.087440 56
38.961777 60.983120 3.092312 56
39.288754 61.011272 3.096982 56
33.284481 51.892792 2.775475 46
41.452244 63.223953 3.183492 59
41.607201 62.983727 3.178819 59
41.971252 63.040131 3.184793 59
43.082409 63.676834 3.215738 61
43.338520 63.571060 3.216046 61
43.650978 63.541801 3.219146 61
43.899876 63.424114 3.219087 61
44.260281 63.456512 3.224495 61
36.205982 52.196316 2.819807 48
36.514824 52.254959 2.825308 48
36.667061 52.085274 2.822706 48
36.726536 51.794270 2.815687 96
47.549774 65.538872 3.322332 62
34.606579 48.320961 2.695612 43
48.538582 65.465683 3.333272 62
48.630959 65.098137 3.324747 62
39.781273 53.505890 2.901091 51
49.063774 64.749199 3.321263 62
49.376411 64.682793 3.323686 62
49.938683 64.922295 3.337527 61
50.309414 64.898796 3.341906 61
50.707645 64.928917 3.348087 61
51.224155 65.098579 3.359549 60
52.219318 65.836128 3.392393 59
43.212288 54.692806 2.978568 54
43.952591 55.187687 3.001637 55
53.665485 66.190414 3.421543 58
43.752953 54.175533 2.972641 54
54.677658 66.422569 3.441659 57
45.682213 55.662788 3.038038 56
55.637032 66.599518 3.459712 56
46.342453 55.626049 3.046422 56
67.863670 79.443321 3.962558 63
12.384067 16.988407 1.573795 2
12.428042 16.824867 1.570260 20
12.161622 16.309925 1.553333 14
12.522407 16.597139 1.565857 20
12.598653 16.569868 1.566284 22
12.625563 16.489840 1.564664 22
12.657592 16.415617 1.563272 27
12.700322 16.352932 1.562333 25
5.955281 9.115417 1.280983 1
5.944404 9.047779 1.279139 1
5.891003 8.937649 1.275602 1
5.911627 8.900320 1.274992 1
5.922218 8.855851 1.274055 1
5.919870 8.801522 1.272682 1
5.930001 8.757140 1.271747 1
5.954214 8.726759 1.271375 1
5.906589 8.626677 1.268193 1
5.930327 8.596397 1.267823 1
5.951061 8.563281 1.267340 1
5.983253 8.541132 1.267305 1
6.000848 8.505127 1.266709 1
6.008233 8.462278 1.265790 1
6.035575 8.433025 1.265516 1
6.023345 8.369788 1.263803 1
6.057901 8.349991 1.263877 1
6.070453 8.312588 1.263183 1
6.110792 8.297933 1.263479 1
6.133287 8.267044 1.263105 1
6.081100 8.169513 1.259949 1
6.174933 8.202413 1.262245 1
6.134042 8.115848 1.259537 1
6.155864 8.084921 1.259164 1
6.210783 8.082762 1.260010 1
6.196127 8.020262 1.258305 1
6.229739 7.999551 1.258373 1
6.333965 8.043732 1.261121 1
6.352435 8.009580 1.260632 1
6.367703 7.972816 1.260033 1
6.364379 7.920681 1.258772 1
6.456328 7.947632 1.260928 1
6.480571 7.918213 1.260657 1
6.631791 7.992280 1.264895 1
6.677947 7.979855 1.265388 1
6.742823 7.982220 1.266538 1
6.979738 8.121358 1.273717 1
7.017123 8.100041 1.273869 1
7.126760 8.135398 1.276538 1
7.353365 8.261117 1.283248 1
7.410301 8.253061 1.284042 1
7.584540 8.334924 1.288875 1
7.739106 8.402783 1.293058 1
7.847750 8.431726 1.295582 1
7.921583 8.433534 1.296903 1
8.158857 8.557044 1.303767 1
8.384270 8.669453 1.310184 1
8.443211 8.657022 1.310940 1
27.374395 18.337868 1.859583 7
16.448664 11.030593 1.507859 2
16.353483 10.895888 1.503427 2
16.220646 10.746243 1.497988 2
16.148706 10.626373 1.494301 2
16.146881 10.544447 1.492700 2
16.204937 10.494164 1.492868 2
16.213171 10.417814 1.491581 2
15.851283 10.151309 1.479507 2
15.900979 10.098167 1.479476 2
15.943383 10.041183 1.479236 2
15.969738 9.979975 1.478608 2
15.999001 9.912424 1.477926 2
15.987003 9.828485 1.476135 2
16.204617 9.857003 1.480942 2
4.156770 3.872136 1.133527 2
3.716318 3.615129 1.120139 0
3.506902 3.496307 1.113836 0
3.264413 3.363103 1.106619 0
3.138823 3.262182 1.102315 9
3.051616 3.202384 1.099512 8
3.008019 3.162449 1.097935 9
2.960164 3.122114 1.096267 14
2.908787 3.079694 1.094493 12
2.849555 3.014626 1.092170 15
2.808615 2.977825 1.090708 15
2.781920 2.948265 1.089661 15
2.755419 2.918081 1.088608 13
2.751005 2.897109 1.088163 3
2.761348 2.882142 1.088120 4
2.760494 2.862701 1.087776 6
2.759561 2.843290 1.087431 6
2.769732 2.828254 1.087389 6
2.768659 2.808863 1.087045 6
2.763772 2.788080 1.086601 6
2.770023 2.771581 1.086458 6
2.772469 2.753664 1.086215 6
2.774848 2.735751 1.085972 6
2.784371 2.721412 1.085936 6
2.782867 2.702127 1.085594 6
2.780990 2.683700 1.085259 6
2.794711 2.668976 1.085307 6
2.800546 2.652370 1.085164 6
2.798764 2.633133 1.084822 6
2.800689 2.615221 1.084580 6
2.806337 2.598594 1.084436 6
2.815719 2.583213 1.084392 6
2.821255 2.566535 1.084248 6
2.826460 2.550672 1.084112 6
2.824270 2.531503 1.083771 6
2.837245 2.517220 1.083824 6
2.842550 2.500467 1.083680 6
2.843978 2.482508 1.083438 6
2.856808 2.468077 1.083490 6
2.857859 2.450937 1.083255 6
2.859102 2.432964 1.083013 6
2.867948 2.417269 1.082967 6
2.876989 2.400684 1.082913 6
2.881887 2.383792 1.082768 6
2.886726 2.366884 1.082624 6
2.894881 2.352732 1.082591 6
2.903465 2.336846 1.082543 6
2.916088 2.321118 1.082585 5
2.916847 2.303051 1.082342 5
2.932998 2.289099 1.082487 6
2.937507 2.272013 1.082342 6
2.961315 2.259906 1.082678 8
2.973253 2.245553 1.082732 13
2.989462 2.230381 1.082867 10
2.993551 2.213962 1.082727 9
3.001893 2.196744 1.082669 7
3.009968 2.180349 1.082618 7
3.025772 2.165748 1.082758 7
3.025752 2.148304 1.082522 7
3.021971 2.129112 1.082183 5
3.033723 2.113472 1.082226 5
3.045427 2.097763 1.082269 5
3.057081 2.081986 1.082312 5
3.072597 2.066978 1.082449 4
3.080242 2.050229 1.082395 4
3.107412 2.037486 1.082816 4
3.122617 2.023067 1.082958 4
3.130295 2.005215 1.082895 4
3.145409 1.990638 1.083036 4
3.148874 1.972811 1.082886 4
3.164066 1.957198 1.083018 4
3.183142 1.942219 1.083244 4
3.190373 1.924976 1.083187 4
3.213294 1.910496 1.083506 3
3.212539 1.891747 1.083260 4
3.211717 1.873014 1.083014 6
3.214620 1.855860 1.082870 2
90.741623 8.333626 3.070900 51
-10.245507 0.999904 1.163016 0
-10.153445 1.028395 1.160997 0
-10.109282 1.055213 1.160139 0
-10.089023 1.082010 1.159869 0
-10.064635 1.111444 1.159522 0
-10.024175 1.138995 1.158768 0
-9.963663 1.164429 1.157507 0
-9.927023 1.191456 1.156847 0
-9.910236 1.220192 1.156690 0
-9.901385 1.247683 1.156718 0
-9.876554 1.271777 1.156327 0
-9.883454 1.301104 1.156762 0
-9.842304 1.328427 1.156006 0
-9.821224 1.352268 1.155710 0
-9.819906 1.379707 1.155934 0
-9.818492 1.407140 1.156157 0
-9.824889 1.436393 1.156591 0
-9.815294 1.463363 1.156614 0
-9.825648 1.490171 1.157126 0
-9.823849 1.517624 1.157349 0
-9.819860 1.573882 1.157806 0
-9.837703 1.602865 1.158530 0
-9.859648 1.629547 1.159334 0
-9.841307 1.657147 1.159166 0
-9.850874 1.685707 1.159691 0
-9.896303 1.716243 1.161114 0
-9.906946 1.773199 1.161966 0
-9.904159 1.800934 1.162191 0
-9.897297 1.828240 1.162313 0
-9.922142 1.858978 1.163247 0
-9.938923 1.889004 1.163979 0
-9.951780 1.917301 1.164599 0
-9.972312 1.948041 1.165435 0
-9.980819 1.977469 1.165966 0
-10.013021 2.009983 1.167109 0
-10.064919 2.045315 1.168765 2
-10.065143 2.074130 1.169095 1
-10.096762 2.108731 1.170255 1
-10.112598 2.139920 1.170995 1
-10.124565 2.169235 1.171623 1
-10.152038 2.202410 1.172673 1
-10.187285 2.236990 1.173930 1
-10.250051 2.276123 1.175910 1
-10.269200 2.308814 1.176760 1
-10.331639 2.348700 1.178745 2
-10.366774 2.381523 1.179988 1
-10.432827 2.422862 1.182083 2
-10.439589 2.454470 1.182629 1
-96.820724 17.714172 3.454711 48
-96.521637 18.002007 3.451030 48
-96.194168 18.282906 3.446606 48
-96.125298 18.610266 3.449022 48
-96.699455 19.060225 3.468489 48
-96.172562 19.300795 3.458838 48
-96.182526 19.644300 3.463436 48
-90.421349 18.824821 3.314465 54
-88.258980 18.702583 3.260943 56
-88.187965 18.986212 3.262903 56
-87.123238 19.074463 3.238504 57
-87.262772 19.415527 3.246311 56
-89.103760 20.131821 3.299848 54
-86.523140 19.874643 3.234657 57
-86.776398 20.242289 3.245613 57
-86.622894 20.518463 3.245644 57
-87.332779 20.996336 3.269042 56
-83.668060 20.438683 3.174007 60
-86.607903 21.450935 3.257928 57
-86.256294 21.677668 3.252658 57
-87.467789 22.291731 3.289977 56
-86.280106 22.293085 3.261737 57
-94.680038 24.759926 3.495842 48
-86.291740 22.923500 3.270831 56
-82.367622 22.202843 3.167534 60
-80.477547 21.997650 3.119806 62
-86.489456 23.922659 3.289691 56
-93.753380 26.237694 3.494828 49
-84.389778 23.972059 3.240724 58
-80.080139 23.064693 3.125747 62
-74.697716 21.818226 2.980529 59
-75.492409 22.323799 3.006678 60
-74.565773 22.330029 2.984938 59
-74.460129 22.574213 2.986068 59
-74.215813 22.762598 2.983127 59
-73.756874 22.897987 2.974371 59
-73.805977 23.187422 2.979877 59
-73.758423 23.461351 2.982903 59
-73.317368 23.597111 2.974638 58
-73.001900 23.770357 2.969904 58
-72.199440 23.770206 2.951149 57
-72.222015 24.048912 2.955975 57
-72.308014 24.349476 2.962640 58
-72.195671 24.584707 2.963688 58
-72.302124 24.894060 2.971009 58
-72.316513 25.173248 2.975736 58
-72.692390 25.578869 2.990875 58
-72.749413 25.876015 2.996919 58
-24.349022 9.036929 1.607047 30
-71.122452 26.394596 2.967639 57
-71.034027 26.622417 2.969307 57
-70.921616 26.854950 2.970519 57
-70.610260 27.011896 2.965935 57
-70.485352 27.238499 2.966804 57
-70.270195 27.429909 2.965041 57
-64.751770 25.546347 2.807265 51
-64.327209 25.631676 2.798978 51
-64.452438 25.933718 2.806913 51
-63.779655 25.903175 2.791044 50
-63.210171 25.935034 2.778606 50
-63.237309 26.195839 2.783663 50
-84.554497 35.302067 3.423853 54
-66.960754 28.259596 2.903595 54
-63.492657 27.057621 2.804259 51
-63.342419 27.247091 2.804140 51
-62.978901 27.584419 2.801811 50
-62.742912 27.734451 2.799124 50
-81.244255 36.189339 3.364460 57
-63.010612 28.606121 2.820560 51
-81.096626 37.120617 3.377689 57
-80.593224 37.239681 3.368559 57
-80.150742 37.367203 3.360969 57
-59.237816 28.113567 2.727415 47
-58.955139 28.223698 2.723134 47
-76.245094 36.804340 3.263828 61
-75.949661 36.964813 3.260224 61
-57.284737 28.140848 2.684587 46
-56.927998 28.204296 2.677879 45
-56.726505 28.331062 2.675788 45
-56.291794 28.589598 2.671050 45
-55.853462 28.604044 2.661700 45
-56.158085 28.999437 2.675830 45
-52.379459 27.494326 2.564695 36
-52.608067 27.840590 2.576283 37
-52.338860 27.912287 2.571796 36
-51.889027 27.896399 2.561717 71
-51.566402 27.946430 2.555685 34
-57.007046 28.073421 3.035181 88
-56.808270 28.213865 3.032716 88
-56.694977 28.396210 3.033491 44
-52.481022 26.507229 2.878561 33
-52.436661 26.928745 2.886386 67
-52.168293 27.012806 2.880929 66
-52.190468 27.247171 2.886603 66
-52.193939 27.472689 2.891599 67
-52.171734 27.685411 2.895644 68
-51.658924 27.635735 2.880763 65
-51.547977 27.799551 2.881389 65
-51.532467 28.004015 2.885491 32
-54.990467 30.128990 3.025143 44
-52.576424 29.264435 2.941442 75
-50.610352 28.389462 2.869490 61
-50.097198 28.322254 2.854347 58
-50.213085 28.611265 2.863958 90
-50.154408 28.801514 2.866727 60
-51.770908 29.966621 2.935977 36
-51.807343 30.221209 2.942765 36
-46.405247 27.262293 2.732688 17
-61.468525 36.447365 3.339963 44
-61.340900 36.652817 3.341376 44
-53.155369 31.980484 3.018772 43
-61.270477 37.461155 3.358394 44
-61.336430 37.788002 3.367789 44
-52.575058 32.603329 3.018285 42
-60.356987 37.733589 3.341127 44
-60.072689 37.824314 3.335938 44
-52.347736 33.187431 3.026290 43
-60.368790 38.600651 3.362102 44
-51.822102 33.331703 3.016242 42
-58.970417 38.265884 3.318199 44
-58.652794 38.327209 3.311565 88
-58.425339 38.446503 3.308658 88
-58.181267 38.582104 3.305749 88
-57.996632 38.756638 3.305326 88
-57.847874 38.926540 3.305723 88
-57.138672 39.295425 3.296944 88
-56.867130 39.377411 3.292165 44
-48.807209 33.986549 2.955907 35
-56.186687 39.482410 3.277766 44
-55.970642 39.613335 3.275666 44
-48.906616 34.797699 2.978741 37
-55.314842 39.696049 3.261463 44
-55.078968 39.822929 3.258842 44
-54.782085 39.889591 3.253207 44
-54.431179 39.900246 3.244837 44
-53.858299 40.025826 3.233996 88
-53.561893 40.099880 3.228656 88
-53.275658 40.165760 3.223377 88
-52.989597 40.230122 3.218086 44
-52.512569 40.428051 3.211680 44
-46.024937 35.602505 2.928876 31
-41.016273 31.889353 2.710882 12
-38.472637 30.283318 2.607558 22
-38.321457 30.381767 2.606551 33
-38.141094 30.445421 2.603944 33
-38.004005 30.543659 2.603302 22
-37.884182 30.645212 2.603174 22
-37.952545 30.913546 2.611976 22
-37.786530 30.987677 2.610054 33
-37.727398 31.151211 2.613068 33
-37.539585 31.206015 2.610147 33
-37.706524 31.552439 2.623432 11
-36.054604 30.554663 2.557839 21
-35.909000 30.636684 2.556705 21
-36.354595 31.238115 2.583478 32
-36.090149 31.217524 2.576818 21
-35.853123 31.219402 2.571424 32
-35.845493 31.425680 2.576947 32
-35.720615 31.516436 2.576608 21
-36.004463 32.000687 2.596520 22
-36.770878 32.921890 2.639574 11
-37.457851 33.781002 2.679113 23
-36.098892 32.736168 2.619193 11
-35.786186 32.888710 2.616455 22
-35.512264 32.852444 2.609306 33
-35.319901 32.892014 2.606138 22
-35.159168 32.949791 2.604204 33
-34.766273 32.804104 2.591358 21
-34.543179 33.021072 2.592633 21
-34.587376 33.289291 2.601287 21
-34.525349 33.442459 2.604329 32
-34.493599 33.649399 2.609596 22
-42.346439 41.816704 3.015970 100
-42.238800 41.978920 3.018333 71
-42.146858 42.186371 3.022366 36
-36.838554 36.982788 2.756870 12
-41.646439 42.231415 3.012931 35
-41.424854 42.288776 3.009873 34
-41.245655 42.404148 3.009436 34
-40.889000 42.591793 3.007398 34
-40.778866 42.765499 3.010201 34
-40.630039 42.897816 3.010988 34
-40.333733 43.163811 3.012692 69
-34.239510 36.715878 2.694136 11
-39.877457 43.236622 3.005401 33
-39.427837 43.326691 2.998841 66
-39.203251 43.370148 2.995548 65
-38.997215 43.433632 2.993258 64
-38.772865 43.475052 2.989949 64
-38.553497 43.506008 2.986444 63
-38.342121 43.545090 2.983364 62
-32.388111 36.833477 2.659907 11
-32.079845 36.722469 2.650358 11
-31.664970 36.481007 2.634721 22
-31.581738 36.633671 2.637733 11
-32.693558 38.235302 2.708784 23
-8.013272 8.484363 1.309316 26
-7.975871 8.488806 1.308725 28
-7.950827 8.513932 1.309017 27
-7.934433 8.547342 1.309736 26
-7.932688 8.599597 1.311327 15
-27.848814 34.452538 2.497750 19
-27.107899 33.968136 2.468551 18
-36.012173 45.953438 3.012376 32
-26.857723 34.347080 2.475776 18
-26.762514 34.462696 2.477655 18
-27.087179 35.162045 2.505782 28
-26.928896 35.183846 2.503556 28
-34.764793 46.245705 2.998471 62
-34.158134 46.385490 2.991894 30
-25.455225 34.610512 2.458536 27
-25.308067 34.649624 2.457164 18
-25.219862 34.773724 2.459587 18
-25.158136 34.937222 2.463762 18
-25.162867 35.199947 2.472323 18
-25.098377 35.349648 2.476032 27
-32.510338 46.699799 2.972794 56
-32.183495 46.571602 2.962964 54
-31.900249 46.471252 2.954813 26
-31.675669 46.475098 2.951079 52
-31.426092 46.456242 2.946198 25
-31.195086 46.429329 2.941389 50
-31.025488 46.514259 2.941297 25
-30.840076 46.556377 2.939554 24
-30.686638 46.648518 2.940006 24
-30.148159 46.494556 2.925983 47
-30.022587 46.647167 2.928943 23
-29.707195 46.848816 2.930445 71
-29.534554 46.924835 2.930159 47
-29.613300 47.422634 2.947954 50
-29.424566 47.474144 2.946633 75
-29.369219 47.752510 2.955016 51
-29.428797 48.231476 2.971935 81
-29.261950 48.305000 2.971752 81
-29.058844 48.334103 2.969532 100
-28.865734 48.379749 2.968041 5
-28.674599 48.428104 2.966692 79
-28.481504 48.472214 2.965189 5
-28.292303 48.522549 2.963974 5
-28.093449 48.554626 2.962016 5
-27.900431 48.596424 2.960494 5
-27.713140 48.648006 2.959408 76
-27.329451 48.332436 2.942968 100
-27.220261 48.526604 2.947919 73
-26.746664 48.030991 2.924074 45
-26.606323 48.163288 2.926501 67
-26.425797 48.198627 2.925057 22
-19.968199 36.340290 2.426922 17
-19.779785 36.274487 2.421963 25
-19.631420 36.286438 2.420251 25
-19.481411 36.294205 2.418386 25
-19.359797 36.358742 2.418883 25
-19.255465 36.458790 2.420856 17
-19.121077 36.497356 2.420310 17
-18.981449 36.524601 2.419316 16
-24.344553 48.142673 2.893662 58
-24.048748 47.942020 2.882694 37
-23.385881 48.213009 2.883177 36
-17.455372 35.461441 2.361951 15
-17.292635 35.420387 2.358390 23
-23.094946 48.899269 2.903229 19
-22.409710 49.156593 2.903456 19
-16.911938 36.551987 2.393041 16
-16.372252 35.932369 2.364607 23
-16.417902 36.393230 2.381360 16
-16.307682 36.476837 2.382958 24
-16.211906 36.597218 2.386040 24
-16.162949 36.818935 2.393268 16
-20.983225 49.497120 2.897990 19
-20.794935 49.514790 2.896392 19
-20.612488 49.546665 2.895383 18
-20.432846 49.559689 2.893758 18
-20.041496 49.574512 2.889794 36
-19.869183 49.604206 2.888896 36
-19.702351 49.648312 2.888588 36
-19.524206 49.687393 2.887993 36
-19.342867 49.743916 2.888003 36
-16.490635 42.175594 2.587024 10
-16.636976 43.081581 2.620934 10
-16.331722 42.650131 2.602243 10
-20.628866 55.725693 3.115404 37
-21.008863 57.517265 3.183511 42
-15.823774 42.586002 2.594580 10
-15.252764 41.318226 2.543220 19
-15.152727 41.489807 2.548345 9
-13.098333 36.032860 2.331525 22
-12.965130 36.037209 2.330351 22
-12.839336 36.042973 2.329314 22
-12.741480 36.160995 2.332606 22
-12.607832 36.184978 2.332174 22
-12.479158 36.202785 2.331581 22
-12.344836 36.200954 2.330238 22
-12.218476 36.225479 2.329936 22
-12.116359 36.334072 2.332913 22
-12.055807 36.567524 2.340805 15
-11.926133 36.583305 2.340194 22
-11.774120 36.517708 2.336445 22
-11.628880 36.449791 2.332685 22
-11.473913 36.392353 2.329231 29
-11.348233 36.392803 2.328151 22
-11.240739 36.487236 2.330656 22
-11.103771 36.469101 2.328827 22
-11.032974 36.710014 2.337000 22
-10.910554 36.724400 2.336504 22
-10.790516 36.774834 2.337352 15
-10.923419 37.894562 2.379283 23
-10.809385 37.987831 2.381770 23
-10.690228 38.061298 2.383507 23
-10.587989 38.179607 2.387029 24
-10.464313 38.236782 2.388162 24
-10.335961 38.274048 2.388543 24
-10.223464 38.352360 2.390561 24
-12.871640 51.198078 2.880970 16
-12.689584 51.204594 2.879870 16
-10.734617 42.768661 2.556231 9
-10.541020 42.568073 2.547483 9
-12.124102 51.077396 2.871154 16
-10.252769 43.372124 2.575022 9
-11.419886 51.194813 2.870675 16
-11.250394 51.210194 2.870129 15
-11.084744 51.346176 2.874067 16
-10.970135 51.671326 2.885322 17
-10.807466 51.732433 2.886556 17
-10.463451 51.856060 2.889011 17
-10.271108 51.851387 2.887691 17
-8.504373 41.937325 2.511078 9
-9.764908 52.052834 2.892216 53
-8.062725 41.920605 2.507958 9
-7.910786 41.829868 2.503770 9
-8.103422 44.209023 2.592876 10
-9.048258 52.137058 2.891449 17
-8.482970 51.910000 2.880168 16
-7.228099 43.285374 2.554207 9
-8.118103 51.878914 2.877257 33
-6.883648 42.904293 2.538442 19
-7.754895 51.853165 2.874624 16
-7.575072 51.853222 2.873822 16
-7.404664 51.940090 2.876305 16
-7.227555 51.966743 2.876540 16
-7.068984 52.179722 2.883795 17
-6.668198 51.748482 2.866153 46
-6.504441 51.915909 2.871748 48
-6.346098 52.054165 2.876297 49
-6.180574 52.224537 2.882030 34
-6.047454 52.704475 2.899420 55
-5.872582 52.794170 2.902153 37
-5.560813 53.686234 2.934341 85
-5.388591 53.737778 2.935717 100
-5.196898 53.777927 2.936627 64
-5.023170 53.812321 2.937395 43
-4.658299 53.912273 2.940096 65
-3.948582 42.713490 2.520723 18
-4.301085 54.001312 2.942485 66
-4.116951 54.033131 2.943219 44
-3.933068 54.076294 2.944396 44
-3.749180 54.126812 2.945866 45
-2.976938 45.179497 2.610516 20
-2.494349 43.033318 2.529599 9
-2.440722 53.143463 2.906760 19
-2.213923 45.338398 2.615193 10
-2.067058 45.438931 2.618747 20
-1.904190 45.367085 2.615864 10
-1.760254 43.048264 2.529174 9
-1.532635 52.848167 2.894617 18
-1.361085 52.806503 2.892902 18
-0.989104 53.348598 2.912836 20
-0.804446 53.428822 2.915712 20
-0.616971 53.596302 2.921861 41
-0.427384 53.795074 2.929195 42
-0.238732 53.921249 2.933839 43
-0.045296 54.154606 2.942499 67
0.135598 54.263802 2.946548 22
0.508861 54.275841 2.947006 46
0.674010 53.847717 2.931074 43
0.859190 53.850185 2.931217 65
1.046235 53.883930 2.932545 43
1.233068 53.909035 2.933570 66
0.799967 44.219990 2.572313 9
1.645777 54.527569 2.956875 24
1.837773 54.586433 2.959218 48
2.019081 54.621391 2.960679 73
2.200973 54.659718 2.962284 49
2.393830 54.712605 2.964461 49
2.587780 54.772766 2.966928 75
2.004345 46.000542 2.639791 10
2.970535 54.819336 2.969170 25
3.166782 54.889351 2.972064 25
3.358478 54.906937 2.973022 25
2.803464 46.132072 2.645945 21
3.082215 47.151432 2.684338 22
4.047807 54.267399 2.950526 23
4.168705 53.766754 2.932191 44
4.296900 53.276714 2.914283 20
4.490180 53.341843 2.917141 63
4.674440 53.330914 2.917176 42
4.865934 53.374828 2.919280 42
5.060997 53.441818 2.922268 43
5.252257 53.476398 2.924063 43
5.455248 53.524822 2.926423 44
5.641474 53.583035 2.929117 44
5.836774 53.635269 2.931634 45
6.030134 53.670975 2.933553 45
6.228743 53.737572 2.936649 46
6.422272 53.767895 2.938407 46
6.621238 53.829071 2.941342 23
6.818115 53.873726 2.943679 23
7.201824 53.950626 2.947914 48
7.399198 53.989185 2.950083 49
7.599789 54.042747 2.952838 49
5.398948 41.027531 2.464519 27
5.540171 41.009464 2.464431 27
5.663357 40.896671 2.460795 26
5.681214 40.245968 2.436933 17
5.960475 40.899925 2.462204 18
6.050943 39.964130 2.428235 17
6.206347 40.062565 2.432576 25
6.321106 39.932175 2.428341 25
9.506085 53.999245 2.959694 51
6.865917 41.114883 2.474382 18
8.085054 45.909298 2.656167 22
8.271071 46.002602 2.660545 11
6.936697 39.509117 2.415973 17
7.093052 39.571236 2.419084 25
10.716862 54.220257 2.974108 27
9.482642 47.556282 2.723942 11
9.433784 46.031872 2.668092 22
12.120570 55.886719 3.042966 33
12.562147 55.970085 3.048696 100
12.996023 56.052547 3.054428 100
13.208282 56.110569 3.057903 100
13.439280 56.158569 3.061157 100
13.652640 56.214916 3.064616 100
13.865443 56.266605 3.067922 100
14.099193 56.315731 3.071298 72
14.230248 56.048428 3.062545 100
14.313992 55.627644 3.047936 69
14.524590 55.602081 3.048516 34
14.768925 55.720062 3.054538 35
13.221864 48.917309 2.798147 40
15.384164 55.054142 3.035175 67
15.567103 55.007748 3.034920 67
15.875315 55.310841 3.048201 35
16.121584 55.418972 3.054023 35
16.350315 55.439491 3.056588 35
16.578941 55.488785 3.060205 36
16.848452 55.654324 3.068331 37
13.729912 46.078373 2.700462 11
17.726313 56.376419 3.101460 40
17.975227 56.431801 3.105566 80
18.201464 56.452049 3.108249 81
18.455662 56.546436 3.113832 41
14.886783 45.864197 2.702877 11
19.174225 56.722015 3.126497 42
19.398731 56.726303 3.128701 42
19.650949 56.800526 3.133657 43
19.901033 56.866219 3.138312 44
16.958788 48.852730 2.827729 17
17.287373 49.191055 2.842787 18
17.533316 49.316360 2.849565 19
17.511312 48.306713 2.813847 16
21.616896 57.193180 3.166477 88
21.873804 57.254101 3.171201 44
22.136139 57.324940 3.176349 44
22.664755 57.466827 3.186758 44
22.951988 57.585423 3.193896 44
23.191652 57.593109 3.196692 44
23.446396 57.632637 3.200778 88
23.729731 57.759315 3.208220 44
23.977663 57.804733 3.212479 44
24.252832 57.880867 3.218120 44
24.538792 57.951145 3.223700 44
24.734123 57.851078 3.222408 44
25.055168 57.531025 3.214968 88
25.327072 57.591228 3.220134 3
25.783316 58.027664 3.240379 88
26.092659 58.130146 3.247474 44
26.288454 58.024723 3.246138 44
26.505297 57.961544 3.246518 44
26.750826 57.954659 3.249187 44
26.967670 57.889740 3.249553 44
27.234661 57.946476 3.254696 44
27.482924 57.940109 3.257483 44
27.857916 58.150803 3.269226 44
24.393826 50.682182 2.972826 32
28.991146 58.886040 3.308200 44
30.109489 59.958931 3.358574 88
30.401688 60.004372 3.363827 3
30.708134 60.072975 3.370066 3
