# .PCD v.7 - Point Cloud Data file format
VERSION .7
FIELDS x y z intensity
SIZE 4 4 4 1
TYPE F F F U
COUNT 1 1 1 1
WIDTH 1482
HEIGHT 1
VIEWPOINT 0 0 0 1 0 0 0
POINTS 1482
DATA ascii
-32.804169 -27.693853 0.849053 14
-31.805214 -26.647339 0.852731 13
-30.726336 -25.372953 0.857282 24
-30.814230 -25.275108 0.857720 12
-32.161861 -26.239094 0.854556 13
-31.467999 -25.484673 0.857222 12
-32.761375 -26.368570 0.854351 13
-32.693592 -26.142281 0.855223 13
-33.330540 -26.481504 0.854195 14
-30.911131 -24.339888 0.861525 12
-30.986113 -24.233826 0.861990 12
-27.691893 -21.448826 0.871445 9
-27.769325 -21.363977 0.871826 9
-34.353748 -26.379328 0.855141 46
-32.562801 -24.812366 0.860494 25
-32.595028 -24.666401 0.861096 12
-35.349396 -26.609760 0.854737 17
-33.761662 -25.215776 0.859502 13
-36.723610 -27.281124 0.852762 19
-35.762680 -26.369608 0.855918 17
-35.992077 -26.356783 0.856089 17
-35.208931 -25.593191 0.858745 15
-35.262268 -25.453442 0.859334 31
-42.425343 -30.498520 0.842832 31
-42.800171 -30.554251 0.842804 32
-41.847309 -29.653053 0.845923 29
-35.082394 -24.617325 0.862596 14
-43.763386 -30.589979 0.843165 33
-37.020077 -25.632401 0.859536 18
-35.189903 -24.173483 0.864434 14
-43.209141 -29.554424 0.847032 31
-38.841732 -26.340498 0.857647 21
-36.263657 -24.235573 0.864747 31
-36.306065 -24.072607 0.865423 31
-36.952053 -24.330009 0.864728 51
-36.976501 -24.170332 0.865382 16
-36.856506 -23.916336 0.866339 16
-38.981884 -25.146473 0.862513 20
-36.716599 -23.479069 0.868021 47
-37.393940 -23.742399 0.867318 17
-37.435928 -23.595074 0.867932 51
-38.218384 -23.757265 0.867690 18
-39.046528 -23.918167 0.867478 39
-39.126232 -23.788713 0.868039 19
-38.703171 -23.353329 0.869566 18
-39.041630 -23.031105 0.871036 57
-40.161198 -23.337379 0.870393 21
-46.120705 -26.616348 0.860351 33
-45.977505 -26.328508 0.861431 32
-45.930099 -26.097507 0.862334 32
-41.074726 -23.145332 0.871642 66
-41.204033 -23.038183 0.872140 22
-46.091660 -25.591249 0.864451 32
-42.106049 -23.177906 0.872052 23
-47.038101 -25.697977 0.864518 33
-46.463223 -25.181562 0.866290 32
-46.667015 -25.090729 0.866761 32
-54.189659 -28.921698 0.855321 46
-50.939960 -26.965090 0.861474 40
-51.954327 -27.279879 0.860742 41
-51.808029 -26.981474 0.861863 41
-54.044670 -27.916672 0.859280 45
-53.472538 -27.393745 0.861080 43
-59.081261 -30.016459 0.853488 50
-58.428326 -29.437414 0.855471 50
-60.012379 -29.981733 0.854115 51
-59.926701 -29.686802 0.855254 51
-58.058445 -28.519054 0.858963 49
-58.028187 -28.261990 0.859980 49
-58.926495 -28.453493 0.859681 50
-59.765453 -28.609747 0.859493 50
-60.805035 -28.854595 0.859055 51
-60.764225 -28.584610 0.860117 51
-71.828194 -30.272652 0.859134 60
-189.821335 -61.829388 0.794238 63
-16.068272 -4.879201 0.931874 1
-15.946516 -4.793506 0.932155 1
-15.820471 -4.707676 0.932433 1
-15.743655 -4.638402 0.932671 1
-15.690383 -4.573323 0.932904 1
-15.613573 -4.502712 0.933148 1
-15.567468 -4.440503 0.933373 1
-15.560502 -4.385935 0.933589 1
-15.571589 -4.340949 0.933775 1
-15.532546 -4.281372 0.933994 1
-15.567200 -4.239657 0.934179 1
-15.528271 -4.178088 0.934406 1
-15.523619 -4.127264 0.934608 1
-15.495367 -4.071218 0.934818 1
-15.423418 -4.008197 0.935033 1
-15.547083 -3.986133 0.935186 1
-15.572996 -3.942195 0.935376 1
-15.547894 -3.887345 0.935583 1
-15.565652 -3.841666 0.935776 1
-15.563662 -3.791893 0.935975 1
-15.565412 -3.742956 0.936172 1
-15.504192 -3.681665 0.936386 1
-15.533037 -3.638310 0.936575 1
-15.593182 -3.600754 0.936758 1
-15.617837 -3.556219 0.936949 1
-15.634477 -3.510107 0.937143 1
-15.631273 -3.460384 0.937341 1
-15.698807 -3.423155 0.937526 1
-15.726823 -3.378710 0.937719 1
-15.750751 -3.333435 0.937913 1
-15.778477 -3.288671 0.938107 1
-15.825803 -3.246923 0.938300 1
-15.892761 -3.207983 0.938491 1
-16.030779 -3.179556 0.938677 1
-59.786564 -9.707873 0.935382 44
-59.674065 -9.485198 0.936217 44
-59.790371 -9.296304 0.937036 44
-59.953602 -9.113338 0.937856 45
-95.260284 -13.712263 0.937881 63
-46.232140 -6.890447 0.939594 21
-46.199795 -6.737067 0.940193 21
-96.259171 -12.860957 0.941821 63
-96.049789 -12.501326 0.943156 63
-55.980961 -7.428238 0.942540 38
-56.157974 -7.257621 0.943318 38
-98.120750 -11.733843 0.947321 63
-94.013626 -10.951002 0.948313 63
-94.883194 -10.716979 0.949708 63
-94.518494 -10.352554 0.950979 63
-94.351448 -10.010173 0.952266 63
-99.089592 -10.129417 0.954269 63
-100.911942 -9.969612 0.955864 63
-99.033783 -9.458300 0.956933 63
-109.535812 -9.974590 0.960360 63
-112.491585 -9.851878 0.962400 63
-115.768272 -9.714242 0.964668 63
-108.825798 -8.789982 0.964743 63
-110.167809 -8.527086 0.966501 63
-111.695358 -8.229215 0.968497 63
-92.511200 -6.349947 0.965996 63
-92.481323 -6.031319 0.967259 63
-92.463135 -5.697799 0.968589 63
-92.450943 -5.380649 0.969856 63
-92.601479 -5.070967 0.971178 63
-92.447205 -4.747768 0.972394 63
-32.379730 -1.529125 0.953863 8
-31.305418 -1.408803 0.953784 8
-31.462589 -1.308032 0.954270 8
-93.892517 -5.259421 1.505751 63
-93.724014 -4.610130 1.507130 63
-32.317440 -1.364725 1.130709 5
-32.442451 -1.259872 1.131916 5
-32.459122 -1.148362 1.132466 5
-32.287380 -1.047201 1.131782 5
4.326909 0.159328 0.978827 0
4.267860 0.104230 0.978242 25
4.251857 0.079974 0.978036 28
4.287383 0.062482 0.978134 9
4.290938 0.041627 0.978048 7
4.294606 0.019661 0.977958 6
4.302146 -0.001679 0.977892 7
4.317515 -0.021811 0.977872 4
4.340152 -0.063553 0.977786 0
4.367196 -0.082192 0.977837 1
4.413983 -0.098164 0.978004 1
4.417162 -0.120558 0.977912 5
4.404410 -0.145129 0.977727 3
4.429906 -0.185048 0.977670 0
4.452766 -0.206117 0.977689 0
4.451598 -0.229133 0.977574 0
4.458292 -0.251185 0.977506 0
4.516434 -0.266170 0.977741 0
4.531079 -0.288724 0.977712 0
13.422831 0.600658 1.028562 32
13.404518 0.544388 1.028206 35
13.401660 0.492515 1.027953 20
13.403880 0.384230 1.027471 2
13.444787 0.330900 1.027445 41
13.425494 0.274972 1.027091 38
13.433908 0.221440 1.026895 35
13.442137 0.167866 1.026699 34
13.453971 0.117239 1.026536 34
13.130275 -0.012729 1.024254 1
13.145676 -0.064794 1.024107 38
13.176868 -0.116002 1.024047 70
13.155971 -0.170328 1.023701 54
13.162701 -0.220380 1.023520 48
13.181511 -0.275175 1.023383 42
13.195886 -0.324974 1.023245 36
13.198333 -0.380674 1.023020 30
13.212361 -0.430612 1.022882 27
13.238217 -0.480211 1.022809 16
13.256086 -0.535557 1.022670 3
13.692163 -0.683413 1.024359 24
13.697292 -0.740858 1.024149 22
13.795651 -0.956928 1.023788 10
13.831777 -1.012047 1.023757 9
22.367552 -1.092817 1.068575 38
22.363178 -1.173596 1.068229 110
22.398535 -1.254732 1.068094 110
22.413511 -1.344367 1.067820 145
22.396305 -1.425057 1.067412 36
24.443291 -1.828468 1.076670 4
46.291344 -2.665186 1.188944 28
82.987495 -4.197535 1.377041 63
83.170509 -4.531910 1.376742 63
83.198357 -4.816104 1.375819 7
82.990036 -5.401530 1.372531 63
64.337494 -5.357725 1.274232 63
51.962067 -4.927023 1.210512 45
51.625038 -5.090835 1.208148 44
51.532314 -5.450469 1.206380 87
51.512543 -5.636960 1.205619 43
51.523151 -5.835568 1.204979 43
51.518841 -6.014144 1.204334 44
51.509048 -6.201699 1.203633 44
38.030418 -5.037547 1.136739 11
103.246223 -11.935398 1.456051 63
36.227627 -5.126372 1.126958 9
36.531853 -5.288347 1.128008 10
36.293407 -5.404065 1.126367 9
36.143562 -5.650154 1.124760 29
36.111294 -5.781287 1.124158 29
36.102379 -5.915309 1.123671 29
36.108856 -6.051421 1.123260 19
36.119709 -6.181522 1.122895 19
36.138042 -6.312851 1.122568 9
36.194580 -6.456654 1.122402 9
36.270367 -6.603803 1.122330 10
36.349545 -6.752139 1.122274 10
36.305580 -6.882337 1.121635 10
64.520386 -11.438131 1.254679 63
64.434204 -11.900329 1.252799 12
64.218124 -12.578215 1.249610 63
64.531487 -13.100130 1.249676 5
74.464455 -15.455783 1.294277 63
73.946182 -15.632667 1.291072 63
72.909477 -15.704540 1.285491 63
72.261543 -15.846889 1.281725 63
70.429756 -15.744246 1.272542 63
70.009727 -15.920791 1.269868 63
69.835945 -16.146509 1.268332 63
67.463356 -15.900319 1.256777 63
66.319275 -15.892354 1.250898 63
65.403847 -15.939694 1.246050 63
64.875267 -16.067759 1.242976 63
63.944996 -16.100470 1.238101 63
63.198441 -16.169420 1.234077 63
62.179707 -16.169024 1.228847 63
61.344601 -16.205528 1.224465 63
60.392200 -16.196173 1.219607 63
59.621662 -16.248177 1.215525 63
58.823219 -16.276335 1.211366 63
57.721756 -16.210732 1.205906 63
57.161003 -16.288164 1.202843 63
56.492092 -16.333502 1.199315 63
55.943439 -16.406181 1.196335 63
54.908337 -16.344172 1.191221 60
54.260258 -16.380480 1.187834 58
53.496975 -16.380442 1.183957 56
52.926952 -16.429287 1.180944 54
52.241844 -16.441526 1.177441 52
51.584236 -16.456923 1.174073 50
50.942547 -16.472401 1.170790 48
50.246567 -16.457460 1.167309 46
49.650909 -16.467876 1.164278 44
49.110493 -16.500814 1.161476 42
48.566658 -16.528999 1.158672 41
48.012901 -16.559935 1.155815 39
47.465034 -16.569754 1.153041 38
46.888260 -16.576160 1.150132 36
46.366444 -16.605566 1.147451 34
45.839111 -16.610937 1.144800 33
45.518490 -16.690142 1.143022 32
44.236828 -16.437674 1.137174 29
44.372238 -16.662901 1.137362 29
43.978737 -16.727049 1.135265 29
43.280922 -16.665379 1.131925 27
13.413933 -6.406094 1.005206 1
13.437188 -6.532408 1.005058 1
13.832703 -6.732908 1.006604 1
13.925398 -6.829262 1.006866 1
13.111045 -6.769485 1.002976 1
12.896742 -6.747551 1.001967 1
12.871922 -6.800663 1.001743 1
12.837778 -6.844101 1.001494 1
12.605417 -6.811812 1.000420 1
12.621221 -6.880186 1.000370 1
12.390357 -6.843115 0.999314 1
12.357812 -6.891277 0.999068 1
1.612036 -2.511791 0.954833 0
1.680909 -2.554544 0.955091 0
1.705023 -2.579800 0.955163 0
1.688786 -2.587385 0.955071 0
1.679341 -2.599316 0.955005 0
1.659402 -2.605149 0.954899 0
1.694160 -2.635543 0.955014 0
1.659225 -2.635504 0.954847 0
1.693753 -2.666178 0.954961 0
1.801068 -2.729933 0.955370 0
1.740445 -2.718385 0.955099 0
1.770857 -2.748095 0.955196 0
1.812306 -2.782410 0.955339 0
1.780757 -2.783869 0.955187 4
1.724995 -2.789623 0.954914 0
1.964402 -2.919496 0.955849 0
1.773766 -2.845192 0.955061 0
1.742209 -2.846074 0.954911 0
1.535150 -2.759574 0.954065 0
1.554136 -2.784353 0.954118 0
1.547646 -2.797368 0.954069 0
1.502150 -2.789895 0.953868 0
1.495951 -2.802109 0.953822 0
1.458004 -2.797236 0.953652 0
1.409165 -2.787205 0.953439 1
1.413610 -2.804655 0.953436 6
1.354285 -2.788575 0.953183 11
1.337806 -2.794057 0.953100 14
1.327757 -2.804388 0.953040 22
1.282804 -2.795065 0.952846 27
1.255517 -2.795025 0.952721 31
1.232085 -2.796178 0.952612 37
1.211560 -2.800256 0.952514 39
1.177703 -2.795289 0.952365 40
1.157857 -2.797966 0.952272 43
1.133928 -2.799653 0.952161 41
1.110340 -2.800644 0.952053 42
1.097177 -2.807492 0.951986 42
1.070486 -2.805687 0.951868 42
1.050432 -2.808302 0.951775 43
1.023509 -2.806729 0.951656 45
1.000072 -2.807037 0.951551 45
0.983527 -2.811321 0.951473 48
0.953302 -2.807228 0.951342 46
0.929971 -2.807112 0.951239 49
0.917213 -2.812629 0.951177 49
0.897335 -2.814377 0.951087 60
0.877168 -2.816510 0.950996 54
0.857651 -2.817522 0.950909 50
0.841224 -2.821061 0.950834 51
0.818066 -2.820201 0.950733 51
0.801990 -2.823043 0.950660 49
0.792639 -2.830149 0.950614 50
0.765895 -2.827245 0.950500 51
0.746206 -2.828090 0.950414 51
0.733212 -2.833242 0.950353 55
0.713881 -2.833406 0.950270 51
0.690628 -2.832169 0.950171 52
0.668053 -2.829854 0.950076 54
0.648509 -2.830128 0.949992 52
0.635269 -2.835284 0.949931 53
0.619058 -2.837630 0.949861 53
0.606459 -2.841722 0.949804 52
0.587321 -2.841146 0.949724 55
0.571159 -2.843225 0.949654 54
0.557951 -2.847986 0.949595 51
0.538889 -2.847112 0.949516 54
0.522461 -2.849360 0.949446 54
0.502821 -2.849152 0.949364 55
0.490299 -2.852700 0.949310 55
0.468139 -2.849040 0.949220 54
0.458214 -2.855680 0.949175 55
0.439325 -2.854206 0.949098 55
0.423342 -2.855465 0.949031 53
0.404520 -2.853788 0.948955 55
0.394611 -2.860151 0.948911 55
0.372678 -2.855843 0.948824 56
0.363101 -2.861655 0.948782 49
0.344072 -2.860013 0.948706 47
0.328222 -2.860742 0.948642 47
0.318654 -2.866366 0.948601 50
0.308751 -2.872349 0.948559 48
0.293261 -2.872454 0.948497 48
0.277473 -2.872874 0.948433 49
0.258938 -2.870278 0.948361 48
0.249380 -2.875606 0.948321 50
0.239488 -2.881282 0.948280 48
0.223776 -2.881385 0.948218 48
0.205032 -2.878824 0.948145 51
0.186333 -2.876154 0.948073 51
0.173760 -2.878576 0.948023 48
0.158490 -2.877945 0.947964 43
0.136879 -2.872368 0.947881 43
0.106294 -2.858772 0.947766 47
0.084843 -2.852907 0.947685 44
0.069447 -2.852219 0.947626 56
0.057388 -2.853748 0.947579 60
0.048319 -2.857889 0.947544 63
0.038923 -2.862346 0.947508 67
0.023605 -2.861376 0.947450 66
0.017165 -2.868428 0.947425 69
0.001882 -2.867320 0.947368 70
-0.007509 -2.871574 0.947333 101
-0.016905 -2.875784 0.947297 103
-0.029217 -2.877209 0.947252 102
-0.035711 -2.884077 0.947227 103
-0.048014 -2.885395 0.947182 103
-0.048773 -2.897744 0.947179 104
-0.066829 -2.893409 0.947113 105
-0.070517 -2.902940 0.947100 106
-0.076772 -2.909328 0.947078 105
-0.083378 -2.916029 0.947054 104
-0.095676 -2.917062 0.947010 55
-0.107957 -2.918032 0.946966 59
-0.120222 -2.918939 0.946922 57
-0.135274 -2.916932 0.946869 57
-0.147495 -2.917705 0.946825 57
-0.159698 -2.918415 0.946782 58
-0.169110 -2.921946 0.946750 34
-0.181288 -2.922542 0.946707 53
-0.190694 -2.925978 0.946675 52
-0.202513 -2.926147 0.946634 53
-0.214646 -2.926570 0.946593 52
-0.232207 -2.921074 0.946531 52
-0.236140 -2.930172 0.946520 52
-0.248559 -2.930726 0.946477 52
-0.260290 -2.930609 0.946437 58
-0.269653 -2.933703 0.946407 62
-0.284360 -2.930802 0.946356 60
-0.291041 -2.936779 0.946336 54
-0.297406 -2.942436 0.946316 54
-0.312387 -2.939650 0.946266 52
-0.318761 -2.945236 0.946247 54
-0.333353 -2.942027 0.946197 54
-0.340073 -2.947833 0.946178 52
-0.349411 -2.950575 0.946148 54
-0.358749 -2.953275 0.946119 54
-0.368085 -2.955934 0.946090 55
-0.377420 -2.958551 0.946061 42
-0.391867 -2.954975 0.946013 56
-0.403722 -2.954406 0.945975 57
-0.410146 -2.959689 0.945957 59
-0.419112 -2.961848 0.945930 58
-0.434120 -2.958569 0.945882 68
-0.443060 -2.960631 0.945855 66
-0.454489 -2.959527 0.945819 66
-0.463751 -2.961772 0.945791 70
-0.473348 -2.964244 0.945763 69
-0.487522 -2.960097 0.945717 69
-0.496751 -2.962202 0.945691 70
-0.508076 -2.960833 0.945655 69
-0.512433 -2.969209 0.945647 70
-0.519246 -2.974390 0.945630 68
-0.533630 -2.970212 0.945585 70
-0.544892 -2.968654 0.945550 70
-0.551362 -2.973469 0.945534 72
-0.560561 -2.975292 0.945509 70
-0.572115 -2.973846 0.945474 68
-0.581293 -2.975581 0.945449 70
-0.590465 -2.977275 0.945423 70
-0.597305 -2.982183 0.945407 70
-0.608793 -2.980543 0.945373 74
-0.618291 -2.982358 0.945348 73
-0.629732 -2.980612 0.945314 70
-0.636584 -2.985383 0.945299 72
-0.647647 -2.983305 0.945266 72
-0.659365 -2.981644 0.945233 70
-0.663975 -2.989622 0.945226 70
-0.674983 -2.987406 0.945194 72
-0.684425 -2.988923 0.945170 69
-0.690961 -2.993275 0.945156 72
-0.697512 -2.997605 0.945142 70
-0.704769 -3.002366 0.945127 70
-0.716049 -3.000162 0.945095 70
-0.724787 -3.001046 0.945073 70
-0.732056 -3.005706 0.945058 70
-0.741136 -3.006741 0.945035 73
-0.749861 -3.007519 0.945013 70
-0.758924 -3.008477 0.944991 72
-0.765873 -3.012797 0.944977 72
-0.774930 -3.013685 0.944955 70
-0.782246 -3.018162 0.944941 72
-0.788879 -3.022189 0.944929 72
-0.802050 -3.016115 0.944890 70
-0.808675 -3.020077 0.944878 75
-0.817699 -3.020779 0.944856 70
-0.825040 -3.025099 0.944843 70
-0.831696 -3.028984 0.944831 73
-0.842713 -3.026120 0.944801 72
-0.849722 -3.030148 0.944789 70
-0.858721 -3.030672 0.944768 69
-0.848085 -3.066014 0.944830 33
-0.870482 -3.041886 0.944753 70
-0.883362 -3.035320 0.944716 80
-0.890051 -3.039012 0.944705 89
-0.897106 -3.042874 0.944693 89
-0.902625 -3.050421 0.944689 96
-0.911609 -3.050714 0.944669 92
-0.920581 -3.050969 0.944649 91
-0.923591 -3.061614 0.944655 91
-0.931081 -3.065545 0.944643 91
-0.937870 -3.069078 0.944632 91
-0.942842 -3.076147 0.944630 89
-0.950744 -3.080191 0.944618 91
-0.957582 -3.083659 0.944607 91
-0.962639 -3.090680 0.944605 90
-0.968094 -3.097871 0.944602 89
-0.974315 -3.105407 0.944599 89
-0.981236 -3.108797 0.944589 89
-0.988533 -3.112341 0.944578 89
-0.990290 -3.126504 0.944592 87
-0.996302 -3.133804 0.944589 87
-1.001983 -3.140914 0.944587 87
-1.011083 -3.140760 0.944569 87
-1.015136 -3.151461 0.944575 87
-1.018878 -3.161988 0.944581 87
-1.024333 -3.168872 0.944579 86
-1.030575 -3.176082 0.944577 82
-1.036102 -3.182939 0.944575 85
-1.040806 -3.193776 0.944581 84
-1.045196 -3.204441 0.944587 84
-1.049265 -3.214936 0.944593 84
-1.055740 -3.222082 0.944591 82
-1.061483 -3.228883 0.944590 80
-1.061442 -3.250580 0.944619 77
-1.068844 -3.253680 0.944611 77
-1.072068 -3.268009 0.944625 74
-1.071238 -3.293613 0.944661 70
-1.077282 -3.300388 0.944660 66
-1.080785 -3.314734 0.944674 64
-1.081429 -3.336521 0.944703 62
-1.085543 -3.351043 0.944717 48
-1.087894 -3.369136 0.944738 49
-1.084206 -3.402016 0.944791 46
-1.089681 -3.412676 0.944797 38
-1.088173 -3.442043 0.944841 35
-1.092444 -3.456456 0.944855 35
-1.094039 -3.478376 0.944884 33
-1.099885 -3.489039 0.944891 30
-1.099011 -3.518506 0.944935 29
-1.096988 -3.551776 0.944986 26
-1.098732 -3.573616 0.945016 27
-1.095336 -3.610578 0.945075 22
-1.099617 -3.629001 0.945096 21
-1.097935 -3.662256 0.945148 20
-1.098210 -3.691918 0.945192 18
-1.097414 -3.725405 0.945243 15
-1.087785 -3.852739 0.945447 0
-1.062507 -3.966445 0.945652 5
-1.071083 -3.973354 0.945652 7
-1.061749 -4.041679 0.945768 4
-1.048304 -4.121254 0.945906 1
3.513876 -19.682463 0.975297 10
3.459990 -19.752470 0.975347 87
3.353651 -19.629183 0.975037 59
3.298494 -19.682388 0.975062 33
4.805472 -25.312704 0.985543 10
3.774844 -21.900099 0.979068 2
3.359070 -20.923103 0.977094 44
3.219761 -20.678799 0.976566 67
3.116911 -20.862831 0.976765 6
3.680126 -23.352943 0.981306 8
2.911715 -20.617842 0.976182 18
2.834104 -20.612410 0.976105 3
3.052702 -21.794338 0.978220 2
2.464998 -19.952587 0.974716 7
2.393458 -19.944679 0.974645 43
2.323808 -19.944302 0.974590 15
2.327192 -20.587212 0.975658 15
3.151556 -25.090876 0.983743 6
3.571767 -27.528732 0.988104 12
2.505142 -23.203115 0.980151 57
2.390193 -23.050795 0.979823 39
2.334002 -23.171976 0.979994 55
2.264196 -23.226252 0.980045 49
2.194803 -23.284239 0.980105 13
3.368040 -30.617090 0.993202 5
2.320971 -25.326885 0.983649 7
1.647777 -22.382767 0.978291 40
1.562393 -22.307953 0.978124 30
1.502931 -22.411049 0.978276 11
2.574489 -30.231949 0.992188 15
1.224891 -22.094654 0.977623 2
1.574636 -24.938320 0.982670 3
1.328102 -24.404320 0.981665 3
0.954344 -23.430067 0.979866 35
0.872030 -23.408503 0.979810 33
1.117165 -26.010302 0.984418 32
0.425953 -21.037502 0.975566 9
0.163972 -19.413113 0.972669 45
0.090685 -19.341068 0.972532 10
0.036393 -19.435722 0.972692 3
-0.037268 -19.355219 0.972542 12
-0.131347 -19.071510 0.972033 27
-0.105222 -19.969475 0.973622 24
0.090183 -22.687384 0.978441 49
-0.050985 -21.989586 0.977202 12
-0.118849 -22.056023 0.977319 4
-0.278499 -21.018009 0.975479 7
0.103282 -26.493275 0.985196 11
-0.285436 -22.708300 0.978484 23
-0.495237 -20.939213 0.975351 33
-0.572267 -20.888737 0.975268 33
-0.309160 -27.025047 0.986183 3
-0.873206 -19.337347 0.972540 1
-1.069156 -19.268246 0.972455 37
-0.707798 -30.379530 0.992268 5
-0.803972 -30.539734 0.992582 5
-1.150596 -23.964247 0.980893 2
-1.379191 -19.537567 0.973024 9
-1.440479 -19.543522 0.973056 45
-1.508586 -19.537451 0.973069 46
-1.403951 -31.234074 0.994038 10
-1.492407 -32.283829 0.995961 6
-1.600418 -32.373405 0.996169 6
-1.736215 -29.526733 0.991115 4
-1.871519 -23.315594 0.980015 2
-1.929914 -29.667868 0.991464 14
-2.354738 -24.385269 0.982205 15
-2.878447 -31.335226 0.995031 5
-2.808360 -25.914839 0.985253 10
-2.937264 -27.207190 0.987665 4
-3.177840 -31.000822 0.994647 26
-2.853166 -20.961725 0.976402 1
-3.313328 -29.397577 0.991878 4
-3.013851 -21.458836 0.977420 10
-3.154253 -21.411324 0.977451 12
-3.290359 -22.425106 0.979381 2
-3.294281 -21.310728 0.977394 1
-3.973929 -30.353609 0.994152 10
-3.444659 -21.424889 0.977735 4
-4.037515 -28.504532 0.990914 4
-4.141475 -28.476566 0.990964 4
-4.462439 -27.871279 0.990215 34
-3.857296 -20.523733 0.976547 43
-3.941722 -20.004929 0.975721 63
-4.005810 -19.945974 0.975689 22
-4.455357 -22.773832 0.981195 2
-4.554852 -22.351511 0.980571 76
-4.497121 -21.270582 0.978603 16
-4.439256 -20.221651 0.976693 7
-4.506266 -20.213020 0.976762 35
-4.748555 -21.007870 0.978464 1
-6.431851 -32.396496 1.000536 6
-6.034014 -28.877382 0.993880 13
-6.165073 -27.802013 0.992198 8
-5.236852 -21.388372 0.979796 2
-6.399998 -27.513056 0.992039 21
-7.453427 -32.527473 1.002219 6
-6.368439 -25.745008 0.988961 10
-6.137229 -23.945639 0.985532 3
-6.345517 -24.196081 0.986286 6
-6.662663 -25.393984 0.988827 3
-5.715517 -19.751009 0.977739 39
-5.770580 -19.686956 0.977723 11
-5.944479 -20.202612 0.978882 3
-6.185755 -20.679295 0.980094 84
-6.217947 -20.496460 0.979845 5
-6.807234 -22.848888 0.984799 5
-7.420855 -25.232542 0.989849 3
-6.402140 -20.365417 0.979956 7
-6.610046 -20.341602 0.980300 5
-6.590807 -19.967743 0.979652 1
-6.623477 -19.815655 0.979466 22
-6.691964 -19.811045 0.979590 22
-6.945717 -20.551516 0.981284 31
-8.055560 -24.251699 0.989446 6
-8.130481 -24.207216 0.989524 3
-9.474479 -28.915932 0.999781 9
-10.969835 -33.147247 1.009593 7
-9.457241 -27.356527 0.997267 4
-9.728098 -27.261644 0.997697 8
-9.941993 -27.644650 0.998759 9
-10.615576 -29.538961 1.003178 5
-9.886624 -26.800602 0.997329 4
-9.089703 -23.923758 0.991118 3
-11.031068 -29.473078 1.004009 5
-9.663459 -24.875223 0.993876 3
-10.392676 -26.850702 0.998556 4
-12.190176 -32.032677 1.010568 6
-9.634495 -23.984140 0.992462 3
-9.702024 -23.906721 0.992506 3
-10.643781 -26.138275 0.998083 4
-11.721931 -28.643044 1.004401 5
-11.725158 -28.332146 1.003954 4
-12.382725 -29.859896 1.007813 5
-11.908422 -27.951014 1.003860 63
-11.980058 -27.856277 1.003905 14
-12.045525 -27.746393 1.003916 14
-12.074837 -27.542896 1.003702 19
-12.183124 -27.548643 1.003991 4
-12.476343 -28.044327 1.005456 9
-12.451265 -27.689188 1.004893 19
-11.418124 -24.820227 0.998154 48
-11.831416 -25.378725 1.000034 4
-12.607978 -27.040697 1.004416 55
-14.027710 -29.929693 1.012230 6
-11.969217 -24.759644 0.999569 7
-12.085281 -24.562687 0.999630 3
-12.089373 -23.692341 0.998499 3
-12.155338 -23.627794 0.998607 3
-15.996859 -31.891027 1.020406 7
-15.472041 -30.459829 1.017042 6
-15.660122 -30.611105 1.017789 6
-12.677222 -23.938856 1.000538 7
-15.484053 -29.443689 1.015804 6
-13.203322 -24.424707 1.002722 3
-14.391352 -26.676260 1.009091 28
-13.251320 -24.099447 1.002472 33
-13.515606 -23.650522 1.002762 3
-13.853841 -23.908524 1.004135 7
-16.135574 -28.082571 1.016216 5
-17.743330 -30.667109 1.024327 7
-18.001562 -30.901123 1.025429 7
-18.209835 -31.025276 1.026249 7
-18.239817 -30.585331 1.025869 21
-16.654200 -27.490248 1.017261 5
-18.319807 -30.257559 1.025785 7
-41.271801 -69.677567 1.144655 63
-41.615120 -69.720253 1.145872 63
-17.335991 -27.402330 1.019482 5
-19.105429 -30.222960 1.028428 7
-17.150763 -26.690317 1.018128 5
-17.228752 -26.597584 1.018309 5
-17.351044 -26.398237 1.018545 15
-17.468685 -26.392311 1.018956 25
-17.092262 -25.581581 1.016852 4
-18.479410 -27.630375 1.023722 18
-27.977577 -42.642399 1.071676 30
-17.712067 -25.817165 1.019300 10
-16.446999 -23.654240 1.012767 4
-20.356581 -29.548323 1.032256 7
-19.180773 -27.106422 1.025820 6
-19.021740 -26.679316 1.024871 5
-16.980042 -23.271288 1.014421 12
-21.198576 -29.313082 1.035199 7
-17.685707 -23.971962 1.017650 4
-17.690308 -23.799021 1.017533 49
-17.688240 -23.635120 1.017399 39
-17.891792 -23.590460 1.018150 22
-20.046341 -26.461355 1.028607 12
-20.167807 -26.453449 1.029074 54
-18.768200 -24.321716 1.022090 14
-18.824663 -24.211832 1.022235 4
-18.450010 -23.529667 1.020291 4
-17.311775 -21.675529 1.014537 7
-21.852116 -27.615629 1.036520 7
-22.007330 -27.629295 1.037151 21
-19.415380 -23.997850 1.024450 4
-20.810364 -25.499428 1.031009 28
-20.399160 -24.267944 1.028623 35
-24.109835 -28.578920 1.046296 8
-22.742765 -26.690834 1.039629 6
-22.854389 -26.636351 1.040069 6
-22.960873 -26.045238 1.040243 20
-23.411751 -26.403021 1.042320 7
-21.305313 -23.752518 1.032190 5
-23.654543 -26.169819 1.043267 14
-20.258001 -22.068523 1.027010 9
-20.369240 -22.040619 1.027482 22
-21.082184 -22.558807 1.030774 4
-21.189308 -22.377459 1.031186 14
-21.412968 -22.482800 1.032205 14
-21.657461 -22.601206 1.033322 15
-21.713743 -22.511822 1.033548 5
-25.067299 -25.992300 1.049416 7
-22.759613 -23.337238 1.038431 5
-20.472694 -20.733349 1.027553 12
-20.577080 -20.706568 1.028018 46
-20.625731 -20.627455 1.028221 55
-25.659969 -25.753565 1.052033 15
-25.985241 -25.745697 1.053513 7
-23.550220 -23.080898 1.041966 5
-23.627699 -22.853186 1.042293 17
-23.718876 -22.785095 1.042707 17
-21.265144 -20.198524 1.031092 46
-27.983681 -26.528173 1.062833 8
-22.836172 -21.339622 1.038493 5
-22.962234 -21.313196 1.039083 20
-23.047359 -21.253763 1.039482 35
-22.559462 -20.647097 1.037176 33
-22.645262 -20.591722 1.037582 23
-23.342545 -21.111763 1.040881 10
-23.430079 -21.053532 1.041300 90
-26.671154 -23.770695 1.056640 7
-24.123323 -20.996599 1.044635 5
-23.276712 -19.957520 1.040668 23
-31.291113 -26.726582 1.078647 10
-24.680075 -20.784861 1.047381 5
-24.646086 -20.616581 1.047248 5
-33.384804 -27.618340 1.088764 13
-35.509640 -29.218731 1.098889 18
-32.013489 -26.098253 1.082361 10
-35.650269 -28.938133 1.099670 18
-32.684887 -26.297577 1.085656 10
-32.760551 -26.180183 1.086074 10
-35.938770 -28.191612 1.101377 18
-32.827312 -25.175209 1.086795 10
-32.898811 -25.057631 1.087212 10
-35.331463 -26.763849 1.098886 15
-32.973812 -24.770748 1.087728 30
-32.954681 -24.584953 1.087720 10
-39.930927 -29.697599 1.121111 26
-40.377666 -29.835850 1.123347 27
-35.178226 -25.553608 1.098712 26
-35.276554 -25.447113 1.099284 13
-35.596565 -25.510994 1.100916 14
-33.934418 -24.137554 1.093051 10
-37.087730 -25.855276 1.108521 17
-34.574772 -23.914835 1.096559 21
-35.366367 -24.297621 1.100482 24
-38.167011 -26.064222 1.114082 19
-36.639236 -24.650236 1.106986 44
-37.648914 -25.157106 1.111989 34
-41.418129 -27.508961 1.130327 26
-41.420498 -27.311281 1.130494 26
-41.428642 -27.118324 1.130692 26
-36.996204 -24.009161 1.109398 14
-40.248932 -25.765381 1.125462 22
-37.376385 -23.732191 1.111685 15
-37.394722 -23.569881 1.111928 14
-39.964996 -25.021500 1.124580 21
-37.937561 -23.564556 1.114884 31
-37.910255 -23.381828 1.114905 46
-45.819271 -28.084511 1.153639 36
-39.716614 -24.133781 1.124061 19
-38.572128 -23.082695 1.118824 33
-38.662243 -22.971571 1.119434 16
-38.986252 -22.990545 1.121201 34
-39.100620 -22.883646 1.121946 17
-40.457832 -23.502968 1.128795 20
-45.172722 -26.057564 1.152161 31
-41.042034 -23.299248 1.132267 42
-44.384747 -25.011023 1.148952 29
-44.374058 -24.810055 1.149125 29
-44.439365 -24.652267 1.149677 29
-46.457897 -25.573372 1.159892 34
-42.116009 -22.993029 1.138638 45
-46.093960 -24.972189 1.158581 32
-46.198425 -24.829510 1.159348 65
-54.381794 -29.002394 1.200259 61
-51.821079 -27.411341 1.187823 52
-52.036839 -27.302374 1.189187 52
-51.316792 -26.693983 1.185905 49
-53.704697 -27.719561 1.198103 57
-51.892731 -26.563686 1.189357 51
-53.943329 -27.385103 1.199919 58
-52.177025 -26.268690 1.191387 51
-53.775337 -26.846857 1.199714 56
-59.476578 -29.440664 1.228669 63
-51.795742 -25.426748 1.190406 49
-59.018768 -28.720598 1.227089 63
-59.035824 -28.483221 1.227540 63
-58.994156 -28.218500 1.227697 63
-59.895103 -28.400745 1.232621 63
-71.831894 -30.261736 1.299192 63
-114.614120 -44.071049 1.526860 63
-16.639797 -5.196147 1.019382 11
-16.437349 -5.029620 1.018550 1
-16.574007 -5.015565 1.019422 1
-16.398663 -4.913506 1.018601 1
-16.342596 -4.844671 1.018429 1
-16.371332 -4.798651 1.018722 1
-16.353458 -4.740434 1.018760 1
-16.393484 -4.697239 1.019117 1
-16.305380 -4.621584 1.018771 1
-16.251865 -4.555256 1.018614 2
-16.186405 -4.486497 1.018390 2
-16.163418 -4.428533 1.018402 2
-16.120737 -4.366161 1.018304 1
-16.101168 -4.309580 1.018335 1
-16.073578 -4.251387 1.018322 1
-16.057459 -4.196071 1.018373 1
-16.169981 -4.169547 1.019143 1
-16.204332 -4.125191 1.019478 2
-16.207262 -4.073909 1.019639 2
-16.206095 -4.021817 1.019778 2
-16.149906 -3.958385 1.019608 2
-16.062096 -3.888985 1.019259 1
-16.048492 -3.835166 1.019329 0
-16.066082 -3.787655 1.019575 0
-16.079582 -3.739298 1.019800 0
-16.096848 -3.691624 1.020046 0
-16.125750 -3.646056 1.020361 0
-16.130444 -3.598481 1.020531 0
-16.162540 -3.555839 1.020859 0
-16.191437 -3.507367 1.021184 0
-16.231569 -3.463229 1.021569 0
-16.377649 -3.439252 1.022555 1
-16.583344 -3.421548 1.023896 2
-16.655233 -3.378249 1.024480 3
-16.604105 -3.317753 1.024347 1
-16.936220 -3.316608 1.026432 1
-16.971832 -3.268616 1.026806 1
-17.177471 -3.245355 1.028169 1
-59.652077 -9.267613 1.275567 58
-59.980175 -9.118441 1.278105 59
-94.901718 -13.665690 1.482810 63
-46.253132 -6.878574 1.199099 20
-46.232639 -6.726676 1.199466 20
-99.819382 -13.293192 1.514940 63
-94.527199 -12.284883 1.484972 63
-56.172783 -7.433127 1.259675 46
-56.156181 -7.229975 1.260249 46
-94.934250 -11.348040 1.490666 63
-94.029427 -10.938649 1.486349 63
-94.887009 -10.703197 1.492555 63
-85.210999 -9.386322 1.436051 63
-97.227188 -10.258824 1.508839 63
-95.709633 -9.781519 1.500917 63
-96.667870 -9.537879 1.507814 63
-98.062447 -9.342320 1.517303 63
-109.009056 -9.914454 1.584414 63
-109.436676 -9.591362 1.588260 63
-111.156990 -9.345263 1.600005 63
-109.608307 -8.811680 1.592130 63
-111.413269 -8.577731 1.604383 63
-111.340446 -8.170137 1.605400 63
-92.978439 -6.347737 1.495929 63
-92.907738 -6.041161 1.496611 63
-93.074142 -5.699660 1.498929 63
4.230990 0.291637 1.016134 0
4.243365 0.271499 1.016140 5
4.259373 0.253180 1.016197 9
4.248091 0.228190 1.015917 9
4.260261 0.207912 1.015922 19
4.237017 0.180759 1.015499 19
4.221676 0.087951 1.014762 0
4.237327 0.068290 1.014815 0
4.241089 0.046511 1.014725 0
4.268445 0.028679 1.014919 0
4.354425 -0.001350 1.015685 1
4.385604 -0.019202 1.015923 7
4.369291 -0.044525 1.015597 8
4.344968 -0.070906 1.015177 1
4.296979 -0.189046 1.013983 0
4.391087 -0.199315 1.014964 0
4.458918 -0.259267 1.015386 0
4.541012 -0.272737 1.016220 0
4.547558 -0.295134 1.016174 0
13.537973 0.645295 1.120478 1
13.535737 0.590223 1.120165 1
13.453439 0.529916 1.118941 6
13.411243 0.468652 1.118158 2
13.447705 0.423205 1.118330 31
13.468829 0.368008 1.118283 49
13.473815 0.311303 1.118053 113
13.430091 0.258721 1.117306 45
13.414740 0.200580 1.116848 22
13.438850 0.148275 1.116858 22
13.454805 0.095241 1.116776 21
13.150899 -0.032960 1.112789 9
13.158084 -0.082961 1.112631 91
13.181230 -0.134713 1.112644 100
13.160122 -0.186377 1.112168 100
13.179055 -0.241127 1.112125 94
13.197665 -0.293352 1.112092 77
13.207985 -0.343397 1.111978 70
13.210365 -0.399141 1.111753 50
13.228430 -0.451641 1.111719 47
13.242226 -0.501735 1.111651 33
13.263933 -0.554333 1.111661 27
13.269466 -0.607508 1.111491 19
13.314801 -0.659775 1.111770 3
13.643826 -0.703937 1.115239 3
13.724820 -0.757209 1.115914 34
13.709647 -0.812311 1.115514 30
13.818710 -0.921314 1.116277 1
13.835017 -1.031762 1.116011 6
22.364973 -1.293254 1.209818 2
22.419867 -1.379125 1.210096 2
22.458536 -1.460821 1.210214 2
22.468847 -1.546452 1.210004 2
46.032520 -2.556781 1.468156 12
83.026215 -4.632001 1.871738 50
83.212875 -4.937957 1.872740 50
64.427971 -5.458341 1.662471 35
103.767281 -8.810248 2.088011 45
51.479580 -5.710593 1.518160 19
51.474838 -5.898331 1.517549 19
51.497311 -6.088733 1.517238 19
51.515125 -6.278961 1.516884 19
36.114693 -5.836653 1.347962 8
36.101620 -5.970182 1.347479 8
36.092930 -6.097560 1.347065 8
36.071018 -6.229954 1.346499 8
64.789291 -11.816449 1.649331 36
64.557838 -12.017568 1.646363 35
64.413521 -12.697491 1.643384 35
64.586807 -12.979716 1.644721 36
64.635155 -13.228651 1.644767 36
70.071564 -16.040232 1.699038 40
68.141701 -16.136915 1.677915 39
68.713776 -16.777590 1.683145 39
67.903259 -17.097176 1.673905 39
68.216736 -17.427544 1.676839 39
68.276558 -18.740450 1.675821 39
44.266148 -16.520357 1.421595 12
44.210712 -16.672411 1.420967 12
135.382599 -48.625668 2.369637 45
13.701782 -6.645810 1.103370 1
13.802394 -6.744176 1.104412 1
13.879972 -6.835061 1.105218 1
13.777056 -6.859910 1.104147 1
12.801802 -6.791609 1.094036 1
12.833668 -6.863766 1.094381 1
12.976698 -6.980587 1.095886 1
1.632472 -2.524773 0.977831 0
1.660674 -2.550698 0.978131 0
1.647940 -2.560355 0.978006 0
1.653579 -2.577785 0.978072 0
1.626077 -2.581039 0.977794 0
1.671962 -2.616009 0.978282 0
1.655381 -2.623995 0.978119 0
1.821643 -2.712884 0.979863 0
1.680609 -2.665802 0.978403 0
1.693071 -2.686867 0.978545 0
1.778228 -2.741203 0.979446 0
1.706784 -2.724304 0.978714 0
1.758865 -2.764170 0.979271 0
1.782351 -2.789530 0.979530 0
1.743599 -2.787353 0.979140 0
1.699695 -2.814240 0.978729 0
1.782908 -2.871752 0.979618 0
1.815871 -2.904427 0.979982 0
1.666816 -2.862770 0.978458 0
1.472486 -2.872727 0.976564 0
1.378574 -2.836278 0.975595 0
1.365181 -2.844248 0.975477 0
1.316360 -2.833541 0.974987 0
1.250465 -2.812273 0.974315 0
1.254993 -2.828871 0.974386 0
1.228039 -2.827928 0.974125 0
1.203978 -2.829910 0.973896 0
1.187214 -2.835145 0.973745 0
1.184647 -2.847695 0.973742 0
1.181389 -2.861358 0.973735 0
1.133486 -2.848263 0.973254 1
1.116742 -2.853106 0.973104 5
1.069037 -2.839497 0.972625 6
1.062668 -2.850199 0.972585 9
1.036022 -2.847966 0.972329 12
1.012526 -2.848177 0.972107 16
0.985654 -2.846159 0.971850 17
0.969047 -2.850273 0.971703 23
0.939177 -2.845337 0.971412 26
0.926007 -2.851341 0.971302 28
0.899298 -2.848740 0.971047 31
0.892898 -2.858849 0.971010 39
0.869621 -2.858149 0.970792 31
0.849746 -2.859477 0.970611 31
0.836602 -2.865052 0.970502 31
0.807048 -2.859104 0.970215 31
0.790598 -2.862280 0.970071 32
0.770508 -2.863632 0.969890 33
0.754089 -2.866609 0.969747 33
0.731377 -2.864539 0.969535 31
0.701774 -2.858311 0.969249 31
0.685444 -2.860946 0.969108 30
0.669450 -2.863023 0.968968 32
0.662677 -2.872795 0.968932 32
0.639818 -2.870598 0.968720 35
0.620274 -2.870571 0.968544 33
0.607280 -2.875069 0.968440 35
0.591361 -2.876715 0.968302 35
0.571891 -2.876386 0.968127 33
0.558926 -2.880647 0.968024 33
0.536282 -2.877750 0.967814 35
0.520126 -2.879468 0.967676 35
0.503990 -2.881095 0.967538 36
0.487873 -2.882633 0.967401 36
0.471776 -2.884080 0.967264 36
0.452514 -2.883019 0.967092 36
0.439643 -2.886707 0.966991 36
0.420440 -2.885445 0.966820 37
0.404761 -2.886105 0.966686 35
0.391930 -2.889561 0.966585 36
0.372819 -2.888002 0.966415 36
0.360016 -2.891303 0.966316 36
0.350672 -2.896623 0.966253 37
0.334756 -2.897298 0.966119 45
0.318864 -2.897884 0.965985 44
0.306096 -2.900911 0.965886 44
0.293336 -2.903871 0.965788 45
0.277501 -2.904216 0.965655 46
0.264764 -2.907033 0.965557 44
0.249301 -2.906821 0.965427 46
0.230151 -2.904725 0.965259 45
0.217467 -2.907314 0.965162 45
0.208159 -2.912054 0.965101 48
0.189428 -2.909297 0.964936 46
0.176782 -2.911681 0.964840 46
0.158127 -2.908731 0.964675 46
0.145849 -2.910589 0.964581 48
0.133254 -2.912758 0.964486 47
0.123651 -2.917528 0.964425 45
0.108095 -2.916903 0.964296 35
0.080713 -2.905449 0.964030 42
0.074120 -2.912700 0.964005 55
0.058995 -2.911450 0.963878 51
0.043242 -2.910834 0.963749 45
0.024925 -2.907047 0.963587 47
0.015410 -2.911366 0.963528 54
0.000074 -2.910148 0.963402 51
-0.011670 -2.910909 0.963312 49
-0.018614 -2.918184 0.963286 49
-0.034218 -2.917100 0.963159 48
-0.043389 -2.920821 0.963102 49
-0.047509 -2.930778 0.963111 49
-0.059889 -2.931966 0.963020 54
-0.072252 -2.933091 0.962928 51
-0.075777 -2.942301 0.962940 45
-0.085318 -2.946169 0.962883 43
-0.097673 -2.947147 0.962792 43
-0.110011 -2.948063 0.962702 44
-0.121996 -2.948588 0.962613 45
-0.131519 -2.952256 0.962557 46
-0.149021 -2.946903 0.962401 46
-0.155758 -2.953353 0.962379 46
-0.165268 -2.956875 0.962323 33
-0.180261 -2.954527 0.962200 48
-0.192823 -2.955337 0.962111 48
-0.205029 -2.955767 0.962022 49
-0.211458 -2.961709 0.962002 50
-0.220946 -2.964988 0.961947 51
-0.232785 -2.964957 0.961860 54
-0.242604 -2.968450 0.961805 51
-0.257421 -2.965634 0.961684 52
-0.266881 -2.968716 0.961630 51
-0.273693 -2.974754 0.961609 57
-0.285801 -2.974753 0.961523 57
-0.295262 -2.977708 0.961469 62
-0.306996 -2.977300 0.961384 54
-0.319050 -2.977129 0.961298 61
-0.328488 -2.979942 0.961245 61
-0.337924 -2.982712 0.961192 60
-0.347359 -2.985440 0.961139 51
-0.359356 -2.985056 0.961054 51
-0.373199 -2.980965 0.960938 50
-0.382597 -2.983544 0.960886 55
-0.391992 -2.986082 0.960834 57
-0.403908 -2.985473 0.960750 57
-0.413289 -2.987918 0.960698 57
-0.425167 -2.987200 0.960614 60
-0.429554 -2.995816 0.960629 61
-0.446372 -2.988726 0.960480 57
-0.453253 -2.994137 0.960461 62
-0.469976 -2.986896 0.960313 71
-0.479296 -2.989059 0.960263 72
-0.488612 -2.991181 0.960212 70
-0.497924 -2.993262 0.960162 70
-0.504476 -2.998232 0.960146 72
-0.518593 -2.993843 0.960031 71
-0.530271 -2.992587 0.959949 71
-0.537165 -2.997705 0.959932 75
-0.546445 -2.999575 0.959883 71
-0.555719 -3.001405 0.959834 71
-0.564989 -3.003193 0.959785 77
-0.576587 -3.001693 0.959704 74
-0.585835 -3.003393 0.959656 74
-0.592767 -3.008317 0.959639 74
-0.599715 -3.013217 0.959623 75
-0.613198 -3.008008 0.959512 77
-0.620145 -3.012836 0.959496 75
-0.629375 -3.014344 0.959448 75
-0.638947 -3.016050 0.959400 72
-0.645923 -3.020788 0.959384 77
-0.657026 -3.018628 0.959306 72
-0.664011 -3.023303 0.959291 71
-0.671011 -3.027955 0.959276 75
-0.680224 -3.029238 0.959229 74
-0.685061 -3.037184 0.959246 75
-0.698628 -3.031686 0.959135 74
-0.705306 -3.035990 0.959122 77
-0.716650 -3.033751 0.959043 72
-0.727962 -3.031457 0.958965 74
-0.732865 -3.039273 0.958983 74
-0.744149 -3.036893 0.958906 74
-0.755402 -3.034459 0.958828 71
-0.758260 -3.045611 0.958878 77
-0.769495 -3.043098 0.958801 81
-0.776564 -3.047381 0.958787 83
-0.789812 -3.041344 0.958679 81
-0.794478 -3.048784 0.958698 81
-0.801922 -3.053189 0.958684 83
-0.815081 -3.046999 0.958576 82
-0.823463 -3.047252 0.958533 82
-0.830901 -3.051551 0.958520 81
-0.837999 -3.055619 0.958507 81
-0.849053 -3.052702 0.958431 82
-0.854196 -3.060194 0.958450 73
-0.843444 -3.095429 0.958723 51
-0.870044 -3.064445 0.958395 77
-0.881389 -3.061558 0.958320 85
-0.890431 -3.061935 0.958276 86
-0.895668 -3.069317 0.958296 86
-0.903998 -3.069249 0.958254 85
-0.916780 -3.062461 0.958148 87
-0.920192 -3.073310 0.958200 87
-0.927365 -3.077067 0.958188 87
-0.934552 -3.080799 0.958177 88
-0.943577 -3.080945 0.958135 89
-0.951137 -3.084804 0.958123 91
-0.960150 -3.084880 0.958081 91
-0.963790 -3.095654 0.958133 91
-0.969268 -3.102844 0.958153 91
-0.974783 -3.110020 0.958174 91
-0.982084 -3.113586 0.958163 91
-0.987661 -3.120729 0.958184 91
-0.995000 -3.124250 0.958174 90
-0.998929 -3.134976 0.958226 89
-1.006317 -3.138458 0.958216 89
-1.013347 -3.141741 0.958206 89
-1.015738 -3.156070 0.958290 89
-1.021538 -3.163132 0.958311 88
-1.029025 -3.166534 0.958301 88
-1.033252 -3.177210 0.958354 88
-1.039164 -3.184228 0.958375 89
-1.044735 -3.191063 0.958397 88
-1.047525 -3.205384 0.958481 88
-1.051988 -3.216041 0.958534 87
-1.056899 -3.226856 0.958586 86
-1.067726 -3.222768 0.958515 87
-1.070395 -3.236913 0.958599 86
-1.075071 -3.247533 0.958652 84
-1.077898 -3.261685 0.958737 83
-1.084612 -3.268754 0.958758 83
-1.089477 -3.279356 0.958811 82
-1.091043 -3.297222 0.958927 78
-1.094587 -3.311542 0.959011 78
-1.096764 -3.329588 0.959126 73
-1.100500 -3.343918 0.959210 69
-1.104324 -3.358249 0.959294 54
-1.100736 -3.391126 0.959533 54
-1.099180 -3.420465 0.959740 52
-1.098788 -3.445936 0.959917 49
-1.100789 -3.467995 0.960062 45
-1.105241 -3.482397 0.960147 43
-1.108430 -3.500562 0.960262 35
-1.111735 -3.518734 0.960377 34
-1.113829 -3.540687 0.960522 31
-1.116066 -3.562655 0.960668 29
-1.115845 -3.592204 0.960876 27
-1.115365 -3.621630 0.961083 25
-1.114716 -3.655188 0.961321 22
-1.112575 -3.692427 0.961589 20
-1.114731 -3.714202 0.961736 20
-1.114734 -3.747865 0.961973 16
-1.118634 -3.770136 0.962118 4
-1.097946 -3.902042 0.963115 5
-1.100922 -3.928101 0.963291 6
-1.097061 -3.977128 0.963651 5
-1.081985 -4.064513 0.964317 3
-1.046962 -4.221042 0.965533 2
-1.010767 -4.385526 0.966809 31
4.169158 -22.282467 1.109152 13
3.539991 -20.353325 1.093617 11
3.472474 -20.372545 1.093575 7
3.212472 -19.701891 1.088069 3
4.545232 -24.798927 1.128236 8
4.120532 -23.563223 1.118238 7
3.257454 -20.933054 1.097072 48
3.522666 -22.529690 1.109290 4
2.942703 -20.539339 1.093463 76
3.195293 -21.857483 1.103638 36
3.109170 -21.821110 1.103177 59
3.020401 -21.756298 1.102506 36
2.810700 -21.197853 1.097966 24
2.700181 -21.059580 1.096717 10
2.966717 -22.533482 1.108075 20
2.343061 -20.136286 1.089202 22
2.375702 -20.579956 1.092525 22
2.382185 -20.934971 1.095148 9
2.740695 -22.928305 1.110520 11
2.790704 -23.539392 1.115119 12
2.587638 -22.960865 1.110470 21
2.387866 -22.377283 1.105793 15
2.894885 -25.274282 1.128123 14
3.317964 -27.853313 1.147955 7
3.336562 -28.448874 1.152400 10
3.398296 -29.837896 1.162810 3
1.775747 -22.368044 1.104707 6
1.912901 -23.602854 1.114113 50
1.830423 -24.107735 1.117764 2
1.489613 -22.517992 1.105419 4
2.452273 -29.035608 1.155443 3
1.626383 -24.913679 1.123529 19
1.413793 -24.593410 1.120875 7
1.515673 -25.940508 1.131106 6
1.427031 -25.940741 1.131012 3
0.925040 -23.449423 1.111754 19
0.846229 -23.455528 1.111724 11
0.459534 -20.936127 1.092378 1
0.395242 -20.988276 1.092715 28
0.132150 -19.307594 1.079809 8
0.068701 -19.347084 1.080057 34
-0.102642 -18.951378 1.076939 6
-0.051628 -20.035894 1.085178 4
0.144799 -22.737719 1.105753 15
-0.293926 -18.934425 1.076688 46
-0.359561 -18.872272 1.076180 22
0.009791 -23.762711 1.113443 7
-0.389534 -19.999245 1.084710 13
-0.407474 -20.598772 1.089251 63
-0.467134 -20.715870 1.090116 24
-0.499430 -21.211735 1.093870 11
-0.570766 -21.204880 1.093795 30
-0.754238 -20.547739 1.088753 1
-0.947691 -19.493519 1.080700 58
-1.014766 -19.509233 1.080811 19
-0.620452 -30.823225 1.166965 8
-1.211506 -19.446604 1.080328 1
-1.122074 -23.362110 1.110150 2
-1.289246 -25.540991 1.126775 8
-1.526824 -19.581432 1.081395 3
-1.514373 -23.094019 1.108172 6
-1.508081 -27.106606 1.138765 3
-1.598648 -27.140158 1.139050 3
-1.627560 -32.384876 1.179058 4
-1.760816 -29.550169 1.157493 3
-1.883007 -24.931019 1.122317 2
-2.051870 -25.859222 1.129483 11
-2.133684 -24.982929 1.122845 22
-2.212753 -24.938356 1.122553 18
-2.289799 -24.417524 1.118631 28
-2.370832 -24.376375 1.118373 25
-2.726031 -32.778774 1.182709 4
-2.530032 -21.132429 1.093761 1
-3.012833 -31.398232 1.172429 8
-2.938744 -22.438810 1.104097 4
-3.453125 -31.724733 1.175353 4
-3.078500 -22.239986 1.102733 2
-3.448979 -26.077404 1.132365 39
-3.251285 -21.481173 1.097162 5
-3.615369 -26.003094 1.132005 8
-3.701474 -25.981340 1.131951 8
-3.793807 -25.986906 1.132117 25
-3.877638 -25.936617 1.131851 34
-3.955857 -25.874428 1.131489 34
-4.039979 -25.835558 1.131317 31
-4.303886 -27.896639 1.147348 13
-4.398396 -27.896400 1.147492 6
-3.974163 -21.524574 1.098531 26
-4.033805 -21.398155 1.097673 3
-5.160674 -31.608225 1.176855 13
-4.178566 -21.407322 1.097991 5
-4.415612 -22.902420 1.109715 2
-5.336372 -30.305689 1.167321 3
-4.266953 -19.754784 1.085673 17
-4.552691 -21.545256 1.099729 34
-4.638022 -21.643343 1.100637 6
-4.879953 -22.926846 1.110791 2
-5.012500 -22.759611 1.109809 2
-5.068101 -22.606400 1.108777 22
-5.136209 -22.572359 1.108670 4
-5.873166 -27.000088 1.143527 6
-6.207679 -28.583857 1.156157 3
-5.217866 -21.617531 1.101696 2
-5.252264 -21.348871 1.099766 12
-6.372396 -27.751959 1.150316 10
-6.458380 -27.721531 1.150297 6
-5.199135 -19.776558 1.087889 3
-5.275566 -19.828325 1.088467 4
-6.636314 -26.110464 1.138744 3
-6.306203 -23.877195 1.121273 7
-7.852976 -31.502220 1.182043 9
-5.681581 -19.838676 1.089615 26
-5.906405 -20.642326 1.096193 58
-5.691181 -19.229078 1.085129 60
-5.747375 -19.164503 1.084813 13
-6.281263 -21.390326 1.102792 6
-6.184235 -20.589052 1.096599 15
-5.977757 -19.295547 1.086456 13
-6.873856 -23.042431 1.116726 4
-6.910011 -22.862242 1.115513 71
-6.166234 -19.241192 1.086633 43
-6.221663 -19.191473 1.086443 24
-9.009494 -30.743746 1.179872 43
-6.783205 -20.702507 1.099297 3
-6.632880 -19.520136 1.090182 9
-6.686850 -19.448761 1.089844 43
-6.746150 -19.412924 1.089787 8
-10.020243 -31.658682 1.189907 14
-9.552347 -29.465574 1.172389 3
-9.449849 -28.689745 1.166416 3
-8.852245 -25.797138 1.143397 9
-9.551910 -27.960674 1.161527 14
-9.639342 -27.911064 1.161493 3
-8.547017 -23.763693 1.127652 2
-9.935243 -27.879459 1.162380 3
-11.309772 -32.131927 1.198042 5
-9.102884 -24.458626 1.134746 2
-10.626748 -29.133251 1.174006 3
-9.107314 -23.896618 1.130764 2
-9.168741 -23.827133 1.130517 2
-11.152245 -29.786192 1.180740 8
-9.685773 -24.888277 1.140125 6
-10.384960 -26.751417 1.156154 3
-10.420164 -26.571512 1.155032 3
-12.118786 -31.351656 1.195777 5
-10.633004 -26.022692 1.152085 3
-9.960682 -23.817278 1.133765 5
-10.819324 -25.995756 1.152710 3
-12.478982 -30.385294 1.190578 4
-12.517617 -30.171701 1.189267 4
-11.951533 -28.010944 1.171755 45
-10.594507 -23.838308 1.136760 2
-13.335361 -30.185644 1.193132 4
-12.450255 -27.632799 1.171485 3
-12.635783 -27.559195 1.171878 15
-11.920070 -25.281406 1.152941 3
-12.714625 -26.965750 1.168248 10
-12.780595 -26.882080 1.168013 21
-12.028300 -24.612246 1.148978 9
-13.593495 -28.032185 1.179840 23
-11.590234 -22.941185 1.135574 5
-12.227430 -24.177216 1.147104 18
-12.340774 -24.214439 1.147945 15
-14.119783 -27.215134 1.177202 3
-15.783227 -30.539608 1.207987 5
-15.875952 -30.469604 1.208037 5
-12.796150 -23.727289 1.147205 3
-12.816521 -23.566849 1.146277 2
-13.185631 -24.139355 1.152041 3
-14.591740 -26.577515 1.175678 7
-13.425780 -24.008213 1.152554 3
-13.047819 -22.873297 1.143129 2
-13.742213 -24.036951 1.154560 21
-13.829093 -24.028406 1.155012 3
-12.767634 -21.591560 1.133366 2
-16.191992 -27.916336 1.193493 4
-18.046379 -31.175234 1.225013 6
-18.162884 -31.140184 1.225494 6
-18.281246 -31.108208 1.226010 6
-17.943317 -29.998537 1.217064 5
-18.345116 -30.484856 1.222539 5
-18.430290 -30.396204 1.222521 5
-18.469858 -30.227180 1.221730 5
-18.585543 -30.193853 1.222250 5
-17.287395 -27.489450 1.197596 4
-17.341455 -27.370249 1.197218 4
-17.042170 -26.660284 1.191018 4
-17.157648 -26.438620 1.190431 32
-16.414650 -24.442921 1.173700 3
-19.121090 -28.624388 1.216305 5
-18.652479 -27.455044 1.206319 4
-18.922579 -27.677034 1.209434 14
-20.509283 -29.952776 1.233398 6
-16.429539 -23.403028 1.167732 6
-18.130909 -25.851433 1.193484 4
-18.114607 -25.647190 1.192200 15
-17.438406 -24.258078 1.179588 3
-16.985189 -23.237806 1.170641 3
-17.367550 -23.456707 1.174573 13
-17.728035 -23.820477 1.179168 7
-19.916716 -26.800350 1.211378 14
-19.997416 -26.724546 1.211538 4
-21.557966 -28.746885 1.233946 12
-18.645462 -24.452541 1.189265 3
-22.160742 -28.975281 1.239584 12
-18.889275 -24.267529 1.190042 56
-23.196360 -29.982944 1.252658 13
-23.377708 -30.028414 1.254247 21
-16.916382 -21.106171 1.158441 2
-21.179237 -26.659012 1.219871 5
-21.215658 -26.521627 1.219417 5
-20.859943 -25.520515 1.211468 27
-20.913485 -25.413439 1.211321 9
-19.060995 -22.866312 1.183929 7
-19.045649 -22.690304 1.182905 3
-19.064056 -22.558561 1.182373 7
-19.031857 -22.364428 1.181133 3
-18.454779 -21.494232 1.172217 3
-24.676718 -29.045193 1.259060 7
-21.401892 -24.650167 1.211241 4
-21.963459 -25.161798 1.218236 28
-20.222534 -22.900532 1.193201 11
-22.347418 -25.279266 1.221877 53
-23.353409 -26.120667 1.234066 5
-23.805983 -26.481108 1.239469 5
-24.200438 -26.398880 1.242287 11
-20.608444 -22.143377 1.192671 3
-22.990057 -24.505894 1.223409 9
-21.058685 -22.203075 1.196671 3
-25.755289 -27.247751 1.259111 13
-21.553877 -22.450666 1.201944 3
-25.089876 -26.149321 1.248504 6
-22.884695 -23.590723 1.218320 8
-21.390009 -21.829187 1.197740 3
-20.666710 -20.774630 1.186881 16
-20.705219 -20.677475 1.186779 30
-25.707909 -25.761333 1.252015 12
-25.802172 -25.704006 1.252574 6
-22.152399 -21.766298 1.203980 30
-21.207232 -20.648819 1.190975 10
-23.698416 -23.040394 1.222864 4
-23.800501 -22.990072 1.223539 4
