# .PCD v.7 - Point Cloud Data file format
VERSION .7
FIELDS x y z intensity
SIZE 4 4 4 1
TYPE F F F U
COUNT 1 1 1 1
WIDTH 1490
HEIGHT 1
VIEWPOINT 0 0 0 1 0 0 0
POINTS 1490
DATA ascii
9.238365 -9.659597 1.064459 50
9.170190 -9.669387 1.063897 48
9.114700 -9.688645 1.063476 48
9.049775 -9.700210 1.062951 49
8.994317 -9.718873 1.062533 55
8.943512 -9.737837 1.062158 52
8.891178 -9.758462 1.061776 44
8.832611 -9.773799 1.061326 46
8.780275 -9.793884 1.060947 44
8.718651 -9.806104 1.060465 52
8.678664 -9.835825 1.060226 51
8.626299 -9.855146 1.059850 50
8.580062 -9.879345 1.059545 53
8.533787 -9.903329 1.059240 52
8.493569 -9.932276 1.059005 37
8.409983 -9.980799 1.058481 2
8.357637 -10.126291 1.058577 13
8.330380 -10.163239 1.058489 3
8.316319 -10.215211 1.058567 1
8.290113 -10.256509 1.058508 1
8.317157 -10.346016 1.059066 1
8.310771 -10.471871 1.059496 58
8.298290 -10.526796 1.059608 47
8.311916 -10.606259 1.060027 40
8.345553 -10.705068 1.060683 38
8.361163 -10.787766 1.061135 34
8.379221 -10.873443 1.061620 16
8.419936 -10.981476 1.062375 24
8.465786 -11.095462 1.063197 20
8.518489 -11.213620 1.064092 6
51.082653 -53.186687 1.569224 41
52.067917 -54.545906 1.582529 42
51.317051 -54.172340 1.575156 41
50.951347 -54.159019 1.572281 41
50.495457 -54.070583 1.568404 41
50.377251 -54.321972 1.568575 41
46.855556 -53.948093 1.540488 39
46.692139 -54.141895 1.540168 39
46.494179 -54.279408 1.539348 39
46.947716 -55.174896 1.546784 40
45.737808 -54.208309 1.533510 38
45.836716 -54.656528 1.536315 39
45.649208 -54.823181 1.535745 39
3.567018 -7.352618 1.009823 0
3.543634 -7.415508 1.009955 20
3.492575 -7.401472 1.009526 28
3.459872 -7.408443 1.009329 34
3.422012 -7.409164 1.009066 35
3.389368 -7.415816 1.008870 35
3.355294 -7.418316 1.008645 36
3.321584 -7.425594 1.008448 38
3.286467 -7.428703 1.008221 40
3.253631 -7.429811 1.008000 44
3.220007 -7.436613 1.007805 46
3.183891 -7.440141 1.007576 41
3.057975 -7.417874 1.006614 0
2.996098 -7.385148 1.006033 0
2.942994 -7.360671 1.005554 0
2.909932 -7.366091 1.005363 0
2.868259 -7.357814 1.005046 0
2.881181 -7.418445 1.005447 0
2.881841 -7.468182 1.005713 0
2.866514 -7.494776 1.005754 0
2.847409 -7.514083 1.005733 0
2.810424 -7.511682 1.005483 0
2.786501 -7.524376 1.005398 0
2.760271 -7.538645 1.005307 0
2.725751 -7.539030 1.005091 0
2.701771 -7.551418 1.005007 0
2.681270 -7.571045 1.004986 0
2.649119 -7.574296 1.004803 0
2.642332 -7.613378 1.004976 0
2.589503 -7.586921 1.004505 1
2.568833 -7.606187 1.004485 5
2.535623 -7.604832 1.004275 3
2.502432 -7.608202 1.004092 5
2.470427 -7.610637 1.003913 7
2.447395 -7.626201 1.003863 9
2.421020 -7.634262 1.003751 11
2.389061 -7.636321 1.003573 14
2.363741 -7.648260 1.003492 16
2.330796 -7.645953 1.003286 17
2.317510 -7.673700 1.003367 19
2.277940 -7.665936 1.003093 23
2.254716 -7.680828 1.003046 24
2.222875 -7.682126 1.002871 24
2.193207 -7.686668 1.002728 24
2.168959 -7.697143 1.002653 24
2.140247 -7.705577 1.002541 24
2.114792 -7.716580 1.002463 25
2.083064 -7.717242 1.002291 25
2.055522 -7.724608 1.002183 25
2.030037 -7.735294 1.002107 25
2.004526 -7.745883 1.002031 25
1.982201 -7.759126 1.001989 25
1.952586 -7.762633 1.001851 25
1.927016 -7.772931 1.001777 24
1.905419 -7.790062 1.001766 24
1.875805 -7.793238 1.001629 24
1.850165 -7.803247 1.001555 25
1.824502 -7.813159 1.001482 24
1.800768 -7.826468 1.001441 24
1.773111 -7.832695 1.001338 24
1.747382 -7.842319 1.001266 23
1.722825 -7.851195 1.001197 23
1.698250 -7.859984 1.001128 23
1.669378 -7.866442 1.001024 23
1.645458 -7.879209 1.000985 23
1.619629 -7.888353 1.000915 23
1.598687 -7.903863 1.000911 22
1.570955 -7.909280 1.000810 21
1.541402 -7.911030 1.000679 20
1.517327 -7.923350 1.000642 19
1.491406 -7.932015 1.000574 19
1.463676 -7.937007 1.000476 18
1.437733 -7.945472 1.000409 16
1.413539 -7.957430 1.000373 15
1.382289 -7.954923 1.000214 12
1.358062 -7.966686 1.000179 11
1.330338 -7.971151 1.000083 10
1.302121 -7.971318 0.999957 9
1.274430 -7.975564 0.999861 9
1.251822 -7.990576 0.999859 9
1.222437 -7.990992 0.999733 7
1.198085 -8.002198 0.999701 8
1.168735 -8.002392 0.999576 7
1.141063 -8.006114 0.999483 8
1.116659 -8.017035 0.999451 8
1.093440 -8.027331 0.999422 8
1.062551 -8.023428 0.999268 10
1.034908 -8.026734 0.999176 11
1.008855 -8.033609 0.999115 13
0.984356 -8.044069 0.999086 14
0.961371 -8.058130 0.999088 14
0.939864 -8.075809 0.999122 15
0.907590 -8.067540 0.998939 16
0.884204 -8.077144 0.998913 17
0.858320 -8.087667 0.998884 17
0.839330 -8.108246 0.998951 17
0.810385 -8.111167 0.998861 17
0.786633 -8.116239 0.998807 17
0.764744 -8.133378 0.998843 17
0.739898 -8.142985 0.998817 17
0.717865 -8.159983 0.998854 17
0.692763 -8.165213 0.998799 16
0.666558 -8.175035 0.998774 16
0.642950 -8.188051 0.998780 15
0.620655 -8.204748 0.998818 14
0.598276 -8.221377 0.998856 14
0.575727 -8.233721 0.998865 14
0.551934 -8.250656 0.998902 14
0.525361 -8.255743 0.998849 15
0.501395 -8.268295 0.998858 16
0.478662 -8.284554 0.998898 17
0.454569 -8.296951 0.998907 17
0.431691 -8.308846 0.998918 16
0.412497 -8.336283 0.999051 14
0.394381 -8.367477 0.999215 9
0.383432 -8.421478 0.999562 9
0.367285 -8.460245 0.999788 12
0.348497 -8.491358 0.999952 13
0.335577 -8.537302 1.000240 12
0.325751 -8.598944 1.000649 10
0.321324 -8.679747 1.001212 19
0.314068 -8.752947 1.001714 13
0.315395 -8.856876 1.002460 5
4.384747 -22.911255 1.114245 12
3.906628 -21.538115 1.103104 10
3.804367 -21.450874 1.102204 93
3.760009 -21.567295 1.102924 40
3.703972 -21.616127 1.103130 40
3.492906 -21.126591 1.099059 60
3.451827 -21.253782 1.099874 16
3.437660 -21.485306 1.101513 65
3.360111 -21.480946 1.101292 25
3.283659 -21.480167 1.101102 21
3.194451 -21.428711 1.100517 16
2.838075 -20.309961 1.091551 35
3.160277 -21.903267 1.103892 40
3.036270 -21.711285 1.102213 55
2.937773 -21.603407 1.101207 46
4.530158 -28.666424 1.156303 15
4.149168 -27.465719 1.146701 20
3.838212 -26.531746 1.139205 6
2.954812 -23.024397 1.111652 7
2.338188 -20.604698 1.092632 5
2.267247 -20.607998 1.092516 22
2.185445 -20.560194 1.092006 20
2.502893 -22.406469 1.106221 36
2.429027 -22.425974 1.106228 20
2.359062 -22.464821 1.106388 69
2.640480 -24.264635 1.120202 55
2.587783 -24.425924 1.121305 26
2.665502 -25.270573 1.127699 5
2.037736 -22.389250 1.105276 54
1.929592 -22.222301 1.103861 38
1.870566 -22.749331 1.107690 2
2.102783 -24.527973 1.121289 2
1.939894 -24.563932 1.121323 13
1.866093 -24.628857 1.121707 2
1.440786 -22.501556 1.105231 13
1.969755 -26.370319 1.134871 15
1.297395 -22.568544 1.105549 4
1.861636 -26.827938 1.138166 9
1.341422 -23.896593 1.115561 25
1.922889 -28.549097 1.151154 17
1.830078 -28.586393 1.151333 7
1.827743 -29.293247 1.156645 11
0.964195 -23.504801 1.112210 7
0.884676 -23.507076 1.112149 7
1.089980 -25.827579 1.129827 8
0.994720 -25.766737 1.129283 48
0.913111 -25.780504 1.129317 11
1.144116 -28.572386 1.150584 3
1.067708 -28.762098 1.151958 21
0.654526 -25.817606 1.129397 8
0.619436 -26.324047 1.133203 33
-0.280267 -19.487566 1.080886 30
-0.351522 -19.417761 1.080319 8
0.207922 -27.760227 1.143857 3
-0.491474 -20.942392 1.091827 73
-0.568236 -20.895922 1.091448 40
-0.635161 -20.936714 1.091739 15
-0.860666 -18.542492 1.073482 59
-0.924046 -18.510429 1.073225 64
-0.939698 -19.296741 1.079204 42
-0.997119 -19.299982 1.079221 25
-1.032838 -19.914717 1.083896 58
-1.097539 -20.014023 1.084649 63
-1.218367 -18.778292 1.075238 37
-1.280034 -18.788906 1.075320 61
-1.340892 -18.739233 1.074946 33
-1.406375 -18.725538 1.074849 15
-1.353767 -22.289568 1.102004 21
-1.431512 -22.299791 1.102097 23
-1.565224 -19.742409 1.082631 50
-1.629630 -19.791801 1.083026 8
-1.667815 -21.476709 1.095886 5
-1.745441 -20.989798 1.092200 1
-1.870085 -22.890978 1.106752 60
-2.025426 -25.443275 1.126296 22
-2.086387 -20.083250 1.085447 8
-2.195924 -25.442503 1.126388 8
-2.210210 -19.278257 1.079384 42
-2.270397 -19.253464 1.079236 15
-2.453418 -21.806448 1.098838 4
-2.528297 -21.896708 1.099586 22
-2.835785 -26.901752 1.138001 3
-2.862581 -22.978420 1.108131 27
-3.170799 -26.320183 1.133899 6
-3.258308 -26.299961 1.133840 9
-3.185457 -23.271791 1.110708 19
-3.942576 -33.340725 1.188214 5
-3.556199 -25.485836 1.127997 2
-4.131465 -32.779621 1.184186 5
-4.016050 -29.568060 1.159626 3
-4.137567 -29.856030 1.161980 11
-3.670992 -22.542593 1.105787 36
-3.740607 -22.468855 1.105328 91
-3.814451 -22.450691 1.105300 55
-3.964745 -22.445467 1.105493 6
-3.877581 -20.774385 1.092691 21
-4.045097 -21.051277 1.095066 33
-4.109542 -20.992304 1.094732 22
-4.170128 -20.901318 1.094151 30
-4.272208 -21.183775 1.096470 11
-4.349965 -21.239292 1.097032 15
-4.423855 -21.258766 1.097319 7
-4.487631 -21.194603 1.096958 11
-4.550989 -21.130243 1.096598 5
-4.480786 -20.070580 1.088475 5
-4.445440 -19.300608 1.082607 24
-4.599024 -19.945805 1.087780 8
-4.564627 -19.223679 1.082280 53
-4.632154 -19.242327 1.082566 52
-4.702186 -19.276552 1.082978 34
-5.065899 -20.803240 1.095246 3
-4.842424 -18.947517 1.080833 19
-4.913305 -18.988815 1.081310 12
-4.976007 -18.978537 1.081384 13
-7.120732 -30.668121 1.173925 8
-5.143734 -18.832155 1.080709 1
-7.074728 -28.644899 1.158741 3
-7.813747 -32.087753 1.186284 4
-5.609931 -19.575535 1.087468 53
-5.703733 -19.389772 1.086354 17
-5.767026 -19.372814 1.086408 58
-5.816422 -19.305405 1.086053 16
-6.018126 -19.925116 1.091214 36
-6.114791 -19.736433 1.090113 21
-6.967529 -22.886150 1.115866 2
-6.721724 -21.473417 1.104738 2
-9.462636 -32.864250 1.196835 5
-8.180136 -26.586845 1.146813 57
-8.790832 -28.689991 1.164161 11
-8.927016 -28.825249 1.165599 11
-7.271943 -21.871187 1.109436 14
-10.547333 -34.335979 1.211146 12
-7.453010 -21.985790 1.110887 2
-9.259714 -28.537588 1.164646 30
-7.852843 -22.910358 1.118980 19
-7.724074 -22.133135 1.112906 20
-7.798795 -22.116882 1.113057 11
-8.386339 -23.925625 1.128222 5
-7.677685 -21.112558 1.105384 22
-8.512641 -23.178003 1.123326 5
-8.641303 -23.327646 1.124888 2
-8.449960 -22.144556 1.115708 18
-8.636456 -22.250204 1.117197 7
-8.818779 -21.809614 1.114824 2
-10.381056 -26.260046 1.152677 3
-8.653625 -20.599689 1.105625 16
-8.715427 -20.557430 1.105594 2
-11.992157 -29.763762 1.184111 12
-13.624128 -34.104210 1.221510 6
-10.478342 -24.622616 1.141653 12
-11.588776 -27.423878 1.166052 10
-10.550549 -24.311275 1.139820 2
-10.581698 -24.146286 1.138823 8
-11.921919 -27.488535 1.168016 3
-9.577214 -20.801769 1.111165 2
-9.719849 -20.965439 1.112957 6
-14.498126 -32.332790 1.213340 5
-10.371493 -21.783133 1.121657 2
-12.272401 -26.243572 1.161183 3
-14.190877 -30.380634 1.198618 4
-10.192946 -20.559120 1.112508 2
-10.215870 -20.423586 1.111713 18
-10.445995 -20.594915 1.114033 31
-10.519062 -20.576315 1.114286 42
-10.572780 -20.513506 1.114147 8
-14.917334 -30.116486 1.200571 40
-10.941137 -20.962637 1.119056 11
-10.992553 -20.891220 1.118857 4
-11.118197 -20.992279 1.120194 40
-11.171117 -20.924002 1.120030 22
-15.249434 -29.513044 1.198371 47
-17.464537 -33.678383 1.237663 7
-14.774526 -27.755878 1.184315 4
-14.655854 -27.271557 1.180516 3
-16.031597 -29.867365 1.204995 5
-14.884622 -27.275925 1.181829 3
-14.972640 -27.223619 1.181992 3
-15.047940 -27.145971 1.181924 3
-15.130054 -27.082405 1.181989 3
-15.215509 -27.025717 1.182122 3
-15.214975 -26.801453 1.180694 3
-15.319580 -26.783590 1.181193 3
-15.560546 -26.806803 1.182762 7
-17.149092 -29.609211 1.209829 5
-15.018685 -25.382801 1.170594 3
-18.298914 -31.266861 1.227106 6
-18.306995 -31.030542 1.225684 6
-16.220610 -26.974501 1.187790 4
-16.050001 -26.452053 1.183511 3
-16.463734 -26.986408 1.189359 12
-16.692675 -26.770086 1.189463 8
-31.444225 -52.186783 1.437268 28
-16.412914 -25.865068 1.182193 3
-16.535591 -25.886200 1.183104 11
-19.278429 -30.110357 1.226161 5
-19.505194 -30.259209 1.228523 6
-19.421154 -29.889709 1.225771 11
-16.379114 -24.661606 1.174760 21
-16.474091 -24.631731 1.175209 7
-16.455507 -24.417728 1.173823 7
-21.057201 -31.626602 1.246849 14
-21.331873 -31.827549 1.249865 7
-19.218082 -28.247427 1.214749 5
-19.461338 -28.419905 1.217397 5
-22.974009 -33.679802 1.271740 8
-21.668837 -31.413593 1.249748 7
-20.707064 -29.696424 1.233274 6
-22.151194 -31.225851 1.252011 7
-22.216339 -31.095573 1.251730 7
-19.728334 -27.196392 1.212251 4
-20.450855 -28.059452 1.222203 32
-22.541489 -30.898703 1.252923 28
-23.673471 -32.090096 1.267639 7
-20.624107 -27.521049 1.220450 5
-21.569347 -28.660477 1.233553 11
-21.628788 -28.338032 1.232225 5
-23.386580 -30.136103 1.254890 28
-23.466667 -30.032333 1.254930 21
-21.507351 -27.192747 1.225164 21
-21.637341 -26.799305 1.224064 10
-23.266033 -28.736168 1.246571 13
-20.816444 -25.367163 1.210338 17
-20.918512 -25.323425 1.210893 4
-26.585733 -32.377323 1.290874 8
-27.983067 -33.454224 1.307212 9
-28.223564 -33.532894 1.309490 9
-23.386271 -27.346861 1.240383 6
-23.566681 -27.380402 1.241973 6
-22.843384 -26.136505 1.230057 5
-27.360792 -31.363874 1.291856 8
-28.187763 -32.131992 1.302243 9
-28.037558 -31.735281 1.299101 9
-24.243824 -27.075064 1.245881 6
-24.026480 -26.279974 1.240298 5
-30.374884 -33.331936 1.325765 10
-28.993034 -31.542807 1.305961 9
-26.431232 -28.452454 1.270321 7
-30.482000 -32.776947 1.324045 10
-26.917048 -28.607742 1.275074 7
-24.378380 -25.623772 1.240137 5
-28.451740 -29.899044 1.293837 17
-26.938789 -28.057173 1.272732 36
-29.077841 -29.968075 1.299429 8
-25.029093 -25.297720 1.244161 40
-26.368172 -26.352840 1.260277 6
-25.160990 -24.938612 1.243716 28
-25.227579 -24.840437 1.243865 28
-29.339056 -28.668051 1.295983 25
-28.316738 -27.439798 1.281846 22
-29.573013 -28.508423 1.297352 16
-29.638433 -28.391504 1.297437 16
-27.141512 -25.745468 1.264424 13
-27.882963 -26.297531 1.273259 7
-28.012571 -26.256123 1.274238 7
-35.768391 -33.541039 1.372918 11
-28.360140 -26.229679 1.277227 7
-28.856916 -26.525885 1.282864 22
-36.194366 -33.267967 1.375634 11
-35.731583 -32.609795 1.368860 11
-35.932438 -32.576298 1.370544 11
-36.186363 -32.590626 1.372901 11
-31.096180 -27.702343 1.307718 8
-37.455780 -33.307236 1.387219 12
-35.765087 -31.563433 1.365116 11
-36.061317 -31.605160 1.367990 11
-35.865234 -31.025795 1.364020 22
-42.738487 -36.862686 1.449145 20
-37.224529 -31.793913 1.379436 11
-37.138363 -31.503019 1.377579 23
-38.292488 -32.271858 1.391115 24
-40.948627 -34.311268 1.423247 15
-39.198273 -32.591118 1.400738 12
-44.838108 -37.121311 1.469695 23
-44.344162 -36.465576 1.462756 21
-38.773079 -31.573601 1.393192 12
-42.280323 -34.274319 1.435687 16
-41.490158 -32.921146 1.423616 28
-41.601265 -32.783108 1.424229 14
-14.409184 -10.902090 1.091504 1
-14.363455 -10.798852 1.090730 1
-14.454136 -10.800102 1.091611 1
-14.373168 -10.663415 1.090394 1
-14.605067 -10.358233 1.091741 1
-14.534473 -10.238344 1.090695 1
-16.229086 -11.185347 1.110225 1
-15.201138 -10.171905 1.097178 1
-15.239591 -10.130303 1.097458 1
-15.279634 -10.093119 1.097768 1
-14.589549 -9.557323 1.089406 1
-14.755319 -9.604891 1.091211 1
-14.801836 -9.571423 1.091603 1
-15.074969 -9.688022 1.094677 1
-15.161949 -9.679703 1.095548 1
-15.512068 -9.845995 1.099534 1
-15.707252 -9.905382 1.101679 1
-16.027477 -10.043579 1.105296 1
-16.299850 -10.144868 1.108339 1
-16.618855 -10.276779 1.111934 1
-16.637527 -10.217182 1.111997 1
-14.733313 -7.330479 1.086780 1
-14.909631 -7.361827 1.088748 1
-14.748284 -7.227423 1.086829 1
-15.094072 -7.339347 1.090751 1
-15.101616 -7.286699 1.090780 1
-15.094494 -7.227221 1.090643 1
-15.145041 -7.195080 1.091171 1
-14.843787 -6.998926 1.087656 1
-14.890001 -6.965783 1.088139 1
-14.816092 -6.877524 1.087244 1
-14.876537 -6.850901 1.087895 1
-14.947902 -6.828839 1.088673 1
-14.876720 -6.742996 1.087816 1
-14.827064 -6.667390 1.087209 1
-14.915373 -6.655215 1.088189 1
-14.843173 -6.570429 1.087327 1
-14.954394 -6.564912 1.088572 1
-14.881605 -6.480632 1.087708 1
-15.084985 -6.513044 1.090012 1
-15.011743 -6.428953 1.089147 1
-15.215477 -6.459622 1.091459 1
-15.049183 -6.337983 1.089532 1
-15.152977 -6.326821 1.090702 1
-15.271708 -6.320934 1.092045 1
-15.197139 -6.237809 1.091176 1
-15.353085 -6.245644 1.092949 1
-15.326484 -6.181665 1.092633 1
-15.673080 -6.261097 1.096593 1
-29.984112 -11.523258 1.260468 56
-30.005602 -11.419942 1.260707 52
-30.049238 -11.324880 1.261205 52
-30.096310 -11.231006 1.261746 48
-30.169416 -11.146399 1.262590 48
-30.276194 -11.073467 1.263823 20
-99.099915 -34.781731 2.052119 45
-98.782173 -34.293037 2.048559 45
-98.770790 -33.930706 2.048518 45
-101.074623 -34.309597 2.075025 45
-52.489033 -17.788677 1.518479 18
-52.536755 -17.618662 1.519094 18
-62.071075 -20.518145 1.628439 32
-90.048630 -29.259886 1.949223 56
-102.515709 -32.871937 2.092307 45
-102.795898 -32.554668 2.095729 45
-102.837143 -32.220119 2.096395 45
-102.792412 -31.821188 2.096111 45
-62.966160 -17.552919 1.640951 32
-62.822563 -17.286272 1.639525 32
-62.803749 -17.076731 1.639518 32
-62.897018 -16.862831 1.640844 32
-62.928692 -16.644203 1.641459 32
-13.672286 -3.969790 1.074430 1
-13.449636 -3.871041 1.071916 0
-13.276941 -3.786271 1.069977 0
-13.014375 -3.681137 1.067002 0
-13.023595 -3.642673 1.067162 0
-12.982054 -3.592319 1.066737 0
-12.791758 -3.510026 1.064593 0
-12.671666 -3.443114 1.063262 0
-12.601987 -3.388408 1.062514 0
-12.446113 -3.315334 1.060770 0
-12.336774 -3.253514 1.059564 0
-12.250607 -3.197472 1.058626 0
-12.137137 -3.134567 1.057375 0
-12.093518 -3.088729 1.056931 0
-11.939563 -3.022853 1.055206 0
-11.832705 -2.965631 1.054029 0
-11.772356 -2.920036 1.053389 0
-11.684957 -2.866230 1.052442 0
-11.628435 -2.820648 1.051850 0
-11.552044 -2.771876 1.051028 0
-11.475430 -2.723659 1.050204 0
-11.382842 -2.673222 1.049194 0
-11.329432 -2.630255 1.048640 0
-11.248231 -2.583016 1.047762 0
-11.123407 -2.529183 1.046376 0
-11.073340 -2.488381 1.045862 0
-11.027052 -2.448573 1.045392 0
-10.928970 -2.402716 1.044314 0
-10.886284 -2.364361 1.043887 0
-10.815742 -2.322228 1.043135 0
-10.756891 -2.282317 1.042519 0
-10.725596 -2.246731 1.042226 0
-10.658495 -2.206491 1.041515 0
-10.630866 -2.172026 1.041266 0
-10.591397 -2.134724 1.040883 0
-10.579362 -2.102724 1.040819 0
-10.579118 -2.072283 1.040894 0
-10.530928 -2.037669 1.040403 0
-10.510588 -2.005125 1.040243 0
-10.490125 -1.972735 1.040083 0
-10.493397 -1.943094 1.040204 0
-10.488610 -1.912604 1.040231 0
-10.479735 -1.881755 1.040210 0
-10.478564 -1.853239 1.040277 0
-10.469475 -1.822506 1.040256 0
-10.476340 -1.791822 1.040430 0
-10.455074 -1.760136 1.040266 0
-10.457605 -1.730618 1.040386 0
-10.460032 -1.701091 1.040506 0
-10.454268 -1.672418 1.040525 0
-10.468459 -1.643784 1.040787 0
-10.470584 -1.614220 1.040907 0
-10.484577 -1.585447 1.041169 0
-10.466539 -1.554566 1.041051 0
-10.488316 -1.526200 1.041409 0
-10.509996 -1.497688 1.041768 0
-10.511610 -1.467980 1.041888 0
-10.525105 -1.438855 1.042151 0
-10.530510 -1.409276 1.042320 0
-10.555792 -1.380507 1.042728 0
-10.545007 -1.350177 1.042704 0
-10.578084 -1.321471 1.043209 0
-10.583080 -1.291653 1.043378 0
-10.591928 -1.263415 1.043589 0
-10.624675 -1.235722 1.044090 0
-10.645400 -1.204536 1.044459 0
-10.657987 -1.174572 1.044725 0
-10.658472 -1.144349 1.044847 0
-10.690831 -1.115989 1.045350 0
-10.715110 -1.085833 1.045763 0
-10.727283 -1.055460 1.046031 0
-10.739352 -1.025003 1.046300 0
3.349130 0.109773 1.037165 1
3.325438 0.086334 1.036595 1
3.364536 0.074937 1.037157 3
3.341064 0.049770 1.036579 3
3.340660 0.031280 1.036435 3
3.387492 0.020978 1.037138 7
3.375199 0.000124 1.036781 8
3.382485 -0.016974 1.036778 8
3.393996 -0.035271 1.036838 10
3.401338 -0.053401 1.036832 11
3.432256 -0.067425 1.037248 14
3.423724 -0.088424 1.036959 14
3.438776 -0.105372 1.037092 13
3.445883 -0.123713 1.037085 14
3.472671 -0.138913 1.037428 13
3.479666 -0.157399 1.037420 15
3.506214 -0.171922 1.037767 16
3.528916 -0.188172 1.038039 17
3.535744 -0.206895 1.038030 16
3.554247 -0.222984 1.038235 17
3.580898 -0.240025 1.038571 15
3.619253 -0.254653 1.039121 12
3.637750 -0.272169 1.039320 10
3.687925 -0.285708 1.040077 6
43.345699 4.199425 1.733953 12
43.303146 4.042365 1.732298 24
43.313457 3.875430 1.731482 24
43.329453 3.725141 1.730871 36
43.354507 3.559775 1.730333 61
43.382172 3.402596 1.729897 12
43.453091 3.249395 1.730223 12
43.543407 3.097553 1.730892 24
43.600651 2.950321 1.731039 12
79.822128 5.528815 2.356231 63
74.465424 4.040128 2.257908 57
74.175285 3.753926 2.251536 57
72.933891 3.413591 2.228830 55
47.529373 1.563641 1.790154 14
46.699219 1.349915 1.775071 14
45.816246 1.139670 1.759121 13
45.399586 0.963373 1.751232 13
45.194103 0.798023 1.746976 13
45.048576 0.619745 1.743683 13
45.029781 0.462963 1.742645 26
45.026917 0.290361 1.741814 26
45.067200 0.127078 1.741766 13
45.106915 -0.036470 1.741717 13
45.153912 -0.191913 1.741836 13
45.212513 -0.355725 1.742125 13
45.286453 -0.511514 1.742718 13
45.387993 -0.684120 1.743717 13
50.670647 -3.019332 1.824424 19
37.681030 -5.986268 1.597319 8
37.738831 -6.134448 1.598020 9
123.894913 -28.500839 3.012980 63
115.246689 -31.327938 2.870728 63
109.236397 -33.113026 2.773722 63
109.014214 -33.448074 2.770399 63
107.622643 -35.528011 2.750072 63
97.498978 -37.753414 2.591741 63
97.256416 -39.246841 2.591108 63
90.332710 -40.695400 2.486507 63
90.322098 -41.073170 2.487439 63
90.701965 -41.623039 2.494946 63
89.206268 -41.347942 2.471004 63
89.156265 -41.706814 2.471335 63
90.333717 -42.600079 2.492264 63
88.869896 -42.303860 2.468809 63
89.314178 -42.910126 2.477591 63
89.178421 -43.214378 2.476511 63
75.309479 -39.789539 2.253464 63
75.832703 -41.404358 2.267651 63
76.088165 -41.883488 2.273413 63
74.699471 -41.841362 2.252528 63
75.793709 -42.755360 2.272650 63
28.618822 -18.408926 1.468773 6
28.492422 -18.485250 1.467276 6
27.969442 -18.597982 1.460186 12
11.616413 -9.070447 1.176653 20
11.531853 -9.087529 1.175512 35
11.452190 -9.103812 1.174441 40
11.370571 -9.115233 1.173321 38
11.303264 -9.141260 1.172484 33
10.955772 -9.110270 1.167345 1
11.005312 -9.204439 1.168547 1
10.983422 -9.254070 1.168498 1
10.838590 -9.228351 1.166304 1
10.834840 -9.286037 1.166563 1
10.667809 -9.300990 1.164287 9
10.615449 -9.329757 1.163710 15
10.523054 -9.331718 1.162424 16
10.462591 -9.357546 1.161724 19
10.393618 -9.374170 1.160855 21
10.326141 -9.388265 1.159996 20
10.260546 -9.406401 1.159190 20
10.201561 -9.428720 1.158503 19
10.126143 -9.439324 1.157523 20
10.057356 -9.454091 1.156662 20
9.991882 -9.470784 1.155861 20
9.936224 -9.494068 1.155238 20
9.880548 -9.517068 1.154617 22
9.810119 -9.526031 1.153710 25
9.738275 -9.536669 1.152797 27
9.689103 -9.563430 1.152297 30
9.627006 -9.580467 1.151563 30
9.571356 -9.601939 1.150947 32
9.509291 -9.618340 1.150216 33
9.444057 -9.632009 1.149427 35
9.378867 -9.645326 1.148640 37
9.326441 -9.668002 1.148088 37
9.273995 -9.690417 1.147537 38
9.226211 -9.713062 1.147052 37
9.165782 -9.725649 1.146335 37
9.103873 -9.739869 1.145612 37
9.048275 -9.758726 1.145007 38
8.995810 -9.779793 1.144461 39
8.947984 -9.801192 1.143981 39
8.898601 -9.824274 1.143496 37
8.846087 -9.844593 1.142953 38
8.796659 -9.867188 1.142469 40
8.734867 -9.879363 1.141755 39
8.688500 -9.903997 1.141331 39
8.642094 -9.928416 1.140908 40
8.598703 -9.955197 1.140544 40
8.549159 -9.976607 1.140065 42
8.511754 -10.008177 1.139819 43
8.483349 -10.047424 1.139746 49
8.436668 -10.070860 1.139327 57
8.408028 -10.109866 1.139255 53
8.380834 -10.146971 1.139190 58
8.363887 -10.196407 1.139350 54
8.346721 -10.245836 1.139509 48
8.338264 -10.303274 1.139842 45
8.330868 -10.365251 1.140225 39
8.335310 -10.431772 1.140794 37
8.343665 -10.505636 1.141470 33
8.351630 -10.579673 1.142146 26
8.365062 -10.659328 1.142936 21
8.389740 -10.750129 1.143955 15
8.412714 -10.836657 1.144922 10
8.456703 -10.947294 1.146340 5
8.514502 -11.072178 1.148042 2
8.583079 -11.208680 1.149971 2
51.033043 -52.434547 1.995094 53
50.827507 -52.594204 1.993933 53
51.129181 -53.252159 2.002931 54
51.999004 -54.460567 2.023245 56
51.297321 -54.117119 2.012077 55
51.119308 -54.329102 2.011738 55
46.815514 -53.537167 1.955109 49
47.158188 -54.277405 1.965501 50
46.730309 -54.203609 1.960018 50
46.720608 -54.548298 1.962967 50
46.915699 -55.121944 1.970266 51
45.864891 -54.351334 1.951640 49
45.579994 -54.407608 1.948981 49
44.496010 -53.540905 1.929152 47
44.352020 -53.747944 1.929444 47
44.063801 -53.808987 1.926836 46
43.860935 -53.948296 1.925895 46
44.420944 -54.954941 1.941247 48
43.920589 -54.751789 1.933947 47
43.691360 -54.862957 1.932504 47
44.729267 -56.457607 1.958510 51
44.007343 -56.008862 1.946587 49
43.835579 -56.193729 1.946494 49
3.301659 -7.493181 1.057282 43
3.249878 -7.473495 1.056550 49
3.207216 -7.466889 1.056041 56
3.173547 -7.473448 1.055753 46
2.995561 -7.339084 1.052616 9
2.936433 -7.309289 1.051719 8
2.886044 -7.287772 1.050994 11
2.853251 -7.292984 1.050711 13
2.831326 -7.309886 1.050655 7
2.182378 -7.829382 1.049956 0
2.120218 -7.778329 1.048867 0
2.095715 -7.788533 1.048769 0
2.072065 -7.802788 1.048724 0
2.041041 -7.807357 1.048513 0
2.015292 -7.817977 1.048414 0
1.944185 -7.748443 1.047055 0
1.930729 -7.779457 1.047286 0
1.975061 -7.910930 1.049109 0
1.887420 -7.813676 1.047311 0
1.861709 -7.823726 1.047215 0
1.855597 -7.868531 1.047666 0
1.831669 -7.881948 1.047625 0
1.805018 -7.887619 1.047477 0
1.801004 -7.940080 1.048036 0
1.750041 -7.904133 1.047230 0
1.735495 -7.934776 1.047463 0
1.703099 -7.929499 1.047152 0
1.673329 -7.931787 1.046949 0
1.652911 -7.951644 1.047020 0
1.619432 -7.946628 1.046709 0
1.589714 -7.948566 1.046507 0
1.576474 -7.982400 1.046797 0
1.546705 -7.984149 1.046596 1
1.511560 -7.975065 1.046232 1
1.495641 -8.000977 1.046416 4
1.465358 -7.998201 1.046163 5
1.443292 -8.018032 1.046235 6
1.417092 -8.026414 1.046145 8
1.388616 -8.026904 1.045949 10
1.362914 -8.039277 1.045913 12
1.341336 -8.054003 1.045934 12
1.316764 -8.065623 1.045901 12
1.292152 -8.077157 1.045867 12
1.264143 -8.081345 1.045725 12
1.242807 -8.099968 1.045802 12
1.218076 -8.111244 1.045769 12
1.191263 -8.114581 1.045630 12
1.166480 -8.125677 1.045599 12
1.138429 -8.129369 1.045459 11
1.111992 -8.136616 1.045374 10
1.086787 -8.143227 1.045291 9
1.063483 -8.157633 1.045315 8
1.037303 -8.168813 1.045284 8
1.010478 -8.171473 1.045148 7
0.984248 -8.182459 1.045117 7
0.960482 -8.192315 1.045090 6
0.932403 -8.195200 1.044953 6
0.909086 -8.213315 1.045033 5
0.882243 -8.215497 1.044898 5
0.855853 -8.226012 1.044870 5
0.832144 -8.239660 1.044897 5
0.808189 -8.249012 1.044872 5
0.782939 -8.258770 1.044846 5
0.756234 -8.264702 1.044767 5
0.732196 -8.273802 1.044743 5
0.705593 -8.283767 1.044717 5
0.681606 -8.296919 1.044746 5
0.657461 -8.305772 1.044723 6
0.632015 -8.315003 1.044700 6
0.606536 -8.324146 1.044676 6
0.583688 -8.340743 1.044761 7
0.559438 -8.353493 1.044793 7
0.536435 -8.369944 1.044878 7
0.514639 -8.390109 1.045018 7
0.487621 -8.395052 1.044943 7
0.466950 -8.414642 1.045084 7
0.446176 -8.434176 1.045226 8
0.425242 -8.457880 1.045421 9
0.404172 -8.481528 1.045617 10
0.382967 -8.505119 1.045812 11
0.361626 -8.528653 1.046008 12
0.348457 -8.578865 1.046581 11
0.337312 -8.636724 1.047262 8
0.329273 -8.706080 1.048105 27
0.324217 -8.786967 1.049110 13
0.326557 -8.894761 1.050491 3
5.467160 -26.606232 1.298595 3
5.092172 -25.640554 1.284657 18
3.637862 -21.118336 1.220707 32
4.959862 -26.168329 1.290845 9
4.791987 -25.899227 1.286708 55
3.634036 -21.944826 1.231284 38
4.149086 -24.179411 1.262045 35
3.353113 -21.469036 1.224056 6
3.321679 -21.642508 1.226168 89
3.183613 -21.401251 1.222532 36
3.216480 -21.834343 1.228246 29
3.099694 -21.673805 1.225740 31
3.046477 -21.769207 1.226781 10
2.920775 -21.548569 1.223474 29
3.866133 -25.874828 1.282892 6
3.932312 -26.553556 1.291931 26
3.374203 -24.523228 1.263653 13
3.294768 -24.553551 1.263783 30
2.803780 -22.724758 1.238361 9
2.789239 -23.022779 1.242198 49
2.892414 -24.276836 1.258891 57
2.745863 -24.388815 1.259915 24
2.665216 -24.388735 1.259678 68
2.197421 -22.434549 1.232723 24
2.101492 -22.339098 1.231201 27
2.012958 -22.278608 1.230164 18
1.940917 -22.304285 1.230308 6
1.848740 -22.219528 1.228951 31
1.773320 -22.224958 1.228830 31
1.788587 -22.750225 1.235788 49
1.762093 -23.525677 1.245953 2
1.424807 -22.425808 1.230649 31
1.542916 -23.670528 1.247371 25
1.903762 -26.561069 1.286401 16
1.168947 -22.715818 1.233947 11
1.667056 -26.786018 1.288903 9
1.583696 -26.846203 1.289543 3
1.251207 -25.034742 1.264876 19
1.158473 -25.010807 1.264392 2
0.875495 -23.466536 1.243374 35
1.231255 -26.924906 1.289970 9
0.734199 -23.580881 1.244664 17
0.587098 -23.042568 1.237268 9
0.484859 -22.828924 1.234270 13
0.352303 -22.292414 1.226929 6
0.809766 -27.267666 1.293911 13
0.085353 -21.130352 1.211070 39
-0.056742 -21.200832 1.211839 3
-0.126455 -21.215458 1.211956 3
-0.214451 -20.986519 1.208803 91
-0.333843 -21.241650 1.212099 30
-0.405949 -21.183270 1.211254 3
-0.505864 -20.797859 1.206013 26
-0.577499 -20.815170 1.206190 7
-0.410670 -24.271648 1.252613 7
-0.861747 -18.525455 1.175320 8
-0.917944 -18.609163 1.176409 67
-0.931431 -19.383280 1.186782 57
-0.916661 -20.892702 1.207034 21
-1.034122 -19.953672 1.194390 27
-1.015746 -21.658684 1.217275 100
-1.130262 -20.779087 1.205438 57
-1.193347 -20.841806 1.206266 22
-1.341766 -18.798216 1.178804 11
-1.401395 -18.780313 1.178558 6
-1.440080 -19.553873 1.188947 4
-1.595200 -21.534157 1.215565 5
-1.664604 -21.451405 1.214467 3
-1.720875 -22.912245 1.234113 42
-1.821916 -20.253439 1.198416 6
-1.943579 -24.025854 1.249167 7
-2.024694 -21.386145 1.213731 5
-2.089291 -20.006075 1.195220 39
-2.142337 -18.769825 1.178639 17
-2.204613 -18.797215 1.179051 53
-2.267081 -18.824387 1.179463 16
-2.328042 -18.759363 1.178639 31
-2.389870 -18.754110 1.178623 2
-2.561271 -23.050858 1.236510 6
-2.740318 -26.574965 1.284030 3
-2.712715 -22.974445 1.235640 38
-2.789773 -22.983814 1.235852 22
-2.885756 -21.643116 1.217967 2
-3.024203 -23.154306 1.238431 2
-3.100859 -23.138613 1.238325 2
-3.329541 -25.978344 1.276750 3
-3.718386 -29.529665 1.324969 11
-3.811268 -29.419714 1.323644 3
-3.454179 -22.689287 1.232844 20
-3.709656 -24.030476 1.251260 7
-3.667094 -22.445284 1.229956 76
-3.738776 -22.447611 1.230124 80
-4.704772 -31.694174 1.355750 4
-3.800530 -20.655825 1.206283 40
-3.864117 -20.633818 1.206126 10
-4.054578 -21.865080 1.222994 48
-4.659410 -25.385054 1.271381 5
-4.739064 -25.327929 1.270815 43
-4.817808 -25.302820 1.270677 54
-4.905833 -25.284386 1.270658 63
-4.983343 -25.250797 1.270414 23
-5.070414 -25.260075 1.270772 77
-5.156646 -25.228828 1.270593 25
-4.535449 -19.949200 1.198684 6
-4.511142 -19.306696 1.190081 100
-4.660880 -19.907740 1.198497 14
-4.746114 -20.008696 1.200091 3
-4.795595 -19.908484 1.198914 1
-5.589229 -24.727636 1.265222 11
-5.667508 -24.658989 1.264562 27
-4.818329 -18.796314 1.184263 87
-4.873318 -18.742939 1.183738 30
-4.975562 -18.957193 1.186910 34
-5.021444 -18.848112 1.185627 10
-5.098941 -18.944407 1.187166 3
-5.164612 -18.932928 1.187246 1
-5.412918 -19.599388 1.196918 53
-5.449766 -19.437973 1.194932 37
-5.537283 -19.547607 1.196702 16
-8.086013 -31.731888 1.366375 4
-8.444761 -32.957207 1.383844 5
-7.297040 -26.378256 1.293139 13
-6.733995 -22.936466 1.245856 2
-9.735700 -36.237049 1.432018 7
-8.367059 -29.530983 1.338776 4
-8.177763 -27.781643 1.315193 7
-6.767151 -21.362949 1.225522 6
-8.065256 -26.501657 1.298072 45
-8.161426 -26.490917 1.298375 22
-7.052129 -21.590704 1.229784 4
-7.239031 -22.034763 1.236406 4
-7.330254 -22.102583 1.237718 2
-7.420705 -22.149708 1.238763 2
-7.680006 -22.859335 1.249174 47
-7.950045 -23.574165 1.259710 5
-7.490926 -21.245941 1.227488 2
-8.359838 -24.143072 1.269090 2
-7.644575 -21.265886 1.228535 16
-7.710031 -21.214272 1.228218 14
-7.831160 -21.371082 1.230864 23
-8.122945 -22.111130 1.241868 24
-11.218615 -32.365437 1.389277 5
-12.535851 -35.101246 1.431342 6
-11.403227 -30.363220 1.364949 4
-8.678837 -21.614004 1.238710 2
-10.901965 -28.145937 1.334075 7
-8.534721 -20.688896 1.226222 24
-8.691606 -20.712124 1.227467 54
-8.722108 -20.566435 1.225834 38
-8.785036 -20.527740 1.225743 4
-9.366993 -21.976706 1.247457 35
-9.427665 -21.904343 1.246942 4
-9.495522 -21.875834 1.247022 47
-9.592857 -21.917206 1.248163 38
-9.686436 -21.946890 1.249140 45
-9.753002 -21.913786 1.249168 35
-9.561288 -20.969036 1.236246 59
-9.768210 -21.301081 1.241723 11
-14.397961 -33.053146 1.417432 6
-9.673622 -20.642916 1.233006 2
-9.792627 -20.544291 1.232627 30
-9.826329 -20.431652 1.231491 8
-10.059973 -20.811680 1.237767 6
-10.071190 -20.642864 1.235798 4
-10.108947 -20.540699 1.234831 19
-10.118238 -20.372122 1.232860 14
-10.109292 -20.163208 1.230273 42
-10.199654 -20.189943 1.231260 30
-10.276030 -20.183235 1.231746 30
-14.837574 -30.184488 1.385825 51
-10.997811 -21.080326 1.247930 47
-17.496630 -34.948887 1.462964 7
-16.749323 -33.016701 1.434237 6
-15.318700 -29.403395 1.380277 48
-14.747491 -27.700178 1.355680 4
-15.953859 -29.964914 1.391968 5
-15.927096 -29.653469 1.388108 5
-14.821774 -27.148716 1.349834 4
-15.182839 -27.188040 1.353286 4
-19.189177 -34.860905 1.475652 8
-19.024513 -34.248959 1.467202 7
-19.789047 -35.429852 1.487295 8
-17.180799 -29.657911 1.398730 16
-17.276894 -29.597691 1.398882 10
-15.966431 -26.928358 1.357043 4
-15.256424 -25.407085 1.333527 3
-15.954710 -26.479492 1.351857 4
-18.622103 -30.850012 1.424997 6
-18.779013 -30.885956 1.426820 6
-19.058590 -31.136934 1.432172 6
-16.349281 -26.148712 1.351716 3
-16.357086 -25.959820 1.349686 23
-20.432652 -32.528740 1.460324 7
-16.168446 -24.856157 1.335728 25
-16.305002 -24.895758 1.337455 25
-16.605347 -25.205170 1.343701 15
-16.737503 -25.232618 1.345265 26
-16.654610 -24.908291 1.340939 22
-19.245047 -28.912035 1.409437 16
-21.348404 -32.083233 1.464198 7
-21.497110 -32.079868 1.465616 29
-19.275343 -28.118513 1.401189 5
-21.698048 -31.682188 1.463338 7
-23.721979 -34.574528 1.514360 8
-21.921368 -31.327173 1.461808 14
-23.513376 -33.501583 1.500896 8
-24.310928 -34.200272 1.516380 8
-19.832258 -27.340826 1.398599 5
-23.516874 -32.074093 1.486034 7
-20.645487 -27.532692 1.409075 10
-22.240831 -29.588722 1.447034 6
-20.620991 -27.108889 1.404481 5
-20.697927 -27.024246 1.404442 10
-21.729414 -28.257704 1.428025 17
-20.610506 -26.534464 1.398544 4
-21.923815 -28.135672 1.428895 11
-20.657291 -26.227104 1.395962 29
-27.291338 -34.695908 1.553159 10
-27.471462 -34.690350 1.555091 10
-22.667900 -28.143303 1.437143 6
-22.175564 -27.306356 1.423421 5
-24.104324 -29.612118 1.467602 7
-22.791050 -27.720266 1.434368 6
-20.971199 -25.208534 1.389395 13
-25.833025 -31.189966 1.502454 8
-22.835409 -27.206882 1.429890 5
-23.084251 -27.330620 1.433922 6
-28.177301 -33.453491 1.551002 10
-22.854124 -26.311584 1.421556 5
-27.418953 -31.629442 1.524906 17
-27.618008 -31.650976 1.527437 8
-28.224627 -32.154816 1.539276 9
-27.274948 -30.815628 1.515602 8
-28.062037 -31.526995 1.531518 18
-28.163141 -31.429771 1.531822 9
-23.513628 -25.684019 1.423513 16
-26.218500 -28.599831 1.482616 7
-23.470621 -25.290581 1.419415 5
-27.003183 -29.085808 1.496504 15
-24.216433 -25.783140 1.432908 5
-24.097433 -25.146042 1.425769 27
-25.273291 -26.243616 1.449973 12
-25.429249 -26.235474 1.451832 6
-29.531696 -30.454350 1.539735 9
-27.216713 -27.419756 1.484455 7
-29.248951 -29.338810 1.526543 8
-28.303932 -28.166397 1.504576 15
-28.412487 -28.088726 1.505293 7
-27.355803 -26.833982 1.481225 21
-28.401070 -27.701818 1.501884 31
-27.401527 -26.513054 1.479116 14
-27.732336 -26.674351 1.484715 28
-27.912674 -26.674417 1.487043 14
-27.480135 -26.070681 1.476465 13
-27.088078 -25.522161 1.466874 46
-41.564362 -39.124359 1.766528 22
-37.364368 -34.842213 1.676873 14
-36.136433 -33.429111 1.649371 13
-35.274101 -32.379345 1.629607 12
-30.984402 -27.778349 1.536299 8
-31.118893 -27.714849 1.537601 8
-37.511780 -33.359482 1.667125 41
-36.503109 -32.221306 1.644778 12
-38.453835 -33.754784 1.682856 14
-36.907593 -32.135948 1.649590 13
-35.943825 -31.064898 1.628393 12
-36.042473 -30.940947 1.628803 12
-37.162849 -31.719604 1.649929 12
-43.099232 -36.650436 1.767908 21
-39.746635 -33.513863 1.698671 14
-40.966190 -34.315842 1.721362 16
-44.217278 -36.839638 1.784698 22
-41.292484 -34.122883 1.724471 17
-39.515007 -32.402172 1.687375 14
-47.082104 -38.465527 1.836217 27
-41.704823 -33.765587 1.727657 17
-42.444351 -34.150776 1.740739 18
-51.126556 -40.977245 1.910628 35
-45.722210 -35.827282 1.798625 23
-14.576002 -10.960244 1.186481 1
-14.616912 -10.921224 1.186799 1
-14.591449 -10.830417 1.185824 1
-14.592514 -10.757289 1.185350 1
-14.534421 -10.642644 1.183755 1
-14.613967 -10.637400 1.184865 1
-14.629844 -10.583446 1.184741 1
-14.632833 -10.513063 1.184327 1
-14.672300 -10.473692 1.184645 1
-14.661799 -10.400665 1.184025 1
-14.486639 -10.200204 1.180201 1
-14.405533 -10.074038 1.178221 1
-14.762565 -10.269906 1.184673 1
-14.762306 -10.201942 1.184247 1
-14.846351 -10.194529 1.185438 1
-14.806512 -10.098743 1.184266 1
-14.800443 -10.024131 1.183725 1
-14.821953 -9.972526 1.183734 1
-14.807100 -9.895820 1.183056 1
-14.849639 -9.862370 1.183492 1
-14.896935 -9.828741 1.184001 1
-14.917670 -9.776936 1.184010 1
-14.953271 -9.738518 1.184323 1
-15.080068 -9.757676 1.186337 1
-15.377160 -9.888765 1.191551 1
-15.586674 -9.956159 1.195090 1
-15.791938 -10.022355 1.198562 1
-16.101887 -10.154632 1.203987 1
-16.428129 -10.298184 1.209725 1
-16.379507 -10.196128 1.208434 1
-142.030060 -71.581764 3.467044 63
-14.908975 -7.306023 1.172144 0
-15.331769 -7.451561 1.179530 1
-15.372175 -7.413611 1.180053 1
-15.260681 -7.303529 1.177853 1
-15.198184 -7.220407 1.176548 0
-15.195435 -7.160180 1.176300 0
-15.164877 -7.092934 1.175577 0
-15.132476 -7.019712 1.174806 0
-15.160623 -6.977133 1.175132 0
-15.177684 -6.929521 1.175262 0
-15.179953 -6.875367 1.175132 0
-15.210276 -6.836464 1.175513 0
-15.213170 -6.780015 1.175392 0
-15.236864 -6.735443 1.175653 0
-15.238344 -6.681340 1.175522 0
-15.232243 -6.624177 1.175260 0
-15.262785 -6.582594 1.175652 0
-15.282118 -6.536264 1.175848 0
-15.327182 -6.500515 1.176504 0
-15.349932 -6.455469 1.176767 0
-15.387367 -6.416312 1.177292 0
-15.434900 -6.383752 1.178006 0
-15.501892 -6.355932 1.179061 0
-15.491555 -6.294759 1.178742 0
-30.293495 -11.973812 1.440423 4
-30.310986 -11.872768 1.440489 4
-30.343086 -11.766095 1.440794 4
-30.372927 -11.664284 1.441079 4
-30.413652 -11.566571 1.441562 4
-30.450287 -11.467324 1.441980 4
-30.484768 -11.372922 1.442377 4
-30.607288 -11.304549 1.444321 4
-30.805044 -11.262244 1.447596 4
-99.239281 -35.194557 2.652807 63
-99.320175 -34.841789 2.653568 63
-99.562431 -34.544762 2.657191 63
-100.347069 -34.450165 2.670407 63
-100.848045 -34.216808 2.678587 63
-52.529282 -17.793549 1.828437 19
-62.061268 -20.725277 1.995696 35
-62.099236 -20.505636 1.996039 35
-89.681305 -29.110561 2.480247 63
-102.199791 -32.755142 2.699683 63
-120.952011 -38.237957 3.028445 63
-102.504517 -32.062103 2.704091 63
-118.519478 -35.233982 2.983382 63
-62.964046 -17.325634 2.008001 35
-63.213940 -17.163725 2.012272 35
-63.269901 -16.949949 2.013160 35
-13.874502 -4.063116 1.147970 0
-13.717793 -3.981581 1.145213 0
-13.499583 -3.881632 1.141382 0
-13.373058 -3.810131 1.139159 0
-13.297199 -3.749748 1.137826 0
-13.244870 -3.693522 1.136907 0
-13.094471 -3.616882 1.134274 1
-12.951469 -3.543121 1.131772 1
-12.827593 -3.474812 1.129608 2
-12.726795 -3.412622 1.127850 1
-12.613977 -3.348596 1.125884 1
-12.496540 -3.286375 1.123839 1
-12.399138 -3.225485 1.122147 1
-12.316720 -3.170401 1.120719 2
-12.190581 -3.108872 1.118527 0
-12.115474 -3.056710 1.117231 2
-12.044049 -3.005873 1.116001 0
-11.320656 -2.829063 1.103348 0
-11.248336 -2.781550 1.102104 0
-11.348779 -2.766887 1.103891 0
-11.362685 -2.735685 1.104163 0
-11.361035 -2.699945 1.104166 0
-11.295938 -2.654790 1.103057 0
-11.321293 -2.625726 1.103536 0
-11.295015 -2.589479 1.103109 0
-11.158383 -2.533548 1.100749 0
-11.127818 -2.497418 1.100250 0
-11.146056 -2.433285 1.100656 1
-11.162796 -2.403141 1.100996 1
-11.135677 -2.368078 1.100564 1
-11.112615 -2.332191 1.100207 1
-11.026046 -2.287581 1.098735 1
-10.991003 -2.249073 1.098173 0
-10.959557 -2.212931 1.097674 0
-10.924002 -2.176509 1.097103 0
-10.884139 -2.141400 1.096455 0
-10.840362 -2.104538 1.095742 0
-10.824234 -2.071307 1.095518 0
-10.811956 -2.038661 1.095364 0
-10.843278 -2.011013 1.095980 0
-10.779088 -1.972802 1.094913 1
-10.782359 -1.942152 1.095038 0
-10.777564 -1.910682 1.095022 0
-10.772656 -1.879258 1.095006 0
-10.783564 -1.849382 1.095271 1
-10.782420 -1.818355 1.095325 1
-10.789135 -1.788042 1.095520 0
-10.787775 -1.757023 1.095574 0
-10.794279 -1.726664 1.095769 0
-10.800559 -1.697804 1.095958 0
-10.802756 -1.668617 1.096076 0
-10.804965 -1.637885 1.096201 1
-10.815149 -1.606140 1.096473 0
-10.833105 -1.576371 1.096882 0
-10.834899 -1.547077 1.097000 0
-10.868628 -1.518028 1.097693 0
-10.966162 -1.492114 1.099523 1
-10.975742 -1.461206 1.099792 1
-11.005192 -1.431149 1.100417 1
-11.010632 -1.398309 1.100621 1
-11.003902 -1.366546 1.100606 0
-10.985070 -1.334415 1.100376 0
-11.006098 -1.303679 1.100859 0
-11.015026 -1.272464 1.101129 1
-11.035803 -1.243061 1.101607 1
-11.060514 -1.212027 1.102163 1
-11.097088 -1.182624 1.102929 1
-11.121614 -1.149621 1.103493 1
-11.150002 -1.118080 1.104123 1
-11.202266 -1.088122 1.105178 1
-11.250437 -1.056187 1.106169 1
-11.298497 -1.023917 1.107162 1
3.233386 0.185783 1.067071 0
3.257064 0.171929 1.067468 4
3.237777 0.148348 1.066825 5
3.249637 0.131772 1.066939 8
3.280989 0.119344 1.067524 19
3.273201 0.098414 1.067164 23
3.273159 0.079185 1.066994 25
3.276966 0.060772 1.066918 34
3.284443 0.044057 1.066940 41
3.304001 0.027781 1.067237 45
3.311374 0.010949 1.067259 47
3.314942 -0.007597 1.067182 48
3.330238 -0.023952 1.067388 50
3.337617 -0.041842 1.067405 52
3.368552 -0.055530 1.067985 54
3.387641 -0.071502 1.068283 59
3.386980 -0.090993 1.068112 60
3.402021 -0.107805 1.068316 60
3.413065 -0.125363 1.068426 67
3.427846 -0.141401 1.068633 60
3.442731 -0.158477 1.068836 58
3.453611 -0.176258 1.068945 59
3.472341 -0.192909 1.069241 60
3.479152 -0.211431 1.069256 59
3.505692 -0.227142 1.069737 60
3.532188 -0.243028 1.070218 56
3.550583 -0.259205 1.070515 51
3.573025 -0.275938 1.070902 43
3.619212 -0.289727 1.071846 28
3.653467 -0.305333 1.072510 18
45.319241 0.834817 2.024607 12
45.105934 0.653565 2.018873 12
45.047554 0.487079 2.016746 12
45.028324 0.330370 2.015569 12
45.052753 0.166710 2.015364 12
45.056625 0.002461 2.014703 12
45.115898 -0.160779 2.015320 12
45.170609 -0.324480 2.015843 12
45.236649 -0.480173 2.016673 12
45.306240 -0.644520 2.017558 12
37.698143 -6.101959 1.830091 9
37.652420 -6.236846 1.828922 9
123.373703 -28.756981 3.750859 63
123.315170 -29.203215 3.750029 63
115.318359 -31.698946 3.577074 63
109.235199 -33.430962 3.447591 63
109.129097 -33.821304 3.446266 63
108.831993 -34.133537 3.440609 63
103.137108 -32.852253 3.313248 63
108.693161 -35.358662 3.440974 63
107.611191 -35.442890 3.417753 63
107.442398 -35.831062 3.415260 63
108.248703 -36.915661 3.436073 63
108.217720 -37.331558 3.436746 63
97.490623 -37.673782 3.207891 63
97.309631 -38.001305 3.205368 63
97.112602 -38.322369 3.202507 63
96.600563 -38.523090 3.192478 63
97.368706 -39.212807 3.211733 63
90.066200 -36.775383 3.046400 63
90.525314 -40.665653 3.074650 63
90.790459 -41.182415 3.082859 63
91.232391 -41.760674 3.095101 63
89.289467 -41.291725 3.052219 63
89.327164 -41.670658 3.055052 63
89.170151 -41.982639 3.053509 63
89.583878 -42.553333 3.065239 63
89.529282 -42.914371 3.066144 63
76.238876 -40.155048 2.777476 63
76.673058 -41.061268 2.792129 63
75.209167 -40.639095 2.759788 63
76.965691 -42.239357 2.805857 63
28.761877 -18.179869 1.674622 7
28.628601 -18.245974 1.672472 6
28.457438 -18.296947 1.669473 6
28.393484 -18.401171 1.668995 6
28.478880 -18.733496 1.673199 7
28.309198 -18.762487 1.670101 6
28.436523 -18.979956 1.674279 7
28.116184 -18.940062 1.667721 6
27.868261 -18.934000 1.662850 6
28.121361 -19.365713 1.671221 7
11.258000 -9.158495 1.262365 2
10.958737 -9.162833 1.256642 3
10.960648 -9.227273 1.257220 1
10.979121 -9.302582 1.258211 1
10.403689 -9.491928 1.249005 1
10.235679 -9.439956 1.245393 1
9.992592 -9.334506 1.239895 0
10.124150 -9.488528 1.243768 1
10.208716 -9.604786 1.246421 1
10.194996 -9.658907 1.246676 1
10.115943 -9.666575 1.245291 1
10.088939 -9.711149 1.245219 1
10.040619 -9.737118 1.244582 1
10.006891 -9.776737 1.244347 1
10.089057 -9.901466 1.247060 1
10.119063 -9.988811 1.248462 1
9.908134 -9.897207 1.243729 1
9.301454 -9.506472 1.228866 0
10.547574 -10.510879 1.261403 1
9.525057 -9.800865 1.235849 0
9.357918 -9.736348 1.232194 0
9.308443 -9.761266 1.231562 0
9.184213 -9.790642 1.229648 60
9.109597 -9.794925 1.228367 66
9.061661 -9.816781 1.227746 68
9.015285 -9.842838 1.227200 70
8.947073 -9.851103 1.226086 70
8.892913 -9.873509 1.225373 69
8.843378 -9.896278 1.224749 68
8.789199 -9.911839 1.223971 73
8.745790 -9.939229 1.223511 72
8.693116 -9.958729 1.222809 73
8.646557 -9.983122 1.222270 74
8.603007 -10.009885 1.221814 73
8.551849 -10.026821 1.221121 75
8.517317 -10.060991 1.220909 75
8.467557 -10.081942 1.220293 68
8.438880 -10.121053 1.220244 60
8.325095 -10.213908 1.219372 0
8.313786 -10.268581 1.219810 0
8.348372 -10.361687 1.221465 0
8.420581 -10.496415 1.224237 0
8.402189 -10.546236 1.224512 0
8.439853 -10.641202 1.226251 0
8.450179 -10.718391 1.227331 0
8.481758 -10.819444 1.229049 0
8.368874 -10.781955 1.226747 0
8.569818 -11.040960 1.233139 0
8.728581 -11.262822 1.238400 1
52.518982 -53.435482 2.460775 56
52.663254 -53.942585 2.469272 57
50.934780 -52.628311 2.425297 53
51.145840 -53.178928 2.435445 54
51.116440 -53.533627 2.439341 54
51.493988 -54.277390 2.454582 56
51.094761 -54.213078 2.447419 55
50.927612 -54.435726 2.447543 55
46.827526 -53.478043 2.371368 50
46.868355 -53.909260 2.377618 50
46.696980 -54.094250 2.377431 50
46.483017 -54.214058 2.375759 50
46.012600 -54.068665 2.366725 49
45.913979 -54.313831 2.368491 50
45.643787 -54.405537 2.365659 49
45.589790 -54.721169 2.369073 50
44.375614 -53.701969 2.337323 47
44.080914 -53.737061 2.333428 47
43.912369 -53.915710 2.333358 47
44.223541 -54.651222 2.347923 48
43.945061 -54.705894 2.344592 48
43.646046 -54.734901 2.340631 48
43.555397 -54.989876 2.342818 48
44.751926 -56.821037 2.385369 51
43.879105 -56.169163 2.363784 50
43.569183 -56.187138 2.359594 49
43.487476 -56.461613 2.362257 50
3.207266 -7.501752 1.104712 50
3.150824 -7.475220 1.103545 60
3.114718 -7.478379 1.103086 41
2.938887 -7.301278 1.098120 5
2.904629 -7.302718 1.097667 18
2.865521 -7.297672 1.097056 25
2.849558 -7.320110 1.097160 13
2.590306 -7.294693 1.093304 0
2.568377 -7.310677 1.093251 0
2.203141 -7.796857 1.096143 0
2.145926 -7.756992 1.094844 0
2.143228 -7.805555 1.095582 0
2.094653 -7.778930 1.094597 0
2.068097 -7.785616 1.094398 0
2.036263 -7.786036 1.094041 0
2.020770 -7.813851 1.094310 0
1.990959 -7.817498 1.094031 0
1.420914 -7.778063 1.087323 0
1.373655 -7.801780 1.087253 0
1.302460 -7.836736 1.087150 0
1.340718 -8.040184 1.090966 0
1.206970 -7.882179 1.087017 0
1.267028 -8.074781 1.090865 0
1.244053 -8.089777 1.090910 0
1.201150 -8.061010 1.090024 0
1.202835 -8.130484 1.091233 0
1.193913 -8.173932 1.091901 0
1.144660 -8.130174 1.090707 0
1.121429 -8.144771 1.090754 0
1.107687 -8.181303 1.091265 4
1.085831 -8.199456 1.091390 18
1.052921 -8.191785 1.090973 25
1.024462 -8.190814 1.090713 26
1.000956 -8.205018 1.090761 26
0.975860 -8.215448 1.090732 26
0.950727 -8.225792 1.090704 26
0.925559 -8.236048 1.090676 25
0.901844 -8.249928 1.090726 25
0.875115 -8.256295 1.090621 25
0.854231 -8.277452 1.090826 25
0.824531 -8.276191 1.090567 25
0.803162 -8.288759 1.090621 25
0.777775 -8.298499 1.090595 25
0.756592 -8.319375 1.090802 25
0.728298 -8.321460 1.090622 25
0.701410 -8.327188 1.090520 25
0.677263 -8.340328 1.090573 24
0.653057 -8.353390 1.090627 24
0.628792 -8.366371 1.090680 24
0.608472 -8.390582 1.090966 23
0.581409 -8.395867 1.090866 23
0.558246 -8.408166 1.090922 24
0.535034 -8.424618 1.091054 22
0.514303 -8.448574 1.091341 20
0.490897 -8.464890 1.091474 15
0.469920 -8.488728 1.091761 13
0.450048 -8.516310 1.092126 9
0.430014 -8.543845 1.092491 7
0.412250 -8.578951 1.093011 3
0.403890 -8.644537 1.094148 2
0.387966 -8.687246 1.094822 4
