# .PCD v.7 - Point Cloud Data file format
VERSION .7
FIELDS x y z intensity
SIZE 4 4 4 1
TYPE F F F U
COUNT 1 1 1 1
WIDTH 1578
HEIGHT 1
VIEWPOINT 0 0 0 1 0 0 0
POINTS 1578
DATA ascii
-18.580486 7.025456 0.350552 15
-18.516909 7.052114 0.351989 15
-17.818668 7.205031 0.366863 15
-17.772575 7.237592 0.368036 15
-17.722946 7.267925 0.369264 15
-17.707859 7.318063 0.369974 15
-17.689123 7.366166 0.370743 15
-17.690882 7.426409 0.371209 15
-17.706129 7.494925 0.371479 15
-17.725805 7.563482 0.371664 15
-17.700636 7.605405 0.372521 15
-23.467096 13.013950 0.304392 57
-23.340139 13.020020 0.307076 28
-22.461300 13.036159 0.325533 57
-22.415682 13.096777 0.327094 25
-21.960985 13.033213 0.336021 57
-21.915380 13.092085 0.337582 24
-21.712139 13.027466 0.341221 24
-21.588055 13.023529 0.343810 22
-21.486904 12.990256 0.345613 22
-17.083914 13.133361 1.066464 40
-17.037992 13.175130 1.068046 40
-16.496943 13.120740 1.066021 33
-10.966392 8.333632 0.885029 9
-10.621966 8.327235 0.886586 8
-10.563663 8.365688 0.888602 8
-10.436875 8.362021 0.889261 33
-10.310046 8.291003 0.887024 33
-10.222888 8.345268 0.890040 7
-10.195170 8.362261 0.890999 7
-10.167397 8.379162 0.891960 7
-10.120127 8.370342 0.891939 7
-10.105803 8.416194 0.894091 7
-10.063052 8.381158 0.892879 7
-9.983490 8.339924 0.891699 7
-9.859996 8.328371 0.892247 33
-9.773482 8.244265 0.889238 6
-9.734824 8.243182 0.889541 6
-9.714292 8.270761 0.890977 6
-9.676159 8.273700 0.891469 6
-9.640476 8.277427 0.891980 6
-9.599070 8.270483 0.892068 6
-9.563976 8.271355 0.892455 74
-9.491469 8.278509 0.893517 74
-9.454117 8.277941 0.893879 74
-9.413109 8.270134 0.893954 68
-9.381032 8.275578 0.894547 68
-9.352633 8.288005 0.895428 83
-9.310378 8.280460 0.895546 83
-9.272754 8.281631 0.896021 52
-9.214137 8.302073 0.897638 6
-9.197514 8.341523 0.899664 6
-9.138459 8.294805 0.898190 6
-9.118711 8.291090 0.898253 6
-9.058457 8.284673 0.898685 6
-9.034657 8.309320 0.900132 6
-8.988541 8.286915 0.899659 6
-8.969740 8.322215 0.901554 6
-8.932011 8.313298 0.901619 6
-8.894603 8.308520 0.901881 6
-8.860383 8.306561 0.902239 5
-8.813452 8.283913 0.901795 5
-8.791022 8.311475 0.903402 5
-8.747400 8.291472 0.903050 5
-8.710228 8.281614 0.903096 5
-8.678093 8.286890 0.903797 5
-8.652290 8.306726 0.905107 5
-8.623257 8.319131 0.906114 5
-8.580071 8.294004 0.905540 5
-8.549632 8.306761 0.906597 5
-8.520598 8.318807 0.907604 5
-8.491523 8.330751 0.908613 5
-8.463862 8.342005 0.909573 5
-8.434707 8.353750 0.910585 5
-8.405509 8.365395 0.911599 5
-8.376272 8.376937 0.912614 5
-8.346994 8.388377 0.913630 5
-8.332341 8.394058 0.914139 5
-8.288321 8.410950 0.915667 5
-8.258925 8.422082 0.916688 5
-8.229491 8.433112 0.917710 5
-8.200019 8.444039 0.918734 5
-7.994156 8.517129 0.925884 5
-7.745608 12.847386 1.148262 19
-7.602404 12.831344 1.150967 33
-6.830064 12.873870 1.173516 18
-6.771934 12.780841 1.170358 18
-6.737243 12.845776 1.174677 18
-6.732390 13.168564 1.191436 18
-6.678628 13.110754 1.189992 19
-6.660054 13.149200 1.192505 19
-6.593926 13.181040 1.196055 20
-6.472131 12.917122 1.185993 18
-6.374651 12.854888 1.185659 18
-6.329280 12.831235 1.185789 18
-6.314974 13.133576 1.201841 19
-8.581627 -14.185031 1.210307 26
-9.103987 -13.454967 1.161938 23
-8.910247 -12.189436 1.101639 17
-10.586465 -4.147856 0.730761 33
-10.578417 -4.111890 0.729557 3
-10.578223 -4.081972 0.728605 3
-10.705077 -4.115299 0.730582 33
-10.721942 -4.009625 0.727424 33
-10.722772 -3.980710 0.726542 3
-10.769392 -3.983857 0.727010 3
-10.785818 -3.967243 0.726637 9
-10.744242 -3.907809 0.724497 9
-16.122446 3.188637 0.775015 33
-16.109301 3.226586 0.775349 12
-16.048103 3.250249 0.774751 12
-16.040495 3.289653 0.775205 37
-16.032743 3.329042 0.775665 37
-16.021618 3.365331 0.776034 75
-16.002140 3.401106 0.776277 75
-18.243088 7.194579 0.882674 28
-18.033352 7.316535 0.883440 27
-16.259226 13.759570 1.712628 15
-15.795341 13.967147 1.717904 15
-15.746519 14.004336 1.719590 10
-9.078135 8.452546 1.234319 4
-9.080799 8.535015 1.240811 4
-6.801015 13.211918 1.659483 7
-6.754378 13.213788 1.660762 7
-6.704564 13.189778 1.659898 29
-6.680090 13.180671 1.659711 29
-6.612203 13.198613 1.662944 22
-8.980140 -13.495644 1.658766 15
-9.160962 -13.417418 1.650317 15
-9.241316 -13.346945 1.643637 15
-9.090410 -12.708905 1.591364 7
-9.296545 -13.200047 1.630818 7
-12.935297 -13.359115 1.646856 15
-13.277775 -13.302425 1.646029 15
-13.338857 -13.297559 1.646335 8
-13.158308 -12.907039 1.615110 8
-13.937310 -13.826214 1.692690 9
-13.622720 -12.941045 1.623329 8
-14.537577 -13.492014 1.676437 9
-14.575334 -13.446009 1.673699 9
-11.965210 -3.814593 1.009110 15
-11.953918 -3.777150 1.007043 24
-11.960480 -3.765164 1.006807 24
-11.983553 -3.731031 1.006332 44
-12.014109 -3.716347 1.007002 44
-12.012878 -3.684681 1.005633 19
-12.057482 -3.677195 1.007211 19
-12.211938 -3.726593 1.015796 2
-17.407219 14.114638 2.419929 27
-16.933958 14.254990 2.411994 9
-15.743920 13.007374 2.243485 7
-16.510532 14.448327 2.412533 27
-15.461788 13.217301 2.251764 7
-15.430271 13.272096 2.255763 7
-15.290714 13.379172 2.260580 7
-14.930938 13.191450 2.228367 27
-15.034166 13.426953 2.255368 7
-14.937689 13.394124 2.248512 7
-14.925726 13.574971 2.265907 27
-14.943395 13.699480 2.278882 7
-14.899749 13.689094 2.276266 7
-14.833694 13.748142 2.279761 7
-14.755850 13.739618 2.276143 7
-14.685025 13.740503 2.273738 7
-14.568933 13.675683 2.263192 7
-13.938672 12.954639 2.169001 27
-14.617594 14.051922 2.302757 7
-14.416161 13.858897 2.276480 7
-14.314633 13.811830 2.268343 14
-14.281768 13.866993 2.272876 14
-14.273802 13.960305 2.282130 7
-14.205417 13.962146 2.280127 7
-14.050498 13.830168 2.261705 7
-14.122797 14.048541 2.286381 7
-14.099412 14.120058 2.293013 7
-14.088421 14.211742 2.302129 7
-13.905258 14.030753 2.277890 7
-13.883621 14.105153 2.284948 7
-14.148651 14.642917 2.348577 8
-13.775382 14.487612 2.321696 7
-12.924812 13.128047 2.155538 7
-13.761610 14.689908 2.342558 7
-13.706254 14.713059 2.343503 7
-13.741479 14.885796 2.362669 8
-13.686862 14.917229 2.364560 8
-13.527989 14.760555 2.343850 7
-10.153464 9.086531 1.655444 27
-10.106274 9.076241 1.653195 7
-10.072632 9.090137 1.653875 7
-10.039591 9.101300 1.654291 7
-9.996725 9.101807 1.653349 7
-9.965851 9.120558 1.654661 3
-27.140625 52.925148 6.796489 18
-26.955839 53.001060 6.802902 18
-26.261230 52.852146 6.778459 20
-26.076704 52.924995 6.784864 20
-25.891924 52.997196 6.791279 20
-25.728519 52.851585 6.773160 20
-6.720564 13.187009 2.128520 30
-6.696572 13.181888 2.128385 30
-6.627990 13.193876 2.131262 40
-6.585310 13.228639 2.136392 40
-6.591748 14.158731 2.249332 27
-6.544366 14.183502 2.253412 5
-6.481033 14.026076 2.235708 5
-8.485884 -13.658674 2.174827 5
-8.558889 -13.168706 2.115927 5
-8.613031 -13.187347 2.117948 5
-8.807580 -13.534264 2.158650 27
-9.240197 -13.288362 2.129269 27
-9.258801 -13.186798 2.117347 5
-9.318747 -13.215810 2.120878 5
-9.493390 -13.596075 2.165951 5
-9.385712 -12.958123 2.090846 5
-9.381758 -12.871521 2.080695 5
-9.514742 -13.049232 2.101996 5
-9.543362 -12.984979 2.094622 5
-12.822617 -13.454577 2.199365 6
-12.622834 -12.696441 2.113267 5
-12.677282 -12.687260 2.113800 5
-12.798542 -12.693338 2.117861 27
-12.886853 -12.639486 2.114749 27
-13.379337 -13.331306 2.201809 6
-13.186511 -12.921835 2.153210 6
-13.289613 -12.738895 2.137319 27
-14.305410 -13.733377 2.272601 7
-13.629776 -12.634303 2.137580 7
-14.203778 -12.798481 2.174203 6
-14.904990 -13.189310 2.239184 7
-12.401586 -4.559989 1.363121 3
-12.363153 -4.501069 1.356628 3
-12.351589 -4.459084 1.353108 3
-12.339820 -4.417233 1.349595 3
-12.402935 -4.420682 1.354221 3
-12.431193 -4.404614 1.355177 3
-12.384040 -4.343740 1.348012 3
-12.399116 -4.318295 1.347472 3
-12.414102 -4.292797 1.346936 3
-12.429742 -4.265967 1.346375 3
-12.445284 -4.239081 1.345819 3
-12.441951 -4.204857 1.343478 3
-12.438473 -4.170701 1.341143 3
-12.435568 -4.135334 1.338787 3
-15.998347 12.744516 2.824563 9
-15.186777 12.934153 2.795202 18
-15.077261 13.073131 2.805840 8
-15.451023 13.660045 2.902052 8
-15.328121 13.596206 2.886654 9
-15.019045 13.575419 2.865839 9
-14.736232 13.286017 2.812629 9
-14.682837 13.309743 2.812603 8
-14.754446 13.458268 2.835695 8
-14.741261 13.589080 2.851740 9
-14.718905 13.658067 2.859372 9
-14.869959 14.079080 2.922124 18
-14.823216 14.111207 2.923739 9
-14.395209 14.220504 2.915462 18
-14.111165 14.106262 2.885995 9
-14.125627 14.237746 2.904205 9
-14.183664 14.439870 2.934005 9
-13.482588 14.027379 2.845375 18
-13.379883 14.229862 2.868265 8
-13.327672 14.259910 2.870073 8
-26.557957 52.882622 8.811196 18
-6.740811 13.216806 2.606003 20
-6.712609 13.178381 2.600434 20
-6.641943 13.172682 2.600713 33
-6.599358 13.207292 2.606878 33
-6.560515 13.277122 2.618529 6
-13.235235 -13.273872 2.743710 8
-15.678869 12.391709 3.343996 11
-14.739217 12.336699 3.253883 11
-15.281590 13.217646 3.433807 11
-14.983614 13.498719 3.453230 8
-14.833698 13.490202 3.440141 8
-14.222983 12.927774 3.304440 11
-14.100787 12.849628 3.282782 6
-13.983756 12.777261 3.262468 6
-13.965308 14.279984 3.504419 16
-13.909622 14.295637 3.503300 16
-13.870409 14.337948 3.507702 8
-27.058237 52.905319 10.880883 11
-26.834816 52.860218 10.864271 63
-26.391802 52.825752 10.841575 63
-26.207373 52.898560 10.847977 63
-25.950312 52.787704 10.818827 63
-25.858198 52.823418 10.822024 63
-25.510378 52.746086 10.796026 63
-25.326235 52.815826 10.802420 63
-25.141848 52.884922 10.808823 63
-24.593346 51.984303 10.627595 63
-23.201767 51.494957 10.496212 11
-22.989655 51.463776 10.484544 63
-22.761326 51.383369 10.463538 63
-22.560396 51.380238 10.457574 63
-22.363466 51.387520 10.453754 63
-22.184080 51.446331 10.459989 63
-21.997116 51.482086 10.461916 63
-21.817402 51.539616 10.468162 63
-21.644705 51.618996 10.478733 63
-21.525902 51.837505 10.516371 63
-21.344952 51.893387 10.522660 63
-21.163807 51.948631 10.528957 63
-20.982470 52.003242 10.535261 63
-20.772453 51.930260 10.517431 63
-20.662598 51.892910 10.508304 63
-20.381754 51.974586 10.518068 63
-20.181660 51.962250 10.512079 63
-19.986551 51.931492 10.502871 63
-19.805281 51.982002 10.509174 63
-19.584637 51.891705 10.488670 63
-19.386082 51.912914 10.489483 63
-19.187332 51.896801 10.483449 63
-19.010149 51.923161 10.485804 63
-18.830931 51.941307 10.486707 63
-18.621693 51.917782 10.479516 63
-18.431660 51.929249 10.479273 63
-18.224308 51.871399 10.465924 63
-18.031818 51.869976 10.463482 63
-17.827629 51.858551 10.459163 63
-17.641069 51.878597 10.461085 63
-17.449047 51.875027 10.458628 63
-17.272545 51.895477 10.460962 63
-17.069250 51.840740 10.448997 63
-16.924994 52.042122 10.486006 63
-16.909552 53.655239 10.791181 63
-16.707924 53.673882 10.793630 63
-16.511580 53.670601 10.792087 63
-16.397200 53.637905 10.785406 63
-16.130474 53.715816 10.799262 63
-15.736256 53.692768 10.793948 63
-15.558240 53.726639 10.800147 63
-14.959727 53.636391 10.782909 63
-14.772541 53.669319 10.789429 63
-14.585241 53.701595 10.795953 63
-14.397830 53.733215 10.802481 63
-14.193841 53.667290 10.790546 63
-7.058286 13.046852 3.049767 11
-6.979773 12.831794 3.009091 5
-6.735054 13.224425 3.086928 11
-6.663435 13.212986 3.085616 21
-6.617759 13.222060 3.087970 21
-6.574695 13.254404 3.094803 10
-28.539572 51.693001 12.786925 63
-26.894489 52.829964 12.936514 63
-26.451990 52.796753 12.906966 63
-25.918934 52.795666 12.880564 15
-25.387495 52.789333 12.854108 15
-25.168430 52.767071 12.839261 63
-24.675482 52.016090 12.655190 63
-17.888361 51.830563 12.397103 15
-17.688978 51.797638 12.386077 63
-17.499994 51.805725 12.384568 63
-17.313852 51.784466 12.376675 63
-17.128691 51.806408 12.378627 63
-16.954401 53.543514 12.766454 63
-16.761511 53.600384 12.776761 63
-16.557253 53.559185 12.765008 63
-16.451218 53.565033 12.765106 63
-7.204505 13.574257 3.650742 5
-7.094026 13.170440 3.558924 5
-6.994203 12.818145 3.478861 78
-6.754101 13.241019 3.576610 15
-6.681918 13.225861 3.573736 30
-6.634824 13.223288 3.573581 30
-6.590879 13.247679 3.579605 30
-26.952896 52.794029 15.038495 63
-26.511042 52.762283 15.002146 63
-17.954956 51.822033 14.369625 50
-17.747375 51.755905 14.346867 63
-17.554935 51.749199 14.340124 63
-17.380671 51.777393 14.343086 63
-17.188492 51.769333 14.336335 63
-16.824215 53.564167 14.796664 50
-16.622581 53.534988 14.785074 63
-16.514174 53.529602 14.781611 63
-6.703230 13.259231 4.076115 25
-6.651427 13.218327 4.065514 25
-6.607952 13.246391 4.073233 50
-6.565596 13.285842 4.084014 50
1.360710 -1.310731 0.010515 1
1.358949 -1.318364 0.009414 1
1.374261 -1.341795 0.002499 1
1.383742 -1.360063 -0.002482 1
1.364782 -1.351891 0.002228 1
1.359778 -1.357165 0.002085 1
1.343738 -1.351482 0.005828 1
1.350193 -1.367160 0.001811 1
1.345615 -1.371884 0.001680 1
1.310130 -1.347132 0.012220 1
1.322284 -1.367983 0.006266 1
1.295319 -1.351103 0.013898 1
1.318140 -1.383175 0.004048 1
1.299522 -1.374343 0.008768 1
1.305635 -1.390131 0.004742 1
1.325053 -1.420010 -0.004155 1
1.333648 -1.438730 -0.009160 1
1.290642 -1.404768 0.004316 1
1.285940 -1.409295 0.004183 1
1.275593 -1.408453 0.005989 1
1.268198 -1.410126 0.006829 1
1.263229 -1.414812 0.006689 1
1.268892 -1.430770 0.002651 1
1.247776 -1.413329 0.009400 1
1.256153 -1.437288 0.003340 1
1.232915 -1.421756 0.010030 1
1.233404 -1.431807 0.007945 1
1.222882 -1.430865 0.009747 1
1.214988 -1.432742 0.010573 1
1.223157 -1.451445 0.005557 1
1.207968 -1.444173 0.009327 1
1.218061 -1.466291 0.003316 1
1.194962 -1.450417 0.010010 1
1.210270 -1.478216 0.002048 1
1.184986 -1.459041 0.009729 1
1.182122 -1.466594 0.008600 1
1.182000 -1.476875 0.006499 1
1.161734 -1.463524 0.012224 1
1.164341 -1.476516 0.009150 1
1.171596 -1.495704 0.004109 1
1.183693 -1.520922 -0.002893 1
1.178338 -1.525311 -0.003043 1
1.163397 -1.517473 0.000734 1
1.136009 -1.494734 0.009406 1
1.133186 -1.501973 0.008279 1
1.123041 -1.500141 0.010093 1
1.163700 -1.561923 -0.008695 1
1.112700 -1.503368 0.010853 1
1.114343 -1.521769 0.006704 1
1.115875 -1.535296 0.003602 1
1.110470 -1.539450 0.003451 1
1.088503 -1.522071 0.010179 1
1.095183 -1.541333 0.005123 1
1.080386 -1.533057 0.008904 1
1.074990 -1.537088 0.008754 1
1.067258 -1.537994 0.009588 1
1.064156 -1.545092 0.008454 1
1.067917 -1.561550 0.004365 1
1.064710 -1.568666 0.003228 1
1.046662 -1.555387 0.008492 1
1.044863 -1.563821 0.006870 1
1.050642 -1.583489 0.001790 1
1.036089 -1.574774 0.005579 1
1.026079 -1.572314 0.007399 1
1.024992 -1.582505 0.005273 1
1.021636 -1.589525 0.004132 1
1.022647 -1.602921 0.001016 1
1.005778 -1.590947 0.005790 1
0.995824 -1.588303 0.007611 1
0.990236 -1.592038 0.007456 1
0.982759 -1.592348 0.008298 1
0.986411 -1.603868 0.005255 1
0.984628 -1.618935 0.002063 1
0.978933 -1.622630 0.001906 1
0.969002 -1.619805 0.003728 1
0.963304 -1.623446 0.003572 1
0.957593 -1.627067 0.003414 1
0.959141 -1.642118 -0.000210 1
0.950266 -1.640806 0.001118 2
0.934222 -1.627952 0.005915 2
0.930826 -1.634588 0.004774 1
0.925076 -1.638096 0.004617 1
0.917294 -1.638277 0.005451 1
0.921577 -1.658304 0.000331 1
0.907755 -1.648497 0.004142 1
0.894014 -1.638615 0.007955 1
0.902071 -1.665333 0.000844 1
0.890326 -1.658717 0.003665 1
0.882542 -1.658735 0.004499 1
0.872830 -1.655366 0.006329 1
0.865081 -1.655310 0.007164 1
0.865300 -1.668526 0.004028 1
0.865442 -1.681761 0.000890 1
0.844090 -1.658161 0.008686 1
0.843902 -1.671527 0.005539 1
0.842545 -1.676682 0.004455 1
0.835849 -1.684713 0.003225 1
0.829926 -1.687889 0.003064 1
0.826122 -1.694299 0.001913 1
0.812876 -1.683767 0.005741 1
0.810576 -1.693712 0.003584 1
0.801025 -1.689938 0.005418 1
0.797167 -1.696276 0.004267 1
0.790905 -1.699468 0.004096 1
0.786692 -1.705936 0.002935 1
0.775444 -1.698575 0.005771 1
0.781942 -1.725618 -0.001382 1
0.768969 -1.714738 0.002454 1
0.764958 -1.721005 0.001298 1
0.751245 -1.708281 0.005638 1
0.746930 -1.714645 0.004474 1
0.743420 -1.722746 0.002809 1
0.734865 -1.720355 0.004147 2
0.725509 -1.716175 0.005988 2
0.722760 -1.725980 0.003820 1
0.718323 -1.732273 0.002653 1
0.712234 -1.735039 0.002488 1
0.706135 -1.737782 0.002324 1
0.687585 -1.712138 0.010197 1
0.692513 -1.731128 0.005096 1
0.688089 -1.745752 0.001837 1
0.677284 -1.737776 0.004685 1
0.669937 -1.736718 0.005534 1
0.663067 -1.737537 0.005872 1
0.654985 -1.734640 0.007224 1
0.662149 -1.769405 -0.002002 1
0.639183 -1.732816 0.008892 1
0.641983 -1.756765 0.002688 1
0.632870 -1.752100 0.004536 1
0.628478 -1.758031 0.003371 1
0.618273 -1.749587 0.006236 1
0.623274 -1.780893 -0.002001 1
0.614177 -1.776124 -0.000153 1
0.607935 -1.778525 -0.000320 1
0.596418 -1.766344 0.003557 1
0.595741 -1.783145 -0.000647 1
0.589788 -1.785365 -0.000807 1
0.586231 -1.794930 -0.002995 1
0.573198 -1.779088 0.001888 1
0.560283 -1.763179 0.006774 1
0.555407 -1.769031 0.005597 2
0.547230 -1.765764 0.006948 2
0.550734 -1.795285 -0.000806 2
0.545649 -1.790904 0.000627 2
0.529862 -1.775859 0.005437 1
0.528647 -1.792607 0.001219 1
0.520798 -1.789109 0.002579 2
0.518821 -1.804024 -0.001136 2
0.513701 -1.809765 -0.002319 1
0.496493 -1.778725 0.006639 1
0.495014 -1.795439 0.002414 1
0.488706 -1.797425 0.002246 1
0.487059 -1.814144 -0.001983 1
0.471453 -1.786558 0.005971 1
0.465176 -1.788462 0.005804 2
0.463406 -1.805146 0.001572 2
0.462640 -1.825543 -0.003679 1
0.449930 -1.805074 0.002260 1
0.438452 -1.788254 0.007185 2
0.438318 -1.812424 0.000905 2
0.427694 -1.799335 0.004807 1
0.421689 -1.800999 0.004648 1
0.415679 -1.802642 0.004488 1
0.406267 -1.793163 0.007376 1
0.403008 -1.806038 0.004152 1
0.398664 -1.815175 0.001944 1
0.392287 -1.816824 0.001775 1
0.391059 -1.825123 -0.000350 1
0.379518 -1.820056 0.001437 2
0.369332 -1.806640 0.005351 2
0.364856 -1.815692 0.003141 1
0.360322 -1.824735 0.000929 1
0.359689 -1.848728 -0.005364 1
0.341993 -1.803217 0.007243 1
0.337425 -1.812199 0.005030 1
0.331494 -1.815519 0.004350 1
0.328116 -1.830131 0.000600 2
0.320844 -1.827760 0.001454 2
0.310272 -1.810256 0.006405 2
0.305228 -1.819222 0.004180 2
0.300445 -1.828110 0.001962 1
0.294024 -1.829416 0.001792 1
0.289476 -1.838211 -0.000419 1
0.281491 -1.831899 0.001462 1
0.274251 -1.827389 0.002840 2
0.267143 -1.826766 0.003176 2
0.261814 -1.833653 0.001467 2
0.255729 -1.836724 0.000784 2
0.249252 -1.835916 0.001137 2
0.239034 -1.816120 0.006620 2
0.236688 -1.840052 0.000283 1
0.232127 -1.832981 0.002255 1
0.222792 -1.836480 0.001487 2
0.218555 -1.850862 -0.002285 2
0.209580 -1.836621 0.001663 1
0.204665 -1.845196 -0.000558 1
0.196134 -1.830843 0.003402 1
0.190575 -1.837517 0.001688 1
0.183272 -1.832705 0.003065 2
0.178496 -1.845077 -0.000198 2
0.171477 -1.842131 0.000664 1
0.164481 -1.839159 0.001527 1
0.158535 -1.843821 0.000325 1
0.150310 -1.831220 0.003771 1
0.141202 -1.810918 0.009284 1
0.138156 -1.838515 0.001884 1
0.132620 -1.846929 -0.000352 1
0.126357 -1.849568 -0.001039 1
0.118669 -1.836794 0.002421 1
0.111378 -1.829784 0.004322 1
0.106988 -1.849642 -0.001022 1
0.100886 -1.854117 -0.002227 1
0.093996 -1.850881 -0.001361 1
0.085663 -1.832237 0.003651 1
0.092472 1.881390 0.006300 1
0.099774 1.888485 0.004436 1
0.105519 1.880160 0.006634 1
0.110377 1.864124 0.010860 2
0.118557 1.878839 0.006967 2
0.124188 1.870456 0.009162 1
0.125185 1.850886 0.014315 1
0.137158 1.869005 0.009493 1
0.144605 1.875924 0.007633 1
0.148877 1.857868 0.012356 2
0.155829 1.860903 0.011508 2
0.160975 1.850492 0.014203 1
0.171949 1.882226 0.005766 1
0.178476 1.881346 0.005933 1
0.179371 1.842152 0.016210 1
0.194402 1.898651 0.001211 1
0.198891 1.886265 0.004402 1
0.202698 1.870046 0.008600 1
0.211642 1.884343 0.004726 1
0.218176 1.883323 0.004892 1
0.223749 1.874594 0.007085 1
0.225980 1.846776 0.014319 1
0.238083 1.880073 0.005398 1
0.242913 1.871397 0.007572 1
0.249402 1.870268 0.007736 1
0.249515 1.834865 0.016967 2
0.263089 1.871747 0.007058 2
0.269212 1.868647 0.007726 2
0.277561 1.876923 0.005374 2
0.278741 1.849102 0.012581 4
0.284634 1.861759 0.009142 4
0.293921 1.857944 0.009890 5
0.300763 1.858531 0.009550 5
0.308834 1.864771 0.007704 3
0.313232 1.853956 0.010378 3
0.317139 1.841243 0.013553 2
0.325229 1.847409 0.011707 2
0.335100 1.861088 0.007855 2
0.338033 1.844554 0.012030 2
0.345893 1.850703 0.010178 2
0.347782 1.830390 0.015352 2
0.357801 1.843943 0.011504 2
0.363262 1.838654 0.012667 2
0.375304 1.859639 0.006819 1
0.376483 1.837410 0.012487 1
0.385765 1.847063 0.009645 3
0.393153 1.849181 0.008806 3
0.401059 1.853142 0.007467 1
0.409503 1.858940 0.005629 1
0.411855 1.842288 0.009789 2
0.417205 1.836838 0.010949 2
0.422523 1.831372 0.012107 7
0.429402 1.831479 0.011768 7
0.438439 1.839003 0.009432 1
0.449198 1.864136 0.002526 1
0.450080 1.831645 0.010749 1
0.455872 1.827938 0.011407 1
0.467523 1.844693 0.006573 3
0.473667 1.840833 0.007240 3
0.473707 1.818558 0.012878 2
0.485839 1.835097 0.008057 2
0.492200 1.833120 0.008216 1
0.494103 1.816277 0.012364 1
0.504615 1.827159 0.009039 2
0.508806 1.819703 0.010681 2
0.512953 1.812238 0.012322 2
0.523898 1.822907 0.009008 2
0.529275 1.817027 0.010168 1
0.541599 1.833313 0.005351 1
0.545715 1.825765 0.006991 2
0.540405 1.790706 0.016082 2
0.552487 1.804956 0.011771 1
0.561379 1.810035 0.009943 1
0.572977 1.822352 0.006133 1
0.572573 1.801899 0.011247 1
0.574747 1.788730 0.014375 1
0.581630 1.788256 0.014034 1
0.589209 1.789566 0.013198 3
0.601334 1.811919 0.006838 3
0.600900 1.783065 0.014000 6
0.608498 1.784293 0.013164 6
0.621842 1.799896 0.008372 2
0.628079 1.797445 0.008527 2
0.636494 1.800360 0.007198 2
0.633178 1.774547 0.013777 2
0.644515 1.784591 0.010471 2
0.652941 1.787426 0.009143 2
0.660641 1.788438 0.008309 1
0.671397 1.796550 0.005501 1
0.668429 1.772562 0.011575 3
0.671482 1.762838 0.013700 3
0.678062 1.762121 0.013350 2
0.692011 1.777199 0.008572 2
0.706864 1.793972 0.003304 2
0.697942 1.757651 0.012817 2
0.705637 1.758463 0.011982 1
0.716583 1.766290 0.009178 1
0.716182 1.749438 0.013266 1
0.725527 1.753682 0.011448 1
0.734912 1.757883 0.009630 2
0.734334 1.741035 0.013713 2
0.745402 1.748677 0.010912 2
0.745062 1.740255 0.012953 2
0.760914 1.749859 0.009245 2
0.757540 1.727798 0.014796 2
0.764089 1.726756 0.014445 4
0.771809 1.727275 0.013610 4
0.774289 1.717382 0.015719 6
0.785528 1.724760 0.012922 6
0.786176 1.711396 0.016011 7
0.792103 1.708371 0.016156 7
0.799819 1.708762 0.015321 9
0.811171 1.715978 0.012526 9
0.822286 1.723292 0.009725 8
0.814788 1.694360 0.017223 8
0.825273 1.699762 0.014919 11
0.829301 1.693198 0.016042 11
0.842648 1.703613 0.012271 9
0.846665 1.697001 0.013393 9
0.846858 1.683613 0.016470 9
0.853641 1.682066 0.016124 9
0.855630 1.672064 0.018220 12
0.871068 1.685621 0.013476 12
0.877876 1.683980 0.013130 11
0.873941 1.663880 0.018154 11
0.881667 1.663894 0.017318 11
0.882578 1.658877 0.018364 11
0.901130 1.670484 0.013696 7
0.918913 1.687003 0.007984 7
0.916419 1.670422 0.012019 6
0.918157 1.660323 0.014109 6
0.923619 1.657013 0.014241 5
0.946736 1.681533 0.006100 5
0.943305 1.663146 0.010623 9
0.942111 1.647907 0.014177 9
0.943940 1.637610 0.016269 10
0.954839 1.642205 0.013974 10
0.956317 1.632073 0.016056 9
0.966969 1.636770 0.013755 9
0.965978 1.623559 0.016802 12
0.971878 1.619725 0.016944 12
0.981780 1.622517 0.015136 11
0.986317 1.617199 0.015757 11
0.991634 1.613663 0.015885 12
0.998589 1.611340 0.015541 12
1.004166 1.607575 0.015675 11
1.010832 1.605388 0.015324 11
1.015280 1.599988 0.015942 9
1.021930 1.597754 0.015591 9
1.022985 1.587566 0.017662 12
1.029098 1.590394 0.016274 12
1.043850 1.594242 0.013559 9
1.051912 1.593271 0.012729 9
1.057426 1.589321 0.012861 10
1.060633 1.582219 0.013961 10
1.062381 1.573751 0.015537 11
1.075923 1.580672 0.012281 11
1.086041 1.582854 0.010476 8
1.089455 1.575481 0.011581 8
1.087868 1.562124 0.014612 7
1.097986 1.564216 0.012807 7
1.105495 1.563387 0.011964 2
1.120416 1.571521 0.008228 2
1.106476 1.543062 0.016078 1
1.124078 1.553971 0.011384 1
1.122224 1.540640 0.014408 1
1.136025 1.547065 0.011156 1
1.142592 1.544335 0.010801 2
1.150376 1.543087 0.009963 2
1.143453 1.523746 0.014912 1
1.156111 1.528479 0.012144 1
1.151505 1.512196 0.016125 1
1.170395 1.524310 0.010949 1
1.178161 1.522922 0.010111 1
1.180796 1.520729 0.010173 1
1.178622 1.502291 0.014211 2
1.183557 1.498119 0.014328 2
1.201150 1.508637 0.009631 1
1.209173 1.506875 0.008798 1
1.209273 1.496530 0.010845 1
1.191361 1.465801 0.019623 1
1.219350 1.487741 0.011083 1
1.220873 1.478635 0.012652 1
1.219496 1.466876 0.015174 1
1.228476 1.466660 0.013852 1
1.239831 1.469498 0.011564 2
1.234411 1.453448 0.015524 2
1.236800 1.446010 0.016602 1
1.241799 1.441415 0.016719 1
1.249436 1.439636 0.015876 1
1.264821 1.446530 0.012150 1
1.272245 1.444889 0.011301 1
1.277489 1.439934 0.011424 1
1.282466 1.435197 0.011540 1
1.290130 1.433232 0.010697 1
1.270665 1.403444 0.019437 1
1.286406 1.409808 0.015718 1
1.307427 1.421840 0.010079 1
1.307149 1.416666 0.011094 1
1.322985 1.417379 0.008398 1
1.311074 1.396340 0.014249 1
1.321198 1.397174 0.012441 1
1.314908 1.381433 0.016380 1
1.328047 1.384676 0.013621 1
1.360812 1.406701 0.004169 1
1.351635 1.388254 0.009062 1
1.336949 1.364293 0.015869 1
1.336009 1.354021 0.017889 1
1.389137 1.393947 0.001761 1
1.351269 1.349162 0.016199 1
1.390186 1.375778 0.004847 1
1.380384 1.357782 0.009725 1
1.419545 1.384065 -0.001622 1
1.372455 1.331947 0.015666 1
1.385727 1.334664 0.012909 1
1.372938 1.314042 0.018739 1
1.403654 1.332145 0.010259 1
1.419693 1.337489 0.006545 1
1.403829 1.314372 0.013324 1
1.428683 1.327273 0.006750 1
1.411415 1.302735 0.014007 1
1.415912 1.297532 0.014110 1
1.412463 1.289626 0.016071 1
1.421882 1.284575 0.015266 1
1.453127 1.301779 0.006797 1
1.457397 1.296699 0.006894 1
1.438126 1.271282 0.014615 1
1.451528 1.273374 0.011860 1
1.486058 1.292554 0.002446 1
1.535620 1.324001 -0.011726 1
1.540191 1.318367 -0.011622 1
1.505241 1.281238 0.000841 1
1.488334 1.258833 0.007595 1
1.523231 1.277365 -0.001812 1
1.527639 1.271773 -0.001712 1
1.495164 1.237617 0.009787 1
1.500973 1.233306 0.009408 1
1.505228 1.227792 0.009503 1
1.509463 1.222262 0.009598 1
1.541409 1.238027 0.001144 1
1.555018 1.239350 -0.001608 1
1.524966 1.208179 0.008926 1
1.594836 1.250975 -0.010905 1
1.599152 1.245134 -0.010808 1
1.524828 1.182209 0.012997 1
1.550973 1.192514 0.006450 1
1.556188 1.191938 0.005548 1
1.568683 1.187872 0.003789 1
1.566426 1.177644 0.005775 1
1.535461 1.147393 0.016288 1
1.564950 1.159493 0.008796 1
1.575346 1.158168 0.006990 1
1.595173 1.163660 0.002339 1
1.576485 1.142816 0.009051 1
1.590088 1.143559 0.006297 1
1.568196 1.120434 0.013956 1
1.555872 1.103929 0.018772 1
1.592117 1.119623 0.009394 1
1.661007 1.156367 -0.009443 1
1.632402 1.129120 0.000103 1
1.603628 1.102086 0.009645 1
1.590868 1.086030 0.014452 1
1.676624 1.132306 -0.009102 1
1.688648 1.113272 -0.008841 1
1.692291 1.107414 -0.008763 1
1.695915 1.101543 -0.008684 1
1.699897 1.095040 -0.008598 1
1.667844 1.050333 0.003919 1
1.647817 1.030762 0.010600 1
1.651187 1.025037 0.010672 1
1.637890 1.009269 0.015466 1
1.664964 1.016818 0.008935 1
1.644985 0.996973 0.015617 1
1.682268 1.010060 0.006258 1
1.668611 0.994726 0.011043 1
1.695647 1.002149 0.004512 1
1.658407 0.973139 0.015901 1
1.661753 0.967075 0.015972 1
1.682167 0.970260 0.011329 1
1.668217 0.955219 0.016108 1
1.688652 0.958266 0.011465 1
1.698819 0.955731 0.009650 1
1.767623 0.975267 -0.007162 1
1.726049 0.945677 0.005149 1
1.711989 0.930536 0.009924 1
1.690908 0.911991 0.016581 1
1.711412 0.914537 0.011939 1
1.697151 0.899628 0.016710 1
1.717517 0.902345 0.012065 1
1.719069 0.899212 0.012097 1
1.706202 0.881312 0.016895 1
1.733754 0.886876 0.010373 1
1.799973 0.910656 -0.006496 1
1.803100 0.904101 -0.006432 1
1.806203 0.897535 -0.006369 1
1.809284 0.890959 -0.006307 1
1.741689 0.851897 0.012557 1
1.762303 0.853602 0.007916 1
1.743967 0.837582 0.013614 1
1.718444 0.818526 0.021190 1
1.788794 0.842171 0.003393 1
1.827286 0.851278 -0.005945 1
1.833102 0.837968 -0.005830 19
1.746561 0.793169 0.017707 1
1.838825 0.824618 -0.005717 1
1.751839 0.780739 0.017811 1
1.844314 0.811563 -0.005609 1
1.847095 0.804854 -0.005555 1
1.785010 0.771791 0.011396 1
1.762401 0.755130 0.018017 1
1.801110 0.763091 0.008682 1
1.857983 0.777922 -0.005344 1
1.800524 0.732635 0.011694 19
1.868495 0.750841 -0.005144 1
1.800679 0.710236 0.013710 1
1.876255 0.730094 -0.004997 1
1.878751 0.723274 -0.004951 1
1.881223 0.716445 -0.004905 1
1.883550 0.709950 -0.004862 1
1.885976 0.703105 -0.004817 1
1.888378 0.696251 -0.004773 1
1.890638 0.689732 -0.004731 1
1.845007 0.666954 0.007493 1
1.828963 0.653723 0.012222 1
1.897747 0.668753 -0.004603 1
1.900029 0.661858 -0.004562 1
1.835584 0.633731 0.012341 1
1.904409 0.648391 -0.004484 1
1.908807 0.634548 -0.004407 19
1.910970 0.627615 -0.004369 1
1.846152 0.600261 0.012526 1
1.877882 0.602856 0.005068 1
1.916166 0.610597 -0.004279 1
1.919173 0.600505 -0.004228 1
1.921216 0.593535 -0.004193 1
1.857870 0.560537 0.012725 19
1.927202 0.572586 -0.004093 1
1.861656 0.547018 0.012787 1
1.931070 0.558585 -0.004030 1
1.839051 0.526432 0.019399 1
1.810755 0.511800 0.026914 1
1.899053 0.527738 0.005418 1
1.900843 0.520839 0.005446 1
1.872447 0.506305 0.012960 1
1.874077 0.499839 0.012985 1
1.894653 0.497666 0.008333 1
1.945477 0.502676 -0.003804 1
1.879084 0.479383 0.013061 1
1.910995 0.479663 0.005601 1
1.882383 0.465376 0.013109 1
1.952219 0.474045 -0.003705 1
1.953821 0.466962 -0.003682 1
1.879357 0.443506 0.015045 1
1.839042 0.427623 0.025354 1
1.821463 0.416883 0.030049 1
1.913496 0.432844 0.007614 1
1.866082 0.412574 0.019799 1
1.962771 0.425058 -0.003561 1
1.968347 0.396548 -0.003491 19
1.969679 0.389408 -0.003476 1
1.970986 0.382264 -0.003460 1
1.903334 0.362911 0.013382 1
1.877725 0.351344 0.019940 1
1.924911 0.352336 0.008734 1
1.899234 0.340880 0.015290 1
1.907993 0.335577 0.013431 1
1.882227 0.324361 0.019985 1
1.929422 0.324707 0.008778 1
1.911279 0.314775 0.013461 1
1.904580 0.307035 0.015339 1
1.886406 0.296977 0.020022 1
1.906645 0.292849 0.015356 1
1.984669 0.296567 -0.003331 1
1.985652 0.289371 -0.003325 1
1.948047 0.277118 0.006028 1
1.910338 0.265475 0.015379 1
1.930072 0.264437 0.010708 1
1.892799 0.248923 0.020061 1
1.893616 0.242046 0.020064 1
1.913732 0.237358 0.015393 1
1.895141 0.228627 0.020068 1
1.895851 0.222086 0.020070 1
1.885003 0.213657 0.022874 1
1.936009 0.211819 0.010724 1
1.994768 0.210374 -0.003296 1
1.898633 0.194177 0.020068 1
1.864394 0.184172 0.028478 1
1.888236 0.179385 0.022868 1
1.900439 0.173479 0.020061 1
1.939766 0.169625 0.010711 1
1.917037 0.160836 0.016314 1
1.886512 0.151651 0.023786 1
1.886990 0.144796 0.023781 1
1.922352 0.140549 0.015363 1
1.942222 0.134409 0.010682 1
1.923225 0.126240 0.015348 1
1.923596 0.119607 0.015340 1
1.923944 0.112973 0.015332 1
1.920418 0.105455 0.016256 1
1.963475 0.100363 0.005964 1
1.924784 0.094811 0.015306 1
1.925181 0.084679 0.015289 1
1.905990 0.077037 0.019952 1
1.906197 0.070461 0.019940 1
1.953045 0.064790 0.008708 1
1.906562 0.056615 0.019913 1
1.926150 0.050078 0.015224 1
1.906830 0.042767 0.019884 1
1.887484 0.035590 0.024543 1
1.938114 0.029212 0.012372 1
1.907051 0.021992 0.019835 1
1.926522 0.015115 0.015142 1
1.953748 0.008097 0.008578 1
1.934279 0.001095 0.013234 1
1.934231 -0.005924 0.013215 1
1.906941 -0.012289 0.019742 1
1.887403 -0.018929 0.024398 1
1.926170 -0.026490 0.015024 1
1.953236 -0.034423 0.008453 1
1.937513 -0.041116 0.012172 1
1.956755 -0.048704 0.007471 1
1.906013 -0.053831 0.019610 1
1.886340 -0.060063 0.024263 1
2.002663 -0.071454 -0.003830 1
1.905369 -0.071132 0.019548 1
1.889371 -0.080798 0.023252 1
1.904575 -0.088428 0.019482 1
1.904234 -0.094998 0.019456 1
1.931031 -0.103438 0.012877 1
2.000518 -0.114249 -0.003997 1
1.949588 -0.118677 0.008138 1
1.949122 -0.125749 0.008108 1
1.940873 -0.132275 0.009949 1
1.948143 -0.139534 0.008046 1
1.901047 -0.143370 0.019247 1
1.916001 -0.151522 0.015470 1
1.946423 -0.161082 0.007946 1
1.899351 -0.163729 0.019150 1
1.918061 -0.172734 0.014432 1
1.925150 -0.180428 0.012523 1
1.928373 -0.187444 0.011553 1
1.916096 -0.192918 0.014328 1
1.934673 -0.202248 0.009605 1
1.922279 -0.208360 0.012376 1
1.913771 -0.214470 0.014212 1
1.878204 -0.217400 0.022606 1
1.939219 -0.231227 0.007576 1
1.911385 -0.234608 0.014097 1
1.910953 -0.238078 0.014077 1
1.905673 -0.248676 0.014948 1
1.908655 -0.255761 0.013971 1
1.888494 -0.259717 0.018618 1
1.902941 -0.268730 0.014825 1
1.863460 -0.270120 0.024158 1
1.885550 -0.280284 0.018488 1
1.884573 -0.286790 0.018446 1
1.868095 -0.291609 0.022150 1
1.882390 -0.300818 0.018353 1
1.938816 -0.317286 0.004233 1
1.906964 -0.319258 0.011690 1
1.867455 -0.319722 0.021024 1
1.866347 -0.326168 0.020979 1
1.861328 -0.332277 0.021869 1
1.875427 -0.341782 0.018066 1
1.889484 -0.351388 0.014261 1
1.857625 -0.352556 0.021720 1
1.871625 -0.362206 0.017914 1
1.870310 -0.369006 0.017862 1
1.868971 -0.375800 0.017810 1
1.867608 -0.382590 0.017757 1
1.881460 -0.392487 0.013946 1
1.864883 -0.395817 0.017652 1
1.848948 -0.396018 0.021382 1
1.846790 -0.406096 0.021300 1
1.860515 -0.416128 0.017486 1
1.877990 -0.427104 0.012730 1
1.830938 -0.423650 0.023951 1
1.871172 -0.439530 0.013557 1
1.880947 -0.448972 0.010678 1
1.947433 -0.471911 -0.006305 1
1.945734 -0.478972 -0.006368 1
1.868467 -0.467605 0.012378 1
1.874332 -0.476260 0.010436 1
1.891472 -0.487804 0.005670 1
1.863348 -0.487949 0.012193 1
1.831483 -0.486930 0.019657 1
1.841014 -0.496548 0.016771 1
1.824202 -0.499242 0.020472 1
1.826163 -0.506888 0.019467 1
1.835593 -0.516604 0.016579 1
1.818846 -0.518792 0.020283 1
1.813336 -0.524025 0.021162 1
1.830153 -0.535936 0.016388 1
1.873059 -0.555503 0.005017 1
1.871070 -0.562305 0.004948 1
1.842960 -0.561386 0.011474 1
1.808424 -0.554760 0.019919 1
1.820316 -0.569135 0.016047 1
1.844293 -0.583739 0.009378 1
1.860766 -0.596209 0.004593 1
1.906840 -0.618131 -0.007737 1
1.833729 -0.616840 0.009019 1
1.842600 -0.627156 0.006114 1
1.847736 -0.636311 0.004152 1
1.827049 -0.636811 0.008794 1
1.817418 -0.640942 0.010606 1
1.796645 -0.641535 0.015245 1
1.794356 -0.648071 0.015169 1
1.792160 -0.654273 0.015096 1
1.789943 -0.660467 0.015023 1
1.805870 -0.673571 0.010222 1
1.799817 -0.678807 0.011087 1
1.782809 -0.679978 0.014787 1
1.780386 -0.686466 0.014708 1
1.868881 -0.727168 -0.009003 1
1.811800 -0.713230 0.005093 1
1.783738 -0.710383 0.011625 1
1.788454 -0.719687 0.009651 1
1.754467 -0.710539 0.018118 1
1.750919 -0.719480 0.018002 1
1.780831 -0.738855 0.009404 1
1.785541 -0.747923 0.007431 1
1.847648 -0.780853 -0.009692 1
1.844872 -0.787564 -0.009781 1
1.775036 -0.773202 0.007093 1
1.772288 -0.779661 0.007005 1
1.780234 -0.790699 0.004075 1
1.741752 -0.781757 0.013460 1
1.721165 -0.780329 0.018110 1
1.758207 -0.811809 0.006557 1
1.818989 -0.847181 -0.010606 1
1.815982 -0.853791 -0.010701 1
1.707081 -0.811589 0.017664 1
1.721987 -0.825638 0.012835 1
1.736670 -0.840109 0.007998 1
1.751274 -0.854693 0.003159 1
1.730684 -0.852748 0.007810 1
1.682085 -0.837262 0.020058 1
1.707112 -0.856903 0.012368 1
1.721540 -0.871627 0.007524 1
1.737451 -0.883296 0.002727 1
1.697771 -0.875846 0.012077 1
1.694664 -0.882035 0.011981 1
1.709042 -0.896648 0.007136 1
1.740498 -0.920481 -0.002470 1
1.720111 -0.917641 0.002189 1
1.682183 -0.906375 0.011595 1
1.665191 -0.905323 0.015301 1
1.661982 -0.911398 0.015202 1
1.672644 -0.924438 0.011301 1
1.686499 -0.939698 0.006441 1
1.679750 -0.944003 0.007291 1
1.652513 -0.937141 0.013855 1
1.628752 -0.931969 0.019468 1
1.655884 -0.955130 0.010788 1
1.621961 -0.944151 0.019261 1
1.635550 -0.959591 0.014393 1
1.618801 -0.957607 0.018108 1
1.628905 -0.971224 0.014191 1
1.679515 -1.007867 -0.001167 1
1.649064 -0.998401 0.006356 1
1.658945 -1.012260 0.002432 1
1.662056 -1.022255 0.000415 1
1.625040 -1.008483 0.009851 1
1.586557 -0.989571 0.020298 1
1.607904 -1.014320 0.012500 1
1.614271 -1.026248 0.009526 1
1.567586 -1.005761 0.021837 1
1.593770 -1.029865 0.013130 1
1.619806 -1.054161 0.004418 1
1.583173 -1.039439 0.013866 1
1.582780 -1.047302 0.012800 1
1.592180 -1.061435 0.008863 1
1.555740 -1.046275 0.018318 1
1.600959 -1.083606 0.003854 1
1.597128 -1.089455 0.003740 1
1.564059 -1.076105 0.012241 1
1.537770 -1.066544 0.018836 1
1.569549 -1.095864 0.008189 1
1.598117 -1.122959 -0.001501 1
1.578063 -1.117921 0.003173 1
1.558065 -1.112757 0.007848 1
1.553936 -1.118742 0.007725 1
1.537207 -1.115590 0.011444 1
1.546009 -1.130098 0.007491 1
1.542017 -1.135756 0.007373 1
1.553856 -1.152610 0.002456 1
1.549785 -1.158295 0.002336 1
1.547742 -1.161131 0.002276 1
1.500675 -1.140044 0.014578 1
1.499787 -1.147830 0.013499 1
1.505125 -1.160217 0.010498 1
1.497905 -1.163424 0.011339 1
1.509369 -1.180506 0.006412 1
1.492775 -1.176719 0.010136 1
1.501013 -1.191550 0.006167 1
1.512470 -1.208526 0.001241 1
1.508417 -1.213789 0.001122 1
1.476462 -1.197976 0.009659 1
1.505961 -1.229587 -0.001054 1
1.501622 -1.235103 -0.001180 1
1.491381 -1.235526 0.000625 1
1.470076 -1.227991 0.005790 1
1.444300 -1.216682 0.012403 1
1.461172 -1.239028 0.005531 1
1.456800 -1.244389 0.005404 1
1.440382 -1.239911 0.009135 1
1.433227 -1.242470 0.009979 1
1.464721 -1.277444 -0.001727 1
1.460215 -1.282816 -0.001857 1
1.449745 -1.283179 -0.000057 1
1.445218 -1.288499 -0.000188 1
1.442948 -1.291153 -0.000254 1
1.615812 -1.545205 0.008938 1
1.601725 -1.543166 0.011279 1
1.599163 -1.551672 0.010291 1
1.602289 -1.565510 0.007635 1
1.599631 -1.574037 0.006644 1
1.593811 -1.580170 0.006477 1
1.565568 -1.564424 0.012990 1
1.571362 -1.580970 0.009496 1
1.577340 -1.597287 0.006007 1
1.560489 -1.592152 0.009186 1
1.549569 -1.592104 0.010704 1
1.555117 -1.608746 0.007203 1
1.538339 -1.603420 0.010384 1
1.535464 -1.611811 0.009388 1
1.538069 -1.625746 0.006718 1
1.526562 -1.626088 0.008220 1
1.509880 -1.620507 0.011404 1
1.504176 -1.626036 0.011242 1
1.498740 -1.631270 0.011088 1
1.503841 -1.648039 0.007576 1
1.509137 -1.664586 0.004069 1
1.477711 -1.643150 0.011864 1
1.483995 -1.661379 0.007928 1
1.483751 -1.666952 0.007007 1
1.474945 -1.675100 0.006758 1
1.466694 -1.677362 0.007439 1
1.453161 -1.673821 0.009799 1
1.446977 -1.679417 0.009625 1
1.446014 -1.690796 0.007770 1
1.450809 -1.707480 0.004250 1
1.434696 -1.700858 0.007451 1
1.423230 -1.700528 0.008956 1
1.412086 -1.699878 0.010470 1
1.406106 -1.705065 0.010302 1
1.410651 -1.721794 0.006775 1
1.394091 -1.715376 0.009964 1
1.388057 -1.720500 0.009795 1
1.376947 -1.719638 0.011310 1
1.367422 -1.719964 0.012414 2
1.375171 -1.741491 0.007607 2
1.354055 -1.728502 0.012496 1
1.352952 -1.739519 0.010638 1
1.357051 -1.756349 0.007100 1
1.341005 -1.749211 0.010304 1
1.339767 -1.760233 0.008443 1
1.328684 -1.759066 0.009960 1
1.313974 -1.753257 0.012746 2
1.312109 -1.757213 0.012237 2
1.319731 -1.785989 0.006058 1
1.301123 -1.775675 0.010105 1
1.298467 -1.785113 0.008661 2
1.279094 -1.772849 0.013144 2
1.285026 -1.792879 0.008744 2
1.278722 -1.797621 0.008569 2
1.277100 -1.808592 0.006698 1
1.266065 -1.807041 0.008217 1
1.252730 -1.802295 0.010585 1
1.245236 -1.805351 0.010833 1
1.242346 -1.814690 0.009384 1
1.241702 -1.827196 0.007085 1
1.225324 -1.817283 0.010738 1
1.216663 -1.818637 0.011411 1
1.215923 -1.831111 0.009109 2
1.201610 -1.824427 0.011907 2
1.207511 -1.846499 0.007051 2
1.197679 -1.846154 0.008148 2
1.184540 -1.840935 0.010522 1
1.186564 -1.858454 0.006928 1
1.164678 -1.840210 0.012711 1
1.173485 -1.867228 0.006567 1
1.153136 -1.850244 0.011937 3
1.148804 -1.850761 0.012274 3
1.147964 -1.869997 0.008601 1
1.145667 -1.880804 0.006713 1
1.147563 -1.898174 0.003116 1
1.126088 -1.879434 0.008911 1
1.115276 -1.877036 0.010438 2
1.106588 -1.877885 0.011112 2
1.101028 -1.883659 0.010503 2
1.099581 -1.896047 0.008183 2
1.093252 -1.899937 0.008009 2
1.080437 -1.894024 0.010394 2
1.075816 -1.901388 0.009355 1
1.076215 -1.917100 0.006174 1
1.075512 -1.931163 0.003419 2
1.059729 -1.920068 0.007090 2
1.043044 -1.907206 0.011194 2
1.037331 -1.912789 0.010581 2
1.035520 -1.925110 0.008252 2
1.029733 -1.930674 0.007638 2
1.014217 -1.919267 0.011317 2
1.004917 -1.917779 0.012431 2
1.010984 -1.943478 0.006670 2
1.005720 -1.950862 0.005614 2
0.996973 -1.951212 0.006288 1
0.987543 -1.943009 0.008766 1
0.983250 -1.958661 0.005914 1
0.978228 -1.965786 0.004865 1
0.966129 -1.958947 0.007271 2
0.961999 -1.967749 0.005791 2
0.947798 -1.957544 0.009051 2
0.934585 -1.948995 0.011882 2
0.933478 -1.962740 0.009117 2
0.934275 -1.982061 0.005037 2
0.921992 -1.975140 0.007438 2
0.914173 -1.976872 0.007682 2
0.902326 -1.969673 0.010095 1
0.896277 -1.974828 0.009475 1
0.887098 -1.972790 0.010593 1
0.888739 -1.993689 0.006080 1
0.878334 -1.990017 0.007621 1
0.869655 -1.989819 0.008298 1
0.859312 -1.986058 0.009841 2
0.857331 -1.999911 0.007053 2
0.847828 -1.997853 0.008163 2
0.839172 -1.997525 0.008840 2
0.831343 -1.998936 0.009084 2
0.824322 -2.002095 0.008895 2
0.818445 -2.006853 0.008280 2
0.818916 -2.017320 0.006015 2
0.808285 -2.021983 0.005728 1
0.796486 -2.014331 0.008143 1
0.792875 -2.024379 0.006223 3
0.786537 -2.029197 0.005597 3
0.773649 -2.017681 0.008895 2
0.771518 -2.033376 0.005648 2
0.753495 -2.011252 0.011541 2
0.749415 -2.021355 0.009609 2
0.746752 -2.035067 0.006804 2
0.736298 -2.028743 0.008801 2
0.730258 -2.033240 0.008183 2
0.719159 -2.027115 0.010162 2
0.712041 -2.029882 0.009971 2
0.714116 -2.056270 0.004105 2
0.707959 -2.060703 0.003484 3
0.695160 -2.048841 0.006785 3
0.687637 -2.049564 0.007039 1
0.679075 -2.048564 0.007720 1
0.682709 -2.080480 0.000530 1
0.675405 -2.083118 0.000334 1
0.658135 -2.058204 0.006704 2
0.644992 -2.044221 0.010452 2
0.646929 -2.072484 0.004127 2
0.641349 -2.068222 0.005344 2
0.634921 -2.084863 0.001984 1
0.626339 -2.083643 0.002666 1
0.609381 -2.056391 0.009500 2
0.604639 -2.066176 0.007551 2
0.599836 -2.075953 0.005601 2
0.593154 -2.080158 0.004968 2
0.580455 -2.065774 0.008728 1
0.573796 -2.069915 0.008095 1
0.570050 -2.083339 0.005263 2
0.567379 -2.100487 0.001548 2
0.553695 -2.082211 0.006193 2
0.547521 -2.088133 0.005118 2
0.536827 -2.079089 0.007566 1
0.534330 -2.096076 0.003856 1
0.523503 -2.084987 0.006756 2
0.519608 -2.100293 0.003465 2
0.510096 -2.094858 0.005034 2
0.501525 -2.091161 0.006172 2
0.491940 -2.083671 0.008194 1
0.488753 -2.100694 0.004467 1
0.483417 -2.110187 0.002504 2
0.475508 -2.110246 0.002750 2
0.465125 -2.100843 0.005206 2
0.459468 -2.094237 0.006878 2
0.450854 -2.106467 0.004373 2
0.447748 -2.125318 0.000193 2
0.437471 -2.115779 0.002652 2
0.429582 -2.115667 0.002899 2
0.421158 -2.111647 0.004042 2
0.415098 -2.119066 0.002516 2
0.409435 -2.128367 0.000545 2
0.400655 -2.124350 0.001679 2
0.389327 -2.108886 0.005477 1
0.381926 -2.110501 0.005282 1
0.378272 -2.129234 0.001088 2
0.373706 -2.146140 -0.002675 2
0.359318 -2.115267 0.004685 2
0.353879 -2.126323 0.002265 2
0.347180 -2.129650 0.001633 2
0.340091 -2.133030 0.000991 2
0.332980 -2.134401 0.000804 2
0.324004 -2.130146 0.001933 2
0.314711 -2.121955 0.003965 2
0.312262 -2.150144 -0.002473 2
0.302290 -2.136080 0.000907 3
0.293763 -2.131634 0.002048 3
0.287632 -2.140595 0.000066 2
0.281540 -2.127783 0.003093 2
0.272281 -2.141166 0.000118 2
0.264768 -2.142372 -0.000079 2
0.257251 -2.143552 -0.000276 2
0.248282 -2.133095 0.002220 2
0.240874 -2.132236 0.002481 2
0.233683 -2.135260 0.001837 2
0.227327 -2.144045 -0.000151 2
0.221191 -2.154741 -0.002587 2
0.211466 -2.140326 0.000799 2
0.203956 -2.141320 0.000603 2
0.196185 -2.140355 0.000855 2
0.190178 -2.152893 -0.002034 2
0.182624 -2.153812 -0.002231 2
0.174120 -2.146967 -0.000633 2
0.166587 -2.147830 -0.000830 2
0.159051 -2.148668 -0.001027 2
0.149503 -2.128134 0.003731 2
0.145189 -2.157974 -0.003209 2
0.136805 -2.150984 -0.001608 2
0.128865 -2.147839 -0.000904 2
0.121329 -2.148544 -0.001101 2
0.114157 -2.153104 -0.002198 2
0.119066 2.175263 0.009260 1
0.125450 2.162917 0.012093 2
0.135571 2.187425 0.006568 2
0.143163 2.186669 0.006762 1
0.149036 2.170372 0.010472 1
0.157454 2.177323 0.008907 1
0.160334 2.169158 0.010761 1
0.172565 2.175632 0.009293 2
0.180116 2.174747 0.009486 2
0.186670 2.166094 0.011433 1
0.195208 2.172898 0.009871 1
0.202750 2.171933 0.010063 2
0.207601 2.151614 0.014636 2
0.217822 2.169926 0.010448 1
0.225635 2.170814 0.010202 1
0.231436 2.158163 0.013019 2
0.241207 2.174490 0.009264 2
0.245964 2.157996 0.012944 1
0.256536 2.176126 0.008764 1
0.264088 2.174948 0.008956 1
0.271369 2.169833 0.010031 1
0.280592 2.176236 0.008486 1
0.285419 2.161578 0.011722 1
0.293571 2.166129 0.010595 1
0.303876 2.180186 0.007297 1
0.314995 2.198036 0.003131 1
0.316108 2.162128 0.011166 1
0.320662 2.145407 0.014841 2
0.331109 2.159329 0.011547 2
0.343186 2.180863 0.006514 1
0.348512 2.187781 0.004870 1
0.350805 2.141553 0.015159 2
0.356226 2.130494 0.017521 2
0.370157 2.159511 0.010756 1
0.378481 2.161752 0.010077 1
0.387670 2.167773 0.008530 1
0.391335 2.148995 0.012626 1
0.398792 2.147346 0.012814 2
0.408894 2.157082 0.010400 2
0.414212 2.147857 0.012314 6
0.423484 2.153723 0.010768 6
0.434187 2.165243 0.007925 1
0.436083 2.140698 0.013310 1
0.441612 2.131317 0.015228 2
0.451894 2.140847 0.012819 2
0.467128 2.169239 0.006086 1
0.466743 2.137101 0.013193 1
0.476162 2.142739 0.011650 1
0.483089 2.138909 0.012269 1
0.493595 2.148243 0.009865 2
0.503652 2.155649 0.007894 2
0.510077 2.149848 0.008945 1
0.512197 2.129000 0.013446 1
0.523906 2.141943 0.010182 1
0.525448 2.133388 0.011999 1
0.538208 2.135822 0.010985 2
0.543938 2.128048 0.012463 2
0.547554 2.114761 0.015222 1
0.556403 2.116191 0.014554 1
0.573017 2.143810 0.007855 1
0.582799 2.148981 0.006321 1
0.587884 2.139220 0.008227 1
0.594477 2.133050 0.009281 1
0.597030 2.115837 0.012903 2
0.603391 2.111735 0.013506 2
0.614678 2.122437 0.010676 1
0.623658 2.123589 0.010011 1
0.635183 2.132097 0.007630 1
0.639658 2.122338 0.009521 1
0.641501 2.105195 0.013124 2
0.647503 2.098989 0.014163 2
0.663978 2.122205 0.008348 1
0.671340 2.119606 0.008532 1
0.671996 2.098627 0.012994 1
0.671163 2.074003 0.018309 1
0.686545 2.093346 0.013356 1
0.695183 2.094324 0.012682 1
0.702447 2.091616 0.012863 1
0.703283 2.082953 0.014662 1
0.728272 2.115261 0.006391 1
0.718469 2.068788 0.016817 1
0.741495 2.105956 0.007608 1
0.734262 2.066810 0.016320 1
0.742896 2.067588 0.015645 2
0.753025 2.071948 0.014118 2
0.767669 2.087099 0.010035 1
0.767386 2.066102 0.014474 1
0.774551 2.063141 0.014651 1
0.785529 2.069147 0.012700 1
0.795018 2.071511 0.011601 2
0.809973 2.086385 0.007526 2
0.810582 2.069108 0.011097 1
0.817758 2.065997 0.011274 1
0.820149 2.052150 0.014000 2
0.820850 2.034747 0.017573 2
0.835986 2.049396 0.013502 1
0.848792 2.058633 0.010707 1
0.843624 2.028779 0.017246 1
0.855618 2.036180 0.014875 1
0.862678 2.032911 0.015049 1
0.889861 2.071988 0.005052 1
0.876764 2.026301 0.015395 1
0.883671 2.031677 0.013787 1
0.901092 2.040672 0.010661 1
0.905577 2.031984 0.012104 1
0.928787 2.061980 0.004231 1
0.928933 2.044475 0.007790 1
0.921919 2.013034 0.014727 1
0.934223 2.019985 0.012363 1
0.938545 2.011227 0.013802 2
0.954514 2.025026 0.009750 2
0.953384 2.005821 0.013721 1
0.967631 2.016046 0.010515 1
0.981611 2.026382 0.007303 1
0.973283 1.993197 0.014652 1
0.985771 1.999838 0.012292 2
1.002997 2.014998 0.007826 2
0.996798 1.987229 0.013894 1
1.005582 1.986889 0.013220 1
1.031543 2.017234 0.004969 1
1.030859 1.999725 0.008506 1
1.037791 1.995846 0.008675 1
1.040823 1.985155 0.010525 1
1.051613 1.988015 0.009011 1
1.052604 1.973923 0.011700 1
1.057468 1.966595 0.012707 1
1.056909 1.957872 0.014470 1
1.059075 1.938469 0.018075 2
1.076868 1.952931 0.013622 2
1.092409 1.964151 0.010003 1
1.107362 1.973414 0.006813 1
1.105670 1.956147 0.010324 1
1.100095 1.932055 0.015518 1
1.119214 1.947843 0.010653 1
1.121095 1.935169 0.012918 1
1.137563 1.945629 0.009321 2
1.131667 1.921603 0.014506 2
1.151033 1.937103 0.009646 1
1.148895 1.919894 0.013146 1
1.155216 1.915819 0.013299 2
1.174019 1.929257 0.008869 2
1.164482 1.900434 0.015298 2
1.188461 1.922103 0.008774 2
1.199158 1.924386 0.007256 1
1.203962 1.916460 0.008259 1
1.203978 1.902290 0.010923 1
1.201691 1.884921 0.014419 1
1.201530 1.870805 0.017078 3
1.219220 1.882360 0.013065 3
1.225741 1.877825 0.013222 1
1.240288 1.891520 0.009133 1
1.238412 1.868914 0.013526 1
1.232634 1.846619 0.018269 1
1.265451 1.878455 0.008849 2
1.255799 1.851646 0.014830 2
1.259574 1.844064 0.015808 2
1.270621 1.845674 0.014297 2
