# .PCD v.7 - Point Cloud Data file format
VERSION .7
FIELDS x y z intensity
SIZE 4 4 4 1
TYPE F F F U
COUNT 1 1 1 1
WIDTH 1494
HEIGHT 1
VIEWPOINT 0 0 0 1 0 0 0
POINTS 1494
DATA ascii
13.398381 -12.050566 0.446864 23
13.309825 -12.064139 0.448345 21
13.229122 -12.086955 0.449505 23
13.154901 -12.114066 0.450459 26
13.087111 -12.145540 0.451205 26
12.987189 -12.152833 0.452996 19
12.909811 -12.176333 0.454059 18
12.842032 -12.206650 0.454811 15
12.761484 -12.226958 0.455981 18
12.684153 -12.249269 0.457048 18
12.603678 -12.268738 0.458222 18
12.532723 -12.295135 0.459084 20
12.455462 -12.316250 0.460156 18
12.371947 -12.332017 0.461439 22
12.291633 -12.349823 0.462620 22
12.226993 -12.379682 0.463278 20
12.156087 -12.404216 0.464147 20
12.087174 -12.425935 0.465027 22
12.005877 -12.437216 0.466327 22
11.925756 -12.453052 0.467515 22
11.867266 -12.486304 0.467970 24
11.793350 -12.506494 0.468951 25
11.728655 -12.534016 0.469619 25
11.651716 -12.550905 0.470708 21
11.574828 -12.567399 0.471799 21
11.506083 -12.586343 0.472690 21
11.444425 -12.615137 0.473258 25
11.373673 -12.635776 0.474142 21
11.300910 -12.658384 0.475020 23
11.221197 -12.670376 0.476223 25
11.158554 -12.692926 0.476910 23
11.084920 -12.709484 0.477906 21
11.023222 -12.736368 0.478482 21
10.949642 -12.752225 0.479480 21
10.873157 -12.765016 0.480585 21
10.808518 -12.788238 0.481270 21
10.746811 -12.813868 0.481851 21
10.679229 -12.833758 0.482644 29
10.626244 -12.867002 0.482911 32
10.541211 -12.869810 0.484340 24
10.475765 -12.886532 0.485144 24
10.416935 -12.913413 0.485626 24
10.352314 -12.934476 0.486319 22
10.284829 -12.952448 0.487120 22
10.223086 -12.975685 0.487710 24
10.147087 -12.984608 0.488831 24
10.088209 -13.010041 0.489318 22
10.029303 -13.035210 0.489806 22
9.961909 -13.051607 0.490613 22
9.897358 -13.070525 0.491316 24
9.832821 -13.089140 0.492019 24
9.768298 -13.107450 0.492724 24
9.705906 -13.123416 0.493437 24
9.646961 -13.146900 0.493932 22
9.587996 -13.170121 0.494428 22
9.520761 -13.184368 0.495243 24
9.459047 -13.204121 0.495847 22
9.394607 -13.220668 0.496559 24
9.330192 -13.236914 0.497272 22
9.268510 -13.255800 0.497880 22
9.214931 -13.283257 0.498170 22
9.150544 -13.298650 0.498886 24
9.091543 -13.319681 0.499391 24
9.024529 -13.331514 0.500216 24
8.968196 -13.354981 0.500617 24
8.911343 -13.373304 0.501131 26
8.844419 -13.384262 0.501960 24
8.792847 -13.408096 0.502263 26
8.728604 -13.421504 0.502988 28
8.674822 -13.446746 0.503287 24
8.616225 -13.470574 0.503687 24
8.556784 -13.484353 0.504314 22
8.492617 -13.496645 0.505043 22
8.426311 -13.510462 0.505767 24
8.367332 -13.528310 0.506284 24
8.313085 -13.547185 0.506702 24
8.254444 -13.569420 0.507109 26
8.202687 -13.590937 0.507422 26
8.143685 -13.607794 0.507943 24
8.084690 -13.624393 0.508466 24
8.027905 -13.638983 0.508995 26
7.966453 -13.651937 0.509627 22
7.907755 -13.672640 0.510040 24
7.843889 -13.681893 0.510780 28
7.787179 -13.695478 0.511314 31
7.733138 -13.716871 0.511629 33
7.676846 -13.739731 0.511939 35
7.624965 -13.758990 0.512261 33
7.573063 -13.778045 0.512583 22
7.511904 -13.793804 0.513111 24
7.452990 -13.807637 0.513644 31
7.410527 -13.838915 0.513541 36
7.351588 -13.852297 0.514076 36
7.283399 -13.857326 0.514929 36
7.233862 -13.883157 0.515038 26
7.177225 -13.894171 0.515581 26
7.125295 -13.916335 0.515799 26
7.071024 -13.935021 0.516124 28
7.012161 -13.946927 0.516666 31
6.955601 -13.961866 0.517101 29
6.901310 -13.979865 0.517429 28
6.849267 -13.996099 0.517763 28
6.794948 -14.013664 0.518094 28
6.736154 -14.024370 0.518640 29
6.684047 -14.044806 0.518864 26
6.627491 -14.058367 0.519305 31
6.575336 -14.078377 0.519531 28
6.525330 -14.101531 0.519650 28
6.468751 -14.114424 0.520093 31
6.414348 -14.130445 0.520429 31
6.359935 -14.146247 0.520767 29
6.305514 -14.161829 0.521105 31
6.257461 -14.187353 0.521121 31
6.198767 -14.195728 0.521676 33
6.146417 -14.214061 0.521909 31
6.087774 -14.221959 0.522466 33
6.041867 -14.245291 0.522490 31
5.989451 -14.263011 0.522725 28
5.935216 -14.272280 0.523182 31
5.880460 -14.290961 0.523415 29
5.832343 -14.310131 0.523549 28
5.777826 -14.323584 0.523896 31
5.722992 -14.341624 0.524131 35
5.672786 -14.356764 0.524376 33
5.622217 -14.376520 0.524509 29
5.571237 -14.400888 0.524531 29
5.514692 -14.409801 0.524990 31
5.467902 -14.435951 0.524910 28
5.409425 -14.440935 0.525479 28
5.358686 -14.459702 0.525616 31
5.310256 -14.477004 0.525758 33
5.255646 -14.488359 0.526113 30
5.202931 -14.503025 0.526361 21
-0.293607 -4.269913 0.840638 1
-0.317324 -4.250729 0.841378 2
-0.334117 -4.245925 0.841686 6
-0.363612 -4.216129 0.842751 3
-0.394687 -4.182601 0.843926 1
-0.438091 -4.123893 0.845859 1
-0.451964 -4.121900 0.846060 1
-0.471128 -4.109098 0.846587 1
-0.487743 -4.103911 0.846896 1
-0.502015 -4.101979 0.847097 0
-0.517452 -4.096123 0.847408 0
-0.530461 -4.097928 0.847500 0
-0.554896 -4.074124 0.848353 0
-0.570128 -4.068040 0.848665 0
-0.589735 -4.055130 0.849192 0
-0.600339 -4.060034 0.849178 0
-0.622050 -4.039196 0.849924 0
-0.632599 -4.043987 0.849911 0
-0.618643 -4.103478 0.848269 1
-0.630500 -4.104388 0.848364 4
-0.642886 -4.105489 0.848459 41
-0.716132 -4.023935 0.851245 0
-0.736499 -4.006526 0.851883 0
-0.744865 -4.014387 0.851763 0
-0.770655 -3.981820 0.852838 0
-0.770362 -4.011982 0.852065 0
-0.798899 -3.971812 0.853358 0
-0.813694 -3.964860 0.853673 0
-0.831387 -3.950413 0.854206 0
-0.835752 -3.969351 0.853760 0
-0.848966 -3.965949 0.853966 0
-0.852971 -3.984666 0.853521 0
-0.867101 -3.977252 0.853837 0
-0.891605 -3.943800 0.854915 0
-0.898119 -3.959075 0.854578 0
-0.902308 -3.977708 0.854133 0
-0.922799 -3.955435 0.854885 0
-0.924350 -3.981541 0.854222 0
-0.940103 -3.970225 0.854648 0
-0.954939 -3.962786 0.854965 0
-0.962053 -3.973781 0.854738 0
-0.965290 -3.996090 0.854185 0
-0.982702 -3.980955 0.854720 0
-0.990992 -3.992237 0.854493 0
-1.002646 -3.991950 0.854594 0
-1.011768 -3.999209 0.854476 0
-1.022901 -3.998670 0.854577 0
-1.038237 -3.986848 0.855005 0
-1.047900 -3.994162 0.854888 0
-1.067935 -3.966968 0.855752 0
-1.069881 -3.996920 0.854981 0
-1.080939 -3.996167 0.855083 0
-1.086146 -4.014496 0.854640 0
-1.104682 -3.990869 0.855396 0
-1.117857 -3.986465 0.855607 0
-1.117557 -4.023902 0.854619 0
-1.145268 -3.969509 0.856247 0
-1.150072 -3.991696 0.855696 0
-1.150152 -4.029130 0.854708 1
-1.161735 -4.028227 0.854811 5
-1.185478 -3.985011 0.856113 1
-1.193223 -3.995415 0.855889 1
-1.203095 -3.998074 0.855884 1
-1.210959 -4.012574 0.855551 1
-1.218875 -4.022913 0.855327 4
-1.237307 -3.994636 0.856195 1
-1.243778 -4.012787 0.855753 0
-1.254231 -4.015409 0.855748 0
-1.264692 -4.017994 0.855743 0
-1.275163 -4.020543 0.855738 1
-1.281414 -4.038489 0.855297 0
-1.294693 -4.029300 0.855620 0
-1.306627 -4.027969 0.855725 0
-1.317132 -4.030371 0.855721 0
-1.325033 -4.044444 0.855389 1
-1.332493 -4.058382 0.855058 1
-1.347853 -4.041265 0.855600 1
-1.356744 -4.051346 0.855378 1
-1.368963 -4.045745 0.855593 1
-1.376591 -4.059572 0.855263 1
-1.387996 -4.057810 0.855369 1
-1.398605 -4.059928 0.855366 1
-1.409983 -4.058084 0.855472 1
-1.418347 -4.071908 0.855142 1
-1.429740 -4.069990 0.855249 1
-1.441112 -4.068029 0.855355 1
-1.449634 -4.081768 0.855026 1
-1.462407 -4.071856 0.855351 1
-1.472384 -4.077655 0.855240 1
-1.482396 -4.083421 0.855129 1
-1.493093 -4.085209 0.855128 1
-1.501983 -4.094768 0.854908 0
-1.514062 -4.084555 0.855234 0
-1.524151 -4.090184 0.855124 0
-1.535470 -4.087873 0.855232 0
-1.544429 -4.101342 0.854904 0
-1.548907 -4.146447 0.853701 0
-1.561496 -4.136124 0.854028 0
-1.571834 -4.141597 0.853919 0
-1.582734 -4.143073 0.853919 0
-1.591576 -4.160371 0.853482 0
-1.602542 -4.161777 0.853482 0
-1.614976 -4.151240 0.853810 0
-1.625436 -4.156535 0.853701 0
-1.635840 -4.157760 0.853701 0
-1.637854 -4.238481 0.851517 0
-1.659490 -4.144327 0.854140 0
-1.669141 -4.157426 0.853813 0
-1.678879 -4.170496 0.853487 0
-1.689879 -4.171597 0.853488 0
-1.700884 -4.172661 0.853490 0
-1.711164 -4.181650 0.853273 0
-1.722203 -4.182639 0.853274 0
-1.732237 -4.195542 0.852949 0
-1.743647 -4.192472 0.853060 0
-1.751642 -4.233214 0.851970 1
-1.765509 -4.198173 0.852956 0
-1.777447 -4.187006 0.853286 0
-1.787417 -4.195706 0.853070 1
-1.798504 -4.196429 0.853073 1
-1.809116 -4.205096 0.852858 1
-1.820237 -4.205743 0.852861 1
-1.831148 -4.210344 0.852755 1
-1.842286 -4.210914 0.852759 1
-1.853243 -4.215439 0.852653 0
-1.863891 -4.227917 0.852329 1
-1.875402 -4.220382 0.852552 1
-1.886717 -4.216802 0.852665 0
-1.897750 -4.221174 0.852560 0
-1.908698 -4.229506 0.852347 0
-1.919804 -4.233802 0.852242 0
-1.930680 -4.250053 0.851810 0
-1.942101 -4.242280 0.852034 0
-1.953466 -4.234466 0.852257 0
-1.964468 -4.254601 0.851717 0
-1.975760 -4.254705 0.851722 0
-1.987005 -4.266765 0.851400 0
-1.998343 -4.258794 0.851624 0
-2.009638 -4.254782 0.851740 0
-2.021008 -4.266724 0.851418 0
-2.032382 -4.270629 0.851316 0
-2.043269 -4.278501 0.851104 0
-2.054644 -4.278330 0.851110 0
-2.066019 -4.278119 0.851117 0
-2.077392 -4.277869 0.851124 0
-2.088874 -4.281576 0.851022 0
-2.100751 -4.297233 0.850593 0
-2.112191 -4.296862 0.850601 0
-2.123932 -4.304441 0.850390 0
-2.135562 -4.307984 0.850289 0
-2.146821 -4.315506 0.850079 0
-2.158517 -4.318967 0.849978 0
-2.169252 -4.314430 0.850095 0
-2.181546 -4.317780 0.849995 0
-2.192715 -4.321152 0.849894 0
-2.204979 -4.332432 0.849576 0
-2.218166 -4.347619 0.849150 0
-2.229782 -4.346837 0.849159 0
-2.241105 -4.342027 0.849277 0
-2.253004 -4.345152 0.849178 0
-2.264928 -4.348235 0.849079 0
-2.277286 -4.363277 0.848653 0
-2.288267 -4.354322 0.848880 0
-2.301564 -4.365191 0.848565 0
-2.313029 -4.368153 0.848466 0
-2.324131 -4.367097 0.848476 0
-2.338210 -4.389816 0.847834 0
-2.349319 -4.376623 0.848171 0
-2.361890 -4.383335 0.847965 0
-2.373042 -4.382116 0.847976 0
-2.385232 -4.384767 0.847878 0
-2.399910 -4.403187 0.847347 0
-2.410752 -4.393832 0.847576 0
-2.423428 -4.404354 0.847261 0
-2.437363 -4.414677 0.846948 0
-2.450261 -4.421058 0.846743 0
-2.462670 -4.423427 0.846647 0
-2.473996 -4.417831 0.846769 0
-2.485289 -4.412198 0.846890 0
-2.499449 -4.426309 0.846469 0
-2.512522 -4.436497 0.846156 0
-2.523839 -4.430735 0.846278 0
-2.538202 -4.440642 0.845966 0
-2.550141 -4.438743 0.845980 0
-2.564717 -4.456628 0.845451 0
-2.577311 -4.454535 0.845466 0
-2.590650 -4.460381 0.845263 0
-2.603436 -4.466281 0.845060 0
-2.611349 -4.444580 0.845617 0
-2.639062 -4.528969 0.843245 0
-2.640226 -4.463705 0.844997 0
-2.652989 -4.465377 0.844903 0
-2.670321 -4.490559 0.844160 0
-2.680117 -4.476429 0.844501 0
-2.698464 -4.505398 0.843650 0
-2.711617 -4.510899 0.843449 0
-2.723595 -4.504353 0.843574 0
-2.736799 -4.509758 0.843373 0
-2.753788 -4.526581 0.842849 0
-2.763463 -4.512210 0.843191 0
-2.779375 -4.529176 0.842666 0
-2.794262 -4.538136 0.842359 0
-2.807434 -4.539239 0.842268 0
-2.818807 -4.532505 0.842394 0
-2.835671 -4.549080 0.841872 0
-2.846116 -4.538367 0.842106 0
-2.862519 -4.554965 0.841583 0
-2.878357 -4.563423 0.841278 0
-2.886204 -4.544980 0.841728 0
-2.905423 -4.568986 0.840991 0
-2.917424 -4.561773 0.841119 0
-2.932831 -4.570151 0.840814 0
-2.949337 -4.582328 0.840402 0
-2.965940 -4.594433 0.839990 0
-2.978413 -4.591040 0.840010 0
-2.990874 -4.587603 0.840030 0
-3.009197 -4.607393 0.839402 0
-3.018426 -4.592312 0.839746 0
-3.037065 -4.607762 0.839229 0
-3.056326 -4.627145 0.838603 0
-3.067147 -4.619789 0.838731 0
-3.082007 -4.623701 0.838537 0
-3.096907 -4.627554 0.838343 0
-3.109495 -4.623703 0.838365 0
-3.128018 -4.638896 0.837849 0
-3.145458 -4.650189 0.837440 0
-3.160557 -4.653787 0.837248 0
-3.173235 -4.649714 0.837271 0
-3.187143 -4.649397 0.837186 0
-3.209857 -4.675600 0.836349 0
-3.220072 -4.663771 0.836587 0
-3.237278 -4.674855 0.836180 0
-3.247439 -4.662948 0.836419 0
-3.273235 -4.696355 0.835368 0
-3.283418 -4.684341 0.835608 0
-3.300207 -4.691147 0.835310 0
-3.317765 -4.701874 0.834904 0
-3.331971 -4.701012 0.834822 0
-3.349578 -4.707370 0.834526 0
-3.365217 -4.710137 0.834337 0
-3.382293 -4.716586 0.834041 0
-3.393775 -4.707998 0.834175 0
-3.403789 -4.695640 0.834415 0
-3.420931 -4.701909 0.834120 0
-3.443298 -4.723256 0.833395 0
-3.460612 -4.729357 0.833100 0
-3.473553 -4.724236 0.833128 0
-3.488613 -4.722520 0.833049 0
-3.506899 -4.732384 0.832647 0
-3.523532 -4.734235 0.832462 0
-3.539550 -4.736283 0.832276 0
-3.547239 -4.720090 0.832624 0
-3.563257 -4.722034 0.832439 0
-3.584662 -4.734669 0.831934 0
-3.615020 -4.769512 0.830787 0
-3.652019 -4.818854 0.829212 0
-3.639553 -4.754485 0.830953 0
-3.657440 -4.759706 0.830662 0
-3.674731 -4.765140 0.830370 0
-3.695364 -4.777790 0.829865 0
-3.717416 -4.789745 0.829363 0
-3.732236 -4.787360 0.829287 0
-3.752110 -4.795799 0.828892 0
-3.770368 -4.800524 0.828603 0
-3.785264 -4.797937 0.828528 0
-3.808768 -4.813338 0.827920 0
-3.827200 -4.817811 0.827633 0
-3.847432 -4.825799 0.827239 0
-3.863560 -4.826835 0.827058 0
-3.884587 -4.834319 0.826666 0
-3.906810 -4.845611 0.826167 0
-3.927338 -4.853221 0.825775 0
-3.952697 -4.871774 0.825063 0
-3.972266 -4.875271 0.824780 0
-4.000381 -4.896791 0.823964 0
-4.023133 -4.907520 0.823467 0
-4.045983 -4.918137 0.822971 0
-4.061450 -4.914506 0.822901 0
-4.095746 -4.946089 0.821769 0
-4.122706 -4.963396 0.821062 0
-4.147905 -4.977048 0.820462 0
-4.187886 -5.019014 0.819012 0
-4.209559 -5.025358 0.818625 0
-4.254627 -5.073532 0.816967 0
-12.876902 -20.423521 0.350148 7
-12.955826 -20.397448 0.349922 22
-13.072910 -20.445936 0.347463 23
-13.178513 -20.473040 0.345641 19
-13.294460 -20.516941 0.343292 20
-13.401391 -20.551901 0.341254 20
-13.520205 -20.598141 0.338804 20
-13.636784 -20.631441 0.336684 24
-13.752384 -20.669630 0.334451 16
-13.870457 -20.710676 0.332115 17
-13.995188 -20.761387 0.329464 21
-14.109975 -20.794416 0.327345 17
-14.230080 -20.842630 0.324795 17
-14.347771 -20.877920 0.322574 17
-14.479948 -20.927393 0.319839 22
-14.600626 -20.964842 0.317519 18
-14.730308 -21.015182 0.314779 13
-14.852677 -21.060371 0.312243 13
-14.972481 -21.092627 0.310036 14
-15.101393 -21.137693 0.307410 14
-15.231645 -21.191099 0.304565 14
-15.360632 -21.225853 0.302167 14
-15.494066 -21.281281 0.299222 14
-15.630649 -21.324646 0.296514 15
-15.766418 -21.372995 0.293693 15
-15.904943 -21.423948 0.290769 15
-16.039463 -21.467587 0.288059 15
-16.179007 -21.517111 0.285142 15
-16.314493 -21.559349 0.282438 16
-16.459637 -21.613979 0.279317 16
-16.605337 -21.667845 0.276199 16
-16.746946 -21.714430 0.273294 16
-16.898388 -21.773272 0.269974 16
-17.041044 -21.818344 0.267076 16
-17.186550 -21.865906 0.264077 17
-17.344400 -21.928823 0.260557 17
-17.502874 -21.990891 0.257041 17
-17.641581 -22.032385 0.254248 18
-17.804878 -22.090071 0.250752 18
-17.960299 -22.143246 0.247456 18
-18.118702 -22.198774 0.244059 18
-18.277689 -22.253452 0.240666 18
-18.447027 -22.319937 0.236859 12
-18.614571 -22.382339 0.233160 12
-18.774080 -22.440464 0.229660 13
-18.950287 -22.510506 0.225656 13
-19.119724 -22.570185 0.221969 13
-19.292282 -22.632063 0.218182 13
-19.460463 -22.686771 0.214608 13
-19.641832 -22.756090 0.210516 13
-19.826429 -22.827501 0.206325 14
-20.009195 -22.894800 0.202242 14
-20.195202 -22.964167 0.198060 14
-20.371656 -23.020222 0.194298 14
-20.559019 -23.087551 0.190125 14
-20.749659 -23.156891 0.185852 15
-20.948792 -23.234295 0.181272 22
-21.146088 -23.307541 0.176801 22
-21.344124 -23.379681 0.172334 23
-21.542896 -23.450708 0.167873 23
-21.745035 -23.523623 0.163313 16
-21.951921 -23.607870 0.158430 16
-22.164896 -23.696968 0.153345 16
-22.373285 -23.762894 0.148816 16
-22.595821 -23.842438 0.143774 17
-22.817905 -23.927246 0.138618 17
-23.031418 -24.008551 0.133658 17
-23.251116 -24.094574 0.128496 18
-23.479698 -24.171894 0.123374 18
-23.707804 -24.254557 0.118136 18
-23.942228 -24.341732 0.112698 19
-24.188526 -24.439163 0.106853 19
-24.427486 -24.526476 0.101323 19
-24.677057 -24.630781 0.095266 19
-24.920584 -24.718187 0.089646 20
-25.170574 -24.809910 0.083825 10
-25.435484 -24.914448 0.077496 10
-25.705591 -25.013285 0.071192 10
-25.972528 -25.114647 0.064876 21
-26.233408 -25.215839 0.058651 11
-26.513660 -25.325367 0.051938 11
-26.783571 -25.422009 0.045642 11
-27.091621 -25.553402 0.038018 11
-16.261105 -14.866788 0.429314 7
-16.254187 -14.758927 0.431605 52
-16.253462 -14.667338 0.433461 45
-16.258083 -14.581416 0.435111 45
-16.261736 -14.490379 0.436874 47
-16.278931 -14.407933 0.438238 47
-16.302170 -14.336212 0.439282 50
-16.310404 -14.250918 0.440838 50
-16.332943 -14.179252 0.441882 55
-16.360397 -14.107778 0.442835 60
-16.374081 -14.033249 0.444072 62
-16.404556 -13.969629 0.444809 65
-16.437012 -13.903437 0.445557 65
-16.466938 -13.839705 0.446293 72
-16.508604 -13.786488 0.446622 90
-16.520760 -13.711990 0.447858 76
-16.555920 -13.653364 0.448391 76
-16.586987 -13.586882 0.449139 83
-16.630770 -13.535888 0.449367 83
-16.666105 -13.482124 0.449787 90
-16.707357 -13.433423 0.450004 90
-16.765022 -13.389708 0.449838 83
-16.859461 -13.376416 0.448452 47
-16.998098 -13.403397 0.445531 30
-17.168947 -13.460093 0.441485 22
-17.361120 -13.528263 0.436845 25
-17.498903 -13.555209 0.433925 20
-18.094799 -13.847732 0.417988 17
-18.121578 -13.781881 0.418731 17
-18.320087 -13.846605 0.414016 12
-18.547613 -13.932238 0.408394 12
-18.778204 -14.013508 0.402792 13
-19.000988 -14.091353 0.397385 10
-19.311209 -14.238756 0.389139 7
-19.615366 -14.373920 0.381218 7
-19.837605 -14.444602 0.375933 3
-20.533859 -14.862486 0.355823 4
-20.511406 -14.745312 0.358329 4
-20.935999 -14.957950 0.346811 4
-21.282351 -15.114533 0.337709 4
-48.403580 -34.186733 -0.496156 40
-48.695938 -34.162281 -0.501116 40
-49.693977 -34.620899 -0.527559 42
-50.640068 -35.033985 -0.552264 43
-51.573193 -35.429470 -0.576440 45
-52.433922 -35.766666 -0.598280 46
-52.958038 -29.470179 -0.505638 42
-53.638065 -28.216698 -0.500251 42
-10.079744 -5.095148 0.717292 0
-9.893632 -4.966775 0.722921 0
-9.771215 -4.871717 0.726775 0
-9.748060 -4.828288 0.727867 0
-9.803271 -4.788015 0.727313 0
-9.661279 -4.686526 0.731648 0
-9.666807 -4.656334 0.731958 0
-9.567889 -4.575499 0.735115 0
-9.579640 -4.550384 0.735222 0
-9.748043 -4.595960 0.731126 0
-9.778665 -4.577208 0.730752 0
-9.772825 -4.541783 0.731357 0
-9.566187 -4.416374 0.737335 0
-9.774701 -4.479042 0.732168 0
-9.534827 -4.339290 0.739024 0
-9.561030 -4.319366 0.738745 0
-9.582944 -4.299037 0.738559 0
-9.602266 -4.274369 0.738482 0
-9.614146 -4.246484 0.738600 0
-9.581118 -4.201319 0.739881 0
-9.584243 -4.173092 0.740182 0
-9.561926 -4.132900 0.741169 0
-9.605535 -4.121396 0.740401 0
-9.608901 -4.091835 0.740707 0
-9.612684 -4.060961 0.741019 0
-9.619011 -4.034229 0.741223 0
-9.629489 -4.007616 0.741335 0
-9.658517 -3.988192 0.740963 0
-9.672089 -3.930477 0.741388 1
-9.621001 -3.850394 0.743451 0
-9.705907 -3.851358 0.741630 0
-9.708230 -3.821711 0.741937 0
-9.698667 -3.789367 0.742527 0
-9.716304 -3.763811 0.742453 0
-9.722064 -3.735534 0.742662 0
-9.742830 -3.712503 0.742486 0
-9.752184 -3.685460 0.742600 0
-9.742054 -3.653300 0.743189 0
-9.766362 -3.631357 0.742918 0
-9.767843 -3.601710 0.743223 0
-9.784856 -3.575717 0.743151 0
-9.854590 -3.568273 0.741728 0
-9.859193 -3.540991 0.741933 0
-9.876007 -3.514584 0.741862 0
-9.915200 -3.496630 0.741210 0
-9.934834 -3.473914 0.741032 0
-9.951427 -3.447150 0.740962 0
-10.036004 -3.443865 0.739159 0
-10.059749 -3.420366 0.738893 3
-10.052735 -3.387706 0.739393 5
-10.080155 -3.365156 0.739033 6
-10.084451 -3.335836 0.739245 6
-10.115977 -3.312712 0.738797 6
-10.143193 -3.289737 0.738438 1
-10.208906 -3.277202 0.737127 1
-10.285815 -3.268822 0.735526 0
-10.401778 -3.268837 0.732981 0
-10.595170 -3.288478 0.728537 0
-51.907692 -14.005700 -0.286012 32
-50.054714 -13.344628 -0.238732 29
-54.517788 -12.552029 -0.329989 35
-51.862755 -11.604688 -0.262532 31
-30.844030 -6.932773 0.246216 7
-28.445734 -6.345019 0.304733 6
-27.510014 -6.068640 0.327965 5
-27.601206 -5.998524 0.326526 5
-27.327133 -5.661383 0.335459 5
-27.390419 -5.581434 0.334697 5
-27.405413 -5.497212 0.335043 5
-27.415602 -5.320848 0.336221 92
-27.410742 -5.228840 0.337053 69
-27.421339 -5.139476 0.337511 74
-27.447422 -5.052594 0.337594 69
-27.477160 -4.966191 0.337584 57
-27.559488 -4.796419 0.337006 5
-27.441908 -4.688346 0.340449 5
-27.506672 -4.602304 0.339619 5
-27.764671 -4.546875 0.334207 5
-27.776234 -4.461418 0.334556 5
-48.658890 -7.083793 -0.154776 25
-21.638361 -3.502526 0.479703 2
-21.111088 -3.368127 0.492529 2
-20.325024 -3.206641 0.511376 2
-19.808195 -3.081949 0.523889 2
-19.262909 -2.957771 0.537037 2
-17.931189 -2.583381 0.569573 52
-17.841005 -2.518722 0.572019 63
-17.810305 -2.460154 0.573075 68
-17.799305 -2.403563 0.573669 59
-17.800058 -2.348070 0.573985 40
-17.800617 -2.292590 0.574301 17
-17.793007 -2.236507 0.574802 21
-12.870504 -1.781036 0.689067 0
-12.749529 -1.732985 0.692081 0
-12.652061 -1.691049 0.694524 0
-12.582378 -1.651435 0.696322 0
-12.596603 -1.613316 0.696203 0
-12.622574 -1.577582 0.695802 0
-12.420756 -1.530520 0.700631 0
-12.334593 -1.490144 0.702795 0
-12.284233 -1.451887 0.704132 0
-12.217750 -1.413371 0.705834 0
-12.155058 -1.377237 0.707435 0
-12.108282 -1.340268 0.708675 0
-12.081361 -1.304193 0.709457 1
-12.054310 -1.268310 0.710239 0
-11.907190 -1.230077 0.713758 0
-11.895872 -1.195281 0.714171 0
-11.840446 -1.159942 0.715586 0
-11.832881 -1.125506 0.715907 0
-11.733221 -1.090459 0.718322 0
-11.685424 -1.056304 0.719550 0
-11.645505 -1.020803 0.720603 0
-11.370368 -1.092958 0.781048 0
-11.042624 -1.057263 0.786744 0
-11.014705 -1.027254 0.787339 0
31.843534 2.838447 0.343195 9
31.527493 2.677985 0.348510 9
31.330093 -0.831442 0.341507 9
20.992216 -0.962160 0.526855 4
20.884289 -1.042313 0.528474 3
20.624111 -1.121033 0.532832 3
20.399658 -1.198223 0.536549 3
20.226933 -1.274443 0.539335 3
19.993967 -1.348563 0.543209 3
19.744833 -1.416970 0.547393 3
19.523397 -1.488089 0.551063 3
19.293737 -1.557465 0.554884 6
19.059860 -1.625128 0.558784 3
18.845758 -1.691810 0.562328 2
18.531530 -1.753435 0.567690 2
18.166286 -1.881392 0.573651 2
17.831560 -1.936457 0.579399 2
17.704409 -1.999521 0.581377 2
17.597029 -2.062771 0.582994 14
17.513407 -2.126642 0.584178 16
17.465712 -2.188709 0.584722 19
17.433569 -2.254874 0.584962 21
17.413174 -2.321632 0.584983 2
17.316750 -2.382915 0.586394 2
17.419558 -2.458311 0.584152 2
17.345253 -2.588677 0.584785 23
17.343639 -2.656532 0.584443 14
17.337805 -2.724044 0.584175 4
17.359612 -2.794091 0.583394 2
17.309502 -2.857490 0.583934 2
17.314905 -2.926060 0.583446 2
17.312107 -2.993876 0.583106 2
17.607719 -3.089815 0.577260 2
17.576517 -3.155644 0.577431 2
17.549067 -3.221728 0.577529 2
17.588928 -3.295491 0.576375 2
17.576889 -3.363380 0.576178 2
17.600340 -3.435615 0.575318 2
17.646441 -3.580662 0.573594 4
17.791971 -3.669924 0.570437 7
17.857874 -3.749341 0.568757 2
30.512749 -5.604367 0.331432 9
30.474428 -5.703061 0.331474 9
30.662762 -5.852492 0.327146 9
30.843395 -5.996434 0.322983 9
30.384060 -6.036747 0.330880 9
30.361498 -6.154781 0.330488 9
30.880253 -6.354822 0.319919 9
30.569460 -6.421146 0.324982 9
30.447880 -6.517432 0.326474 9
30.240301 -6.592309 0.329633 9
29.984337 -6.663122 0.333671 8
29.758762 -6.743429 0.337097 8
29.538992 -6.811873 0.340498 8
29.319117 -6.878923 0.343904 8
29.096041 -6.960862 0.347252 8
28.867048 -7.028869 0.350799 8
28.661499 -7.100018 0.353902 8
28.461899 -7.159964 0.356977 8
28.164955 -7.215250 0.361798 8
27.955233 -7.281232 0.364993 7
27.738701 -7.338972 0.368365 7
27.528820 -7.402187 0.371572 7
27.309927 -7.467413 0.374916 7
27.092091 -7.526043 0.378285 7
26.913202 -7.592097 0.380906 7
26.704193 -7.644771 0.384155 7
26.504503 -7.708818 0.387144 7
26.303196 -7.760684 0.390252 7
26.105749 -7.812229 0.393290 7
25.948605 -7.882771 0.395463 6
25.730444 -7.931926 0.398870 6
25.536762 -7.980721 0.401847 6
25.349586 -8.035067 0.404659 6
25.158499 -8.087185 0.407552 13
24.994450 -8.145199 0.409918 13
24.813623 -8.202698 0.412574 6
24.631405 -8.248623 0.415348 6
24.444054 -8.296974 0.418184 6
24.275951 -8.349479 0.420644 6
24.107807 -8.400899 0.423108 6
23.962694 -8.457844 0.425120 6
23.776562 -8.497105 0.427992 5
23.600653 -8.543061 0.430622 5
23.463070 -8.599291 0.432493 5
23.333067 -8.656961 0.434214 5
23.275648 -8.736002 0.434486 5
23.298225 -8.839538 0.433151 5
23.293669 -8.934963 0.432351 5
23.307817 -9.036490 0.431168 5
23.291100 -9.128446 0.430598 5
23.118082 -9.169778 0.433176 5
22.980713 -9.216868 0.435083 11
22.822893 -9.261173 0.437362 11
22.680235 -9.309571 0.439336 11
22.526180 -9.353213 0.441546 11
22.368343 -9.394582 0.443836 10
22.233183 -9.442829 0.445667 10
22.075348 -9.482278 0.447965 10
21.932606 -9.526085 0.449958 10
21.793615 -9.570352 0.451878 15
21.650852 -9.612388 0.453878 15
21.504332 -9.652152 0.455960 10
21.353350 -9.680063 0.458230 9
21.225605 -9.725037 0.459932 9
21.096306 -9.773254 0.461621 9
20.961031 -9.813772 0.463484 9
20.827299 -9.849469 0.465365 9
20.690487 -9.892298 0.467220 9
20.555225 -9.930306 0.469093 13
20.419977 -9.967479 0.470969 13
20.299582 -10.009797 0.472537 13
20.164349 -10.045352 0.474420 13
20.041819 -10.080789 0.476087 13
19.905043 -10.118562 0.477962 13
19.791510 -10.151783 0.479494 12
19.665817 -10.192613 0.481141 12
19.547012 -10.226696 0.482742 12
19.417650 -10.264402 0.484473 12
19.300920 -10.302361 0.485988 12
19.171171 -10.329482 0.487831 12
19.069090 -10.372499 0.489039 12
18.950357 -10.403082 0.490653 12
18.832010 -10.441901 0.492165 11
18.718950 -10.478024 0.493615 11
18.611183 -10.511550 0.495003 11
18.489216 -10.546563 0.496602 11
18.372561 -10.578955 0.498139 11
18.264832 -10.610535 0.499534 10
18.146542 -10.645093 0.501063 10
18.033560 -10.677154 0.502529 14
17.917006 -10.706795 0.504077 10
17.820137 -10.741090 0.505247 10
17.703634 -10.769423 0.506800 14
17.603199 -10.800786 0.508053 13
17.499199 -10.829792 0.509387 10
17.382938 -10.864749 0.510843 10
17.287830 -10.892794 0.512037 13
17.178619 -10.921534 0.513445 13
17.071257 -10.954807 0.514764 13
16.972731 -10.987838 0.515939 12
16.863604 -11.014685 0.517355 15
16.766853 -11.043271 0.518547 12
16.657806 -11.068894 0.519967 15
16.554077 -11.100936 0.521219 18
16.469666 -11.138739 0.522089 18
16.353750 -11.150332 0.523779 14
16.262304 -11.191542 0.524709 11
16.170889 -11.223897 0.525743 14
16.069120 -11.241550 0.527122 17
15.981216 -11.274843 0.528082 19
15.889832 -11.305654 0.529123 16
15.791533 -11.331941 0.530325 13
15.693271 -11.357667 0.531530 13
15.605383 -11.388922 0.532498 13
15.503737 -11.411524 0.533787 18
15.415876 -11.441757 0.534758 18
15.326194 -11.474527 0.535721 17
15.221490 -11.485294 0.537199 17
15.135271 -11.519093 0.538085 17
15.050875 -11.549425 0.538985 17
14.961238 -11.580143 0.539956 17
14.870373 -11.597262 0.541122 16
14.786011 -11.626180 0.542027 16
14.689678 -11.651107 0.543164 16
14.600473 -11.671838 0.544245 16
14.522885 -11.703662 0.544995 19
14.443797 -11.730021 0.545838 16
14.342781 -11.745665 0.547155 19
14.261872 -11.773969 0.547991 19
14.174309 -11.797405 0.548990 16
14.090100 -11.822590 0.549910 19
14.005915 -11.847319 0.550833 16
13.925057 -11.873844 0.551676 18
13.844211 -11.899938 0.552521 18
13.763376 -11.925599 0.553368 20
13.672713 -11.943969 0.554459 24
13.605025 -11.977926 0.554986 20
13.511172 -11.993068 0.556161 20
13.423919 -12.012330 0.557177 22
13.352963 -12.042779 0.557790 18
13.272262 -12.065836 0.558647 20
13.194819 -12.090819 0.559425 20
13.118037 -12.107754 0.560305 22
13.037421 -12.129565 0.561167 20
12.969671 -12.160500 0.561706 20
12.889089 -12.181502 0.562572 19
12.811734 -12.204488 0.563358 19
12.728035 -12.222228 0.564308 19
12.660266 -12.251680 0.564853 19
12.579806 -12.271025 0.565725 19
12.504517 -12.289867 0.566527 17
12.427292 -12.310852 0.567321 17
12.353238 -12.333912 0.568035 19
12.281504 -12.366551 0.568570 19
12.208302 -12.381392 0.569386 19
12.134291 -12.403326 0.570105 19
12.060300 -12.424882 0.570825 19
11.992525 -12.451121 0.571383 19
11.921651 -12.474486 0.572025 21
11.844626 -12.492392 0.572831 20
11.770717 -12.512463 0.573557 20
11.702959 -12.537303 0.574121 16
11.632143 -12.559228 0.574768 18
11.555255 -12.575609 0.575580 18
11.478419 -12.591596 0.576394 20
11.415763 -12.615308 0.576890 18
11.348053 -12.638436 0.577461 20
11.277337 -12.658598 0.578115 18
11.209642 -12.681054 0.578689 18
11.129997 -12.692552 0.579592 18
11.065331 -12.716972 0.580086 20
11.006596 -12.746441 0.580418 20
10.935970 -12.764889 0.581079 20
10.868327 -12.785686 0.581659 20
10.797753 -12.803445 0.582323 24
10.736012 -12.829012 0.582741 28
10.662555 -12.843375 0.583490 30
10.597047 -12.860650 0.584083 26
10.532399 -12.882557 0.584587 22
10.467752 -12.904157 0.585093 20
10.403107 -12.925450 0.585600 20
10.335590 -12.943659 0.586190 22
10.268098 -12.961540 0.586782 24
10.206343 -12.984695 0.587210 20
10.150269 -13.013185 0.587474 18
10.079963 -13.027331 0.588152 18
10.009706 -13.041134 0.588832 20
9.945134 -13.060270 0.589347 20
9.886189 -13.084801 0.589699 22
9.824421 -13.106208 0.590134 20
9.772449 -13.128959 0.590419 22
9.702990 -13.146128 0.591014 20
9.635034 -13.156002 0.591708 20
9.567778 -13.170474 0.592314 18
9.511553 -13.196250 0.592589 20
9.447685 -13.217948 0.593024 20
9.393534 -13.241217 0.593308 22
9.329065 -13.257437 0.593835 22
9.259777 -13.272377 0.594440 17
9.198066 -13.290928 0.594886 22
9.149250 -13.319106 0.595008 24
9.080017 -13.333134 0.595616 26
9.022615 -13.347013 0.596079 24
8.959271 -13.371299 0.596434 24
8.909832 -13.393669 0.596649 26
8.850762 -13.413623 0.597019 21
8.791687 -13.433315 0.597390 22
8.717373 -13.439482 0.598172 22
8.663543 -13.464670 0.598378 22
8.604068 -13.478645 0.598842 24
8.545021 -13.497259 0.599217 24
8.486363 -13.520506 0.599503 26
8.431673 -13.534957 0.599893 26
8.372622 -13.552809 0.600271 28
8.316458 -13.578382 0.600477 24
8.252332 -13.589525 0.601024 28
8.200520 -13.611025 0.601244 24
8.136450 -13.621626 0.601794 22
8.070230 -13.633691 0.602338 26
8.016197 -13.656230 0.602555 24
7.964339 -13.676807 0.602779 24
7.910243 -13.698909 0.602998 24
7.846306 -13.708150 0.603553 26
7.789748 -13.726604 0.603858 22
7.735611 -13.747993 0.604079 22
7.674189 -13.759605 0.604553 21
7.617438 -13.772459 0.604950 19
7.560876 -13.789947 0.605259 22
7.509081 -13.813614 0.605400 22
7.452489 -13.830639 0.605711 21
7.400620 -13.853878 0.605854 21
7.346353 -13.873677 0.606082 21
7.292061 -13.893253 0.606311 21
7.233089 -13.906106 0.606709 26
7.171823 -13.915444 0.607193 24
7.117523 -13.934315 0.607425 24
7.065498 -13.956237 0.607573 24
7.004298 -13.964822 0.608060 24
6.949964 -13.983011 0.608294 24
6.895613 -14.000978 0.608530 24
6.841247 -14.018723 0.608766 26
6.793612 -14.041343 0.608840 26
6.736969 -14.055349 0.609163 26
6.687043 -14.074264 0.609322 22
6.632524 -14.096004 0.609473 22
6.578150 -14.107835 0.609803 22
6.525867 -14.127642 0.609960 26
6.462585 -14.135281 0.610451 27
6.412572 -14.153170 0.610615 27
6.358092 -14.168955 0.610860 26
6.303439 -14.189353 0.611016 24
6.251051 -14.208086 0.611177 26
6.192307 -14.216422 0.611594 26
6.141994 -14.238129 0.611672 26
6.087458 -14.252820 0.611921 27
6.043767 -14.274744 0.611926 26
5.984563 -14.291825 0.612168 26
5.936673 -14.306544 0.612343 27
5.879480 -14.326598 0.612502 27
5.824877 -14.340230 0.612755 26
5.776630 -14.359196 0.612844 26
5.722008 -14.372413 0.613099 27
5.667388 -14.385411 0.613354 26
5.612772 -14.398191 0.613611 26
5.564056 -14.421201 0.613614 26
5.514095 -14.430943 0.613880 26
5.465290 -14.453595 0.613884 24
5.404420 -14.459851 0.614310 24
5.353622 -14.478597 0.614401 27
5.305136 -14.495877 0.614497 29
5.251905 -14.515516 0.614585 27
5.199106 -14.530160 0.614764 16
-0.307367 -4.250617 0.862478 0
-0.331560 -4.231664 0.863056 1
-0.353211 -4.215850 0.863549 1
-0.369836 -4.210896 0.863787 3
-0.397248 -4.184458 0.864536 1
-0.416727 -4.171888 0.864946 1
-0.442000 -4.148757 0.865610 0
-0.458788 -4.143687 0.865849 0
-0.469156 -4.148781 0.865834 0
-0.492302 -4.128918 0.866414 0
-0.510636 -4.120004 0.866739 0
-0.529524 -4.106874 0.867151 0
-0.542016 -4.108372 0.867221 0
-0.568058 -4.080842 0.867974 0
-0.588844 -4.064053 0.868471 0
-0.582786 -4.105300 0.867604 0
-0.589567 -4.147930 0.866808 138
-0.631400 -4.109682 0.867891 1
-0.669511 -4.052186 0.869328 0
-0.656194 -4.111826 0.868035 5
-0.718592 -4.025486 0.870229 0
-0.729617 -4.030163 0.870216 0
-0.790021 -3.972992 0.871804 0
-0.803818 -3.965663 0.872050 0
-0.800684 -4.003215 0.871269 0
-0.806238 -4.022663 0.870915 0
-0.834301 -3.982156 0.871930 0
-0.837392 -4.004839 0.871491 0
-0.876587 -3.934251 0.873191 0
-0.891456 -3.922822 0.873524 0
-0.904023 -3.923316 0.873599 0
-0.888978 -3.994557 0.872048 0
-0.922934 -3.934648 0.873493 0
-0.945473 -3.904586 0.874254 0
-0.915065 -4.016932 0.871763 0
-0.956540 -3.934106 0.873722 0
-0.956040 -3.967888 0.873028 0
-0.894189 -4.179295 0.868308 0
-0.907289 -4.175387 0.868470 0
-0.933105 -4.137751 0.869402 0
-0.928617 -4.186914 0.868365 0
-0.938572 -4.190264 0.868357 0
-0.954519 -4.182925 0.868604 0
-0.960600 -4.201761 0.868252 0
-1.065301 -3.912005 0.874846 0
-0.991459 -4.178109 0.868922 0
-0.995826 -4.204668 0.868399 0
-1.034952 -4.116350 0.870449 0
-1.019882 -4.203785 0.868554 0
-1.061247 -4.107707 0.870777 0
-1.070882 -4.114795 0.870683 0
-1.118060 -3.995326 0.873422 0
-1.127329 -4.002224 0.873329 0
-1.112795 -4.089622 0.871435 0
-1.136680 -4.046553 0.872458 2
-1.164778 -4.029532 0.872960 0
-1.179513 -4.017001 0.873297 0
-1.187370 -4.027427 0.873120 0
-1.183993 -4.084487 0.871912 0
-1.209929 -4.029297 0.873194 0
-1.214427 -4.055266 0.872673 0
-1.219551 -4.077228 0.872239 0
-1.233156 -4.068299 0.872491 0
-1.238029 -4.094247 0.871970 0
-1.258251 -4.058039 0.872824 0
-1.261382 -4.091716 0.872132 0
-1.271188 -4.098167 0.872042 0
-1.284661 -4.089008 0.872295 0
-1.294485 -4.095384 0.872205 0
-1.309628 -4.078324 0.872630 0
-1.313373 -4.111947 0.871939 0
-1.327585 -4.098697 0.872279 0
-1.338336 -4.101026 0.872275 0
-1.346365 -4.110914 0.872100 0
-1.357159 -4.113177 0.872096 0
-1.364761 -4.131075 0.871749 0
-1.381916 -4.101906 0.872434 0
-1.383407 -4.151129 0.871399 0
-1.406484 -4.090440 0.872772 0
-1.409754 -4.131783 0.871910 0
-1.422084 -4.125962 0.872079 0
-1.432212 -4.131895 0.871991 0
-1.440263 -4.149604 0.871645 0
-1.455333 -4.127905 0.872159 0
-1.471599 -4.098256 0.872845 0
-1.447882 -4.305157 0.868371 0
-1.464627 -4.271457 0.869144 0
-1.470258 -4.308840 0.868368 0
-1.515961 -4.093398 0.873097 0
-1.509658 -4.205739 0.870688 0
-1.502351 -4.330026 0.868021 0
-1.542366 -4.137865 0.872234 0
-1.553253 -4.139444 0.872233 0
-1.556402 -4.196433 0.871029 0
-1.568572 -4.190037 0.871201 0
-1.579641 -4.191524 0.871200 0
-1.595831 -4.153310 0.872060 0
-1.605279 -4.166606 0.871803 0
-1.614814 -4.179873 0.871545 0
-1.623967 -4.197084 0.871201 0
-1.623997 -4.289690 0.869224 0
-1.657134 -4.196813 0.871289 0
-1.666980 -4.209922 0.871033 0
-1.678118 -4.211066 0.871034 0
-1.690422 -4.200229 0.871293 0
-1.700405 -4.213235 0.871037 0
-1.710116 -4.230193 0.870695 0
-1.722361 -4.219233 0.870954 0
-1.728222 -4.283947 0.869581 0
-1.738028 -4.304809 0.869153 0
-1.751321 -4.281778 0.869671 0
-1.762129 -4.290604 0.869502 0
-1.773548 -4.291414 0.869505 0
-1.783920 -4.308146 0.869164 0
-1.794904 -4.316864 0.868995 0
-1.810633 -4.245700 0.870545 0
-1.822115 -4.242348 0.870635 0
-1.831507 -4.278893 0.869865 0
-1.841536 -4.307423 0.869267 0
-1.853728 -4.291976 0.869614 0
-1.864163 -4.316441 0.869103 0
-1.875973 -4.308903 0.869279 0
-1.886881 -4.309296 0.869283 0
-1.899352 -4.277693 0.869975 0
-1.910397 -4.290018 0.869722 0
-1.921526 -4.302305 0.869469 0
-1.932658 -4.318552 0.869130 0
-1.944376 -4.306771 0.869393 0
-1.955367 -4.342934 0.868625 0
-1.967246 -4.315077 0.869232 0
-1.978723 -4.319171 0.869152 0
-1.989075 -4.323221 0.869071 0
-2.001193 -4.351232 0.868476 0
-2.012182 -4.335214 0.868826 0
-2.024363 -4.339146 0.868746 0
-2.035499 -4.351044 0.868495 0
-2.046957 -4.338903 0.868759 0
-2.059051 -4.334711 0.868852 0
-2.070792 -4.342481 0.868687 0
-2.082489 -4.346211 0.868609 0
-2.094327 -4.353899 0.868445 0
-2.105838 -4.349552 0.868538 0
-2.117160 -4.357176 0.868373 0
-2.129426 -4.372731 0.868038 0
-2.141545 -4.368239 0.868132 0
-2.153559 -4.387726 0.867711 0
-2.164141 -4.375216 0.867977 0
-2.175434 -4.366635 0.868157 0
-2.188509 -4.369930 0.868080 0
-2.198795 -4.365329 0.868174 0
-2.212230 -4.392553 0.867583 0
-2.224268 -4.395782 0.867507 0
-2.236668 -4.386918 0.867688 0
-2.245488 -4.362228 0.868211 0
-2.260222 -4.401224 0.867364 0
-2.273849 -4.408172 0.867204 0
-2.284492 -4.407295 0.867213 0
-2.294811 -4.382327 0.867737 0
-2.309089 -4.409155 0.867148 0
-2.322050 -4.420000 0.866902 0
-2.333917 -4.418855 0.866913 0
-2.345187 -4.417729 0.866923 0
-2.356210 -4.408549 0.867106 0
-2.370359 -4.423123 0.866775 0
-2.388935 -4.481421 0.865504 0
-2.393516 -4.420524 0.866798 0
-2.413566 -4.482593 0.865442 0
-2.421258 -4.445405 0.866224 0
-2.437024 -4.483742 0.865380 0
-2.449628 -4.486161 0.865307 0
-2.461197 -4.480607 0.865405 0
-2.475507 -4.490779 0.865163 0
-2.484837 -4.469297 0.865603 0
-2.499157 -4.483417 0.865274 0
-2.515919 -4.513303 0.864605 0
-2.526316 -4.499619 0.864874 0
-2.539076 -4.505759 0.864717 0
-2.548095 -4.480061 0.865244 0
-2.563399 -4.501911 0.864745 0
-2.574199 -4.487987 0.865016 0
-2.584968 -4.478075 0.865201 0
-2.591672 -4.448530 0.865812 0
-2.609188 -4.477952 0.865144 0
-2.625501 -4.499420 0.864648 0
-2.634758 -4.481482 0.865004 0
-2.647573 -4.483176 0.864934 0
-2.664901 -4.508393 0.864353 0
-2.677989 -4.514021 0.864198 0
-2.682254 -4.468359 0.865151 0
-2.699211 -4.493521 0.864571 0
-2.716952 -4.518484 0.863991 0
-2.726502 -4.500174 0.864349 0
-2.744463 -4.524999 0.863770 0
-2.760072 -4.538015 0.863447 0
-2.770632 -4.527529 0.863634 0
-2.791590 -4.563847 0.862801 0
-2.811040 -4.592261 0.862138 0
-2.819289 -4.573964 0.862495 0
-2.828955 -4.559402 0.862768 0
-2.851185 -4.595243 0.861938 0
-2.862721 -4.588364 0.862042 0
-2.870739 -4.569947 0.862399 0
-2.889890 -4.594051 0.861823 0
-2.899422 -4.579291 0.862097 0
-2.913829 -4.583878 0.861947 0
-2.936333 -4.619369 0.861118 0
-2.942770 -4.592878 0.861646 0
-2.961440 -4.612745 0.861158 0
-2.976071 -4.617086 0.861008 0
-2.992865 -4.629081 0.860690 0
-3.005458 -4.625593 0.860710 0
-3.021302 -4.633607 0.860477 0
-3.026678 -4.607132 0.861005 0
-3.050332 -4.641935 0.860179 0
-3.064097 -4.642084 0.860116 0
-3.076735 -4.638348 0.860138 0
-3.091668 -4.642225 0.859991 0
-3.116508 -4.680662 0.859081 0
-3.123380 -4.657638 0.859526 0
-3.152228 -4.703113 0.858451 0
-3.169908 -4.714319 0.858136 0
-3.188901 -4.729254 0.857737 0
-3.196907 -4.709866 0.858099 0
-3.217263 -4.728463 0.857616 0
-3.232723 -4.731782 0.857471 0
-3.243753 -4.723883 0.857578 0
-3.256675 -4.719519 0.857603 0
-3.269583 -4.715110 0.857627 0
-3.289685 -4.729319 0.857231 0
-3.311260 -4.751432 0.856665 0
-3.319570 -4.731529 0.857029 0
-3.333872 -4.730664 0.856970 0
-3.344159 -4.722696 0.857077 0
-3.372158 -4.755046 0.856264 0
-3.382404 -4.742736 0.856458 0
-3.398202 -4.745376 0.856316 0
-3.412617 -4.744212 0.856259 0
-3.428472 -4.746727 0.856117 0
-3.440029 -4.737989 0.856228 0
-3.456721 -4.744367 0.856002 0
-3.491101 -4.795309 0.854768 0
-3.504929 -4.789818 0.854798 0
-3.513593 -4.773416 0.855077 0
-3.540264 -4.801443 0.854351 0
-3.536719 -4.755361 0.855302 0
-3.557421 -4.768439 0.854911 0
-3.573592 -4.770356 0.854772 0
-3.578874 -4.746429 0.855220 0
-3.606030 -4.773986 0.854495 0
-3.626397 -4.786998 0.854105 0
-3.648187 -4.799340 0.853717 0
-3.653313 -4.775263 0.854166 0
-3.664788 -4.765815 0.854280 0
-3.693565 -4.796764 0.853472 0
-3.702448 -4.779603 0.853755 0
-3.732186 -4.810010 0.852951 0
-3.742056 -4.796678 0.853149 0
-3.799111 -4.884839 0.851010 0
-3.797288 -4.845959 0.851793 0
-3.826051 -4.872185 0.851075 0
-3.830859 -4.847749 0.851524 0
-3.852901 -4.859343 0.851140 0
-3.861456 -4.846311 0.851337 0
-3.871943 -4.832283 0.851538 0
-3.902992 -4.861562 0.850739 0
-3.917509 -4.858808 0.850688 0
-3.954969 -4.898178 0.849642 0
-3.961246 -4.877072 0.850009 0
-3.976523 -4.873761 0.849960 0
-4.087350 -5.055095 0.845591 0
-3.999013 -4.853127 0.850195 0
-4.062645 -4.941690 0.847988 0
-4.097626 -4.972962 0.847112 0
-4.118960 -4.979721 0.846817 0
-4.146065 -4.996936 0.846274 0
-4.173316 -5.014010 0.845731 0
-4.204558 -5.037954 0.845023 0
-4.277866 -5.139112 0.842491 0
-20.750729 -34.649578 0.142687 12
-18.370556 -30.129351 0.248734 9
-18.565456 -30.000469 0.249632 28
-29.610594 -47.832451 -0.182182 37
-29.726803 -47.638138 -0.179456 37
-22.211494 -34.747276 0.128818 12
-30.159159 -47.621426 -0.182793 37
-20.892208 -32.040115 0.191352 11
-22.483423 -33.873344 0.143010 12
-23.315014 -34.942791 0.115626 13
-27.682314 -41.578354 -0.047367 27
-27.864618 -41.552517 -0.048494 27
-21.715904 -31.680294 0.190924 11
-23.951895 -34.896957 0.110838 13
-23.368174 -33.745247 0.137565 12
-20.166595 -28.215590 0.269434 9
-19.551245 -27.106688 0.295623 8
-19.332508 -26.578804 0.307401 8
-20.698584 -28.387089 0.261345 9
-19.147717 -25.930124 0.321078 7
-19.116060 -25.699236 0.325618 7
-20.862766 -28.016041 0.266620 9
-23.203636 -31.141743 0.187163 11
-22.889421 -30.487270 0.202122 10
-30.736393 -41.257996 -0.069613 29
-30.932741 -41.235355 -0.071095 29
-23.398710 -30.545391 0.196152 11
-23.625656 -30.424280 0.196129 11
-31.743816 -41.168102 -0.077800 30
-23.600809 -29.964907 0.204661 10
-23.708933 -29.898922 0.204773 10
-32.000896 -40.640823 -0.070872 29
-39.058372 -49.607941 -0.302341 46
-26.858305 -33.377327 0.110851 14
-27.134075 -33.036606 0.114109 14
-25.266754 -30.235676 0.182945 11
-27.600052 -32.947708 0.110870 14
-24.284388 -28.624424 0.221570 10
-23.076811 -26.740480 0.267315 9
-26.139708 -30.269327 0.173215 11
-20.395283 -23.166887 0.358164 6
-22.571457 -25.611713 0.292385 8
-20.785255 -23.309914 0.351512 7
-21.002699 -23.408852 0.347458 7
-21.156099 -23.430544 0.345427 7
-21.359453 -23.509024 0.341868 7
-21.550489 -23.571247 0.338716 7
-21.759285 -23.659956 0.334909 7
-21.959648 -23.729025 0.331525 7
-22.163383 -23.799963 0.328066 7
-22.362534 -23.863781 0.324773 15
-22.582405 -23.940752 0.321019 16
-22.799097 -24.020044 0.317254 16
-23.012562 -24.101770 0.313477 16
-23.230841 -24.178625 0.309722 16
-23.458048 -24.263052 0.305733 8
-23.686102 -24.346174 0.301749 8
-23.920462 -24.433823 0.297610 8
-24.168030 -24.524979 0.293255 8
-24.408319 -24.622456 0.288871 9
-24.663315 -24.733051 0.284093 9
-24.901260 -24.815161 0.279978 9
-25.169273 -24.917700 0.275169 9
-25.434155 -25.022680 0.270349 9
-25.683226 -25.108992 0.266014 9
-25.952879 -25.213747 0.261127 9
-26.213671 -25.298525 0.256665 9
-26.502306 -25.434044 0.251036 10
-26.780724 -25.522556 0.246289 10
-27.065863 -25.632042 0.241112 10
-27.248985 -25.639324 0.238805 10
-16.437202 -14.999187 0.540647 2
-16.285091 -14.765207 0.546253 2
-16.297276 -14.671592 0.547613 16
-16.287422 -14.472753 0.550919 2
-16.282896 -14.384084 0.552390 2
-16.294306 -14.301481 0.553565 2
-16.397190 -14.201746 0.553880 49
-16.416489 -14.127198 0.554817 59
-16.427923 -14.055034 0.555811 33
-16.437958 -13.882168 0.558395 2
-16.515722 -13.860840 0.557754 2
-16.574715 -13.818107 0.557677 4
-16.577898 -13.735532 0.558917 7
-16.643362 -13.702897 0.558594 68
-16.657228 -13.625628 0.559610 16
-16.727669 -13.592597 0.559221 77
-16.753166 -13.525597 0.559922 52
-16.908527 -13.483886 0.558565 14
-17.022722 -13.490521 0.556992 28
-17.182535 -13.529472 0.554337 9
-17.368500 -13.592886 0.550968 16
-17.555092 -13.655152 0.547605 22
-17.716085 -13.704181 0.544770 17
-17.919434 -13.776788 0.541024 10
-18.147629 -13.862741 0.536750 13
-18.367247 -13.939755 0.532716 11
-18.579960 -14.018654 0.528741 12
-18.805124 -14.100719 0.524550 12
-19.053211 -14.198488 0.519820 39
-19.292665 -14.287380 0.515330 33
-19.523401 -14.367489 0.511080 10
-19.786804 -14.470268 0.506058 10
-20.027910 -14.549015 0.501680 11
-20.320415 -14.678765 0.495867 11
-20.631582 -14.809827 0.489779 12
-20.892317 -14.900993 0.484943 12
-21.218536 -15.037640 0.478561 8
-21.373461 -15.042143 0.476390 4
-49.669067 -35.269032 -0.197130 43
-50.595833 -35.678326 -0.215600 45
-51.242050 -35.880524 -0.227313 46
-52.793377 -36.713257 -0.260351 47
-53.894913 -37.203915 -0.282408 48
-54.836853 -37.614525 -0.301155 49
-56.180378 -38.265865 -0.328826 51
-57.608379 -38.948143 -0.358113 52
-59.035355 -39.630398 -0.387400 53
-60.766518 -40.503876 -0.423579 55
-64.448662 -42.363647 -0.500602 59
-52.689281 -29.694115 -0.165141 43
-52.607716 -29.415243 -0.160434 42
-52.591217 -29.174242 -0.157172 85
-52.621296 -28.971527 -0.155085 42
-52.701035 -28.785055 -0.153946 42
-52.801174 -28.609818 -0.153260 42
-52.935917 -28.453184 -0.153329 85
-53.207764 -28.369425 -0.156341 3
-53.339485 -28.198400 -0.156213 85
-9.948774 -4.984168 0.773200 0
-9.872937 -4.912088 0.775195 0
-9.813983 -4.850751 0.776807 0
-9.850224 -4.831200 0.776485 0
-9.863482 -4.803774 0.776602 0
-9.862204 -4.769417 0.777019 0
-9.889058 -4.750164 0.776831 0
-9.887547 -4.715816 0.777247 0
-9.863491 -4.672791 0.778105 0
-9.422079 -4.436296 0.787550 0
-9.689285 -4.525191 0.782446 0
-9.682647 -4.491440 0.782927 0
-9.749473 -4.489113 0.781925 0
-9.779817 -4.470148 0.781668 0
-9.792413 -4.441611 0.781789 0
-9.804311 -4.414390 0.781904 0
-9.816114 -4.387128 0.782020 0
-9.827822 -4.359824 0.782136 0
-9.854170 -4.338707 0.781955 0
-9.850951 -4.305096 0.782367 0
-9.843332 -4.271386 0.782848 0
-9.818198 -4.227438 0.783709 0
-9.866402 -4.215178 0.783085 0
-9.896062 -4.195161 0.782832 0
-9.888520 -4.160184 0.783318 0
-9.843083 -4.112006 0.784535 0
-9.909717 -4.106418 0.783545 0
-9.883136 -4.064382 0.784398 0
-9.894243 -4.035469 0.784520 0
-9.923429 -4.014965 0.784268 0
-9.970776 -4.002690 0.783644 0
-9.944148 -3.959577 0.784501 0
-9.484913 -3.759979 0.793788 0
-9.982778 -3.912248 0.784362 0
-10.012153 -3.889714 0.784119 0
-10.002779 -3.856449 0.784597 0
-10.031505 -3.835112 0.784349 0
-10.041285 -3.807060 0.784466 0
-10.050966 -3.778974 0.784584 0
-10.022671 -3.738022 0.785432 0
-10.051544 -3.714946 0.785191 0
-10.022935 -3.674264 0.786037 0
-10.032153 -3.646243 0.786154 0
-10.078874 -3.631896 0.785538 0
-10.049848 -3.591510 0.786383 0
-10.058777 -3.563396 0.786501 0
-10.067608 -3.535250 0.786618 0
-10.114563 -3.518845 0.786011 0
-10.157675 -3.500978 0.785477 0
-10.181608 -3.477089 0.785306 0
-10.351180 -3.496267 0.782386 0
-10.340583 -3.461484 0.782869 0
-10.368268 -3.437906 0.782629 0
-10.245894 -3.371392 0.785205 0
-10.254054 -3.342595 0.785325 0
-10.319917 -3.329817 0.784364 0
-10.528511 -3.355695 0.780739 0
-10.567502 -3.334254 0.780287 0
-52.910412 -13.822911 -0.001066 34
-51.265762 -13.244884 0.030691 31
-51.599518 -13.144067 0.026034 32
-51.622387 -12.947925 0.027252 32
-51.476925 -12.730426 0.031400 31
-51.248756 -12.495030 0.037043 31
-51.027348 -12.263159 0.042535 31
-51.612473 -12.233401 0.033117 31
-51.221886 -11.964668 0.041671 31
-51.064449 -11.750066 0.045940 30
-51.121166 -11.582940 0.046292 31
-65.631569 -14.471022 -0.215932 50
-30.929661 -7.029997 0.415264 7
-28.442579 -6.417102 0.461101 6
-27.641703 -6.160469 0.476302 5
-27.329874 -6.006049 0.482623 5
-27.480640 -5.943399 0.480579 5
-27.106401 -5.771162 0.488056 5
-27.612701 -5.783678 0.479545 5
-27.381308 -5.649038 0.484362 5
-27.456373 -5.570972 0.483667 5
-27.558777 -5.497268 0.482481 5
-27.657032 -5.422229 0.481368 5
-27.668304 -5.331981 0.481806 5
-27.691099 -5.243655 0.482033 5
-27.705692 -5.153952 0.482400 5
-27.747629 -5.068547 0.482276 5
-27.650927 -4.961640 0.484610 5
-27.723862 -4.880984 0.483925 5
-27.381046 -4.738985 0.490598 5
-27.492859 -4.664517 0.489210 5
-27.406404 -4.561706 0.491323 5
-27.715841 -4.513377 0.486443 5
-49.161842 -7.259132 0.109256 26
-21.547670 -3.536603 0.596108 2
-20.961079 -3.393831 0.606846 2
-20.306242 -3.246975 0.618751 2
-19.666508 -3.106597 0.630358 2
-19.201197 -2.987742 0.638899 1
-18.132294 -2.757152 0.658254 12
-18.074909 -2.691396 0.659604 31
-18.001062 -2.627280 0.661219 8
-17.968098 -2.511445 0.662435 1
-18.070305 -2.354220 0.661584 143
-17.839647 -2.279415 0.665882 39
-12.904469 -1.772197 0.751899 0
-12.603725 -1.714271 0.757279 0
-12.586127 -1.676016 0.757773 0
-12.596341 -1.639527 0.757785 0
-12.626395 -1.604073 0.757454 0
-12.636360 -1.567388 0.757467 0
-12.514544 -1.520647 0.759755 0
