# .PCD v.7 - Point Cloud Data file format
VERSION .7
FIELDS x y z intensity
SIZE 4 4 4 1
TYPE F F F U
COUNT 1 1 1 1
WIDTH 1618
HEIGHT 1
VIEWPOINT 0 0 0 1 0 0 0
POINTS 1618
DATA ascii
0.980500 -1.960140 0.005839 1
0.973614 -1.963819 0.005651 1
0.963034 -1.960583 0.007186 1
0.965291 -1.981458 0.002690 1
0.963782 -1.995457 -0.000086 1
0.949902 -1.985042 0.003183 1
0.942930 -1.988614 0.002993 1
0.939507 -1.999113 0.001077 1
0.921871 -1.981756 0.006067 1
0.923695 -2.002671 0.001559 1
0.907938 -1.988680 0.005689 1
0.900953 -1.992105 0.005500 1
0.897748 -2.002349 0.003590 1
0.884231 -1.991524 0.006870 1
0.884024 -2.008936 0.003218 1
0.871914 -2.001708 0.005625 1
0.858195 -1.990892 0.008899 1
0.852863 -1.997679 0.007843 1
0.854085 -2.018614 0.003319 1
0.848987 -2.025236 0.002270 1
0.832134 -2.007147 0.007283 1
0.825085 -2.010308 0.007093 1
0.818347 -2.004760 0.008733 1
0.802230 -1.996933 0.011488 2
0.803873 -2.019644 0.006520 2
0.787413 -2.001234 0.011544 1
0.791226 -2.029327 0.005268 1
0.776419 -2.014399 0.009425 2
0.767060 -2.011973 0.010540 2
0.765284 -2.027507 0.007303 2
0.765657 -2.048460 0.002757 2
0.752878 -2.036803 0.006058 1
0.742422 -2.032600 0.007599 1
0.737117 -2.041021 0.006089 2
0.729585 -2.041896 0.006343 2
0.721339 -2.040930 0.007032 1
0.711326 -2.036434 0.008585 1
0.710524 -2.055552 0.004464 2
0.699113 -2.047355 0.006891 2
0.687769 -2.039103 0.009320 2
0.685413 -2.054550 0.006068 2
0.678561 -2.057067 0.005885 1
0.666622 -2.046870 0.008753 1
0.668111 -2.073294 0.002872 1
0.658850 -2.070374 0.003990 1
0.644382 -2.052707 0.008613 2
0.635569 -2.039246 0.012021 2
0.630601 -2.059536 0.007790 2
0.626910 -2.071096 0.005414 2
0.618745 -2.069725 0.006106 1
0.608625 -2.064864 0.007658 1
0.598911 -2.059839 0.009220 1
0.592289 -2.064039 0.008588 1
0.584802 -2.064392 0.008844 1
0.581967 -2.081665 0.005125 1
0.567576 -2.061637 0.010206 1
0.562674 -2.071321 0.008254 1
0.556344 -2.075295 0.007630 2
0.550407 -2.083199 0.006106 2
0.548737 -2.104052 0.001507 1
0.535775 -2.087528 0.005716 1
0.526242 -2.082169 0.007284 1
0.523659 -2.099144 0.003573 1
0.518815 -2.108623 0.001622 1
0.509980 -2.107039 0.002298 1
0.497331 -2.090289 0.006516 1
0.489994 -2.092281 0.006321 1
0.484699 -2.101776 0.004359 1
0.477322 -2.103724 0.004164 1
0.472933 -2.116959 0.001315 1
0.461286 -2.087733 0.008292 1
0.461953 -2.135858 -0.002618 1
0.446199 -2.103603 0.005160 1
0.437292 -2.097759 0.006745 1
0.433293 -2.114780 0.002997 1
0.420353 -2.093804 0.008118 2
0.414817 -2.103115 0.006151 2
0.408252 -2.106633 0.005522 2
0.402179 -2.114014 0.003995 2
0.396495 -2.123279 0.002024 1
0.382212 -2.094474 0.008931 1
0.376542 -2.103682 0.006961 1
0.370814 -2.112875 0.004988 1
0.361364 -2.104890 0.007015 2
0.355979 -2.115950 0.004597 2
0.352490 -2.136546 -0.000048 1
0.339574 -2.111277 0.005986 1
0.332536 -2.112647 0.005800 1
0.326618 -2.121718 0.003823 1
0.318805 -2.121199 0.004073 2
0.309919 -2.114904 0.005660 2
0.298604 -2.095152 0.010370 1
0.295418 -2.119473 0.004823 1
0.291079 -2.136052 0.001067 1
0.283957 -2.117490 0.005432 1
0.271784 -2.115569 0.006023 1
0.263448 -2.109023 0.007625 1
0.259875 -2.131304 0.002524 2
0.251474 -2.126692 0.003669 2
0.243710 -2.125900 0.003921 2
0.234996 -2.121280 0.005058 2
0.229275 -2.133924 0.002176 1
0.220947 -2.129194 0.003324 1
0.212655 -2.124431 0.004472 2
0.207711 -2.140826 0.000701 2
0.198489 -2.126306 0.004101 2
0.190655 -2.127302 0.003896 2
0.184178 -2.135956 0.001906 2
0.174390 -2.121426 0.005292 2
0.170677 -2.153250 -0.002088 2
0.161085 -2.136680 0.001758 2
0.153743 -2.135521 0.002021 3
0.147529 -2.147937 -0.000872 3
0.138716 -2.133167 0.002539 1
0.132632 -2.147476 -0.000806 1
0.122764 -2.121013 0.005309 2
0.117751 -2.146914 -0.000739 2
0.116443 2.155912 0.013642 2
0.124700 2.162988 0.012074 3
0.132031 2.164247 0.011817 3
0.138342 2.155780 0.013758 1
0.147529 2.170530 0.010433 1
0.153743 2.158099 0.013262 1
0.156818 2.151878 0.014675 1
0.171432 2.175763 0.009264 1
0.176096 2.151645 0.014722 1
0.182943 2.148857 0.015342 2
0.189893 2.144066 0.016409 2
0.198897 2.154723 0.013969 2
0.206642 2.155679 0.013722 2
0.215493 2.164335 0.011723 2
0.220478 2.145919 0.015854 2
0.227925 2.144866 0.016044 1
0.238096 2.159167 0.012744 1
0.246192 2.161909 0.012060 2
0.251847 2.149204 0.014873 2
0.258676 2.144189 0.015936 1
0.265152 2.137228 0.017436 1
0.273837 2.145700 0.015432 2
0.285673 2.167474 0.010394 2
0.289779 2.146976 0.014947 3
0.297230 2.145682 0.015136 3
0.301466 2.129072 0.018803 1
0.312467 2.146919 0.014633 1
0.324332 2.168550 0.009596 1
0.325863 2.136483 0.016752 1
0.331382 2.127476 0.018671 1
0.339686 2.149726 0.013543 1
0.350085 2.143689 0.014696 2
0.360731 2.157469 0.011407 2
0.364141 2.136835 0.015942 3
0.374041 2.146728 0.013523 3
0.379385 2.135607 0.015882 3
0.385940 2.130191 0.016938 3
0.398108 2.149498 0.012352 1
0.403362 2.138316 0.014709 1
0.410334 2.134725 0.015329 2
0.416293 2.125328 0.017259 2
0.423667 2.123592 0.017445 1
0.433373 2.131309 0.015466 1
0.439924 2.127709 0.016076 1
0.445865 2.120213 0.017560 1
0.451272 2.110811 0.019475 2
0.460076 2.114620 0.018362 2
0.476419 2.146707 0.010767 1
0.479812 2.129675 0.014411 1
0.477957 2.093804 0.022370 1
0.491462 2.114440 0.017372 1
0.496691 2.104920 0.019283 2
0.508259 2.117933 0.016015 2
0.511288 2.100861 0.019649 1
0.514933 2.099830 0.019741 1
0.527338 2.104404 0.018273 2
0.537991 2.113509 0.015872 2
0.550975 2.130044 0.011750 1
0.547292 2.090378 0.020552 1
0.554543 2.088185 0.020734 1
0.562734 2.087718 0.020494 1
0.571752 2.091055 0.019386 1
0.583793 2.103652 0.016129 1
0.585889 2.086589 0.019739 1
0.595571 2.091682 0.018202 1
0.599995 2.082026 0.020092 1
0.612569 2.094338 0.016848 1
0.619834 2.091917 0.017030 1
0.621995 2.074697 0.020641 1
0.632689 2.083435 0.018240 1
0.636019 2.069889 0.020991 1
0.648445 2.082108 0.017743 1
0.662653 2.097813 0.013651 1
0.660564 2.069519 0.019824 1
0.662339 2.052265 0.023425 1
0.683092 2.086289 0.015049 1
0.690328 2.083622 0.015229 1
0.699970 2.088371 0.013690 1
0.692435 2.057809 0.020616 1
0.706322 2.060900 0.019183 1
0.710615 2.050876 0.021068 1
0.730686 2.080810 0.013564 1
0.736090 2.074492 0.014587 1
0.731214 2.042795 0.021579 1
0.746038 2.057909 0.017501 1
0.750550 2.047652 0.019391 2
0.753143 2.033927 0.022122 2
0.766258 2.045425 0.018891 1
0.774879 2.046066 0.018215 1
0.777352 2.032303 0.020943 1
0.793362 2.050979 0.016005 1
0.793862 2.033754 0.019573 1
0.803632 2.035912 0.018481 1
0.805127 2.020327 0.021630 1
0.812132 2.017234 0.021803 1
0.816705 2.008777 0.023249 2
0.831805 2.023415 0.019177 2
0.839641 2.022004 0.018925 2
0.840870 2.006391 0.022067 2
0.850323 2.008479 0.020966 1
0.862316 2.015823 0.018595 1
0.876061 2.026634 0.015378 1
0.881271 2.028490 0.014617 1
0.881536 2.002361 0.019956 2
0.885026 1.991986 0.021820 2
0.890718 1.987032 0.022404 2
0.900231 1.988886 0.021304 2
0.919458 2.009893 0.015555 1
0.908688 1.971561 0.024178 1
0.935168 2.006365 0.015052 1
0.934931 1.988932 0.018600 1
0.939672 1.982098 0.019605 1
0.954176 1.992195 0.016406 1
0.955579 1.978224 0.019106 1
0.953204 1.957374 0.023490 1
0.962437 1.959106 0.022383 2
0.972372 1.960433 0.021293 2
0.982932 1.963612 0.019774 2
0.989738 1.959900 0.019940 2
0.996192 1.956351 0.020098 1
0.993385 1.935552 0.024471 1
1.019387 1.965816 0.016221 1
1.024600 1.958390 0.017237 1
1.019665 1.934206 0.022447 1
1.038162 1.950651 0.017567 1
1.044584 1.946942 0.017723 1
1.055890 1.958465 0.014445 1
1.063728 1.949345 0.015524 1
1.056739 1.921674 0.021571 1
1.057328 1.907663 0.024250 2
1.088360 1.943769 0.014345 2
1.080769 1.916360 0.020378 1
1.097702 1.928934 0.016348 1
1.098176 1.914866 0.019024 1
1.111056 1.920686 0.016671 1
1.132027 1.939867 0.010963 1
1.121917 1.909257 0.017822 1
1.130649 1.908350 0.017145 1
1.130880 1.894274 0.019815 1
1.135305 1.886770 0.020810 1
1.150770 1.895384 0.017631 1
1.150852 1.881306 0.020297 1
1.162803 1.885140 0.018365 1
1.165732 1.876149 0.019768 2
1.181013 1.884751 0.016585 2
1.187543 1.880348 0.016742 1
1.196275 1.879145 0.016064 1
1.198327 1.868259 0.017889 1
1.202559 1.860588 0.018878 1
1.206753 1.852910 0.019867 1
1.212222 1.853862 0.019110 1
1.237763 1.869373 0.013510 1
1.232816 1.848892 0.017829 1
1.239220 1.844309 0.017983 1
1.236382 1.827062 0.021465 1
1.258934 1.844531 0.015792 1
1.258337 1.830424 0.018440 1
1.271696 1.835159 0.016097 1
1.276877 1.828876 0.016665 1
1.279669 1.819460 0.018063 1
1.282412 1.810045 0.019459 1
1.301788 1.822357 0.015041 1
1.312887 1.823723 0.013531 1
1.309271 1.806756 0.016994 1
1.305868 1.789590 0.020461 1
1.321456 1.797278 0.017284 1
1.320372 1.783198 0.019919 1
1.331440 1.784417 0.018408 1
1.350216 1.794468 0.014419 1
1.332051 1.758863 0.022858 2
1.357668 1.778405 0.016370 2
1.363518 1.773638 0.016508 1
1.369659 1.768598 0.016654 1
1.375782 1.763538 0.016799 1
1.378837 1.761000 0.016871 1
1.398099 1.765293 0.013780 1
1.406752 1.763110 0.013097 1
1.412856 1.757921 0.013242 1
1.411256 1.743834 0.015864 1
1.389989 1.707910 0.024671 2
1.428174 1.739546 0.014489 2
1.441973 1.743079 0.012155 1
1.440199 1.728996 0.014772 1
1.435734 1.712032 0.018213 1
1.441955 1.706476 0.018359 1
1.437328 1.689580 0.021796 1
1.453749 1.695830 0.018636 1
1.459618 1.690477 0.018774 1
1.465468 1.685102 0.018911 1
1.471300 1.679708 0.019047 1
1.485162 1.682842 0.016713 1
1.482906 1.668858 0.019319 1
1.494087 1.669065 0.017808 1
1.483298 1.646912 0.022872 1
1.488996 1.641455 0.023005 1
1.505319 1.647468 0.019842 1
1.527467 1.658701 0.015043 1
1.527704 1.647521 0.016820 1
1.519532 1.633597 0.020173 1
1.528002 1.625215 0.020370 1
1.533905 1.619322 0.020507 1
1.528345 1.602704 0.023920 1
1.561887 1.624454 0.015842 1
1.541946 1.594466 0.023350 1
1.536187 1.577935 0.026758 1
1.561439 1.591247 0.021145 1
1.581128 1.599007 0.017173 1
1.572152 1.580058 0.021392 1
1.563609 1.560612 0.025621 1
1.583332 1.568216 0.021650 1
1.588755 1.562411 0.021775 1
1.594157 1.556586 0.021899 1
1.599540 1.550743 0.022023 1
1.627848 1.566205 0.015594 1
1.610243 1.539001 0.022269 1
1.615564 1.533102 0.022391 1
1.609146 1.516792 0.025783 1
1.643509 1.537074 0.017723 1
1.631140 1.515591 0.022747 1
1.636378 1.509619 0.022867 1
1.659387 1.518974 0.018085 1
1.646794 1.497620 0.023105 1
1.649384 1.494609 0.023164 1
1.657125 1.485549 0.023340 1
1.677261 1.492068 0.019377 1
1.661353 1.468395 0.025205 1
1.696607 1.487271 0.017164 1
1.695693 1.476102 0.018911 1
1.682582 1.455058 0.023918 1
1.687359 1.449215 0.024026 1
1.692366 1.443047 0.024139 1
1.697103 1.437172 0.024246 1
1.702315 1.430659 0.024364 1
1.707257 1.424439 0.024475 1
1.712178 1.418202 0.024586 1
1.741583 1.431470 0.018180 1
1.734364 1.415236 0.021551 1
1.757918 1.423179 0.016780 1
1.756595 1.412029 0.018517 1
1.736452 1.386760 0.025131 1
1.756919 1.392154 0.021173 1
1.745770 1.374384 0.025339 1
1.750515 1.368013 0.025445 1
1.755003 1.361944 0.025545 1
1.759939 1.355220 0.025655 1
1.764851 1.348478 0.025765 1
1.767414 1.344939 0.025822 1
1.789633 1.347587 0.021902 1
1.797716 1.342996 0.021199 1
1.808998 1.340611 0.019684 1
1.803979 1.327310 0.022220 1
1.824677 1.331863 0.018266 1
1.816121 1.316691 0.021605 1
1.801010 1.297181 0.026564 1
1.805486 1.290618 0.026663 1
1.829459 1.297128 0.021899 1
1.833934 1.290465 0.021997 1
1.841432 1.286281 0.021280 1
1.845870 1.279576 0.021377 1
1.827302 1.257899 0.027141 1
1.844803 1.259745 0.023998 1
1.852446 1.255143 0.023283 1
1.886522 1.267323 0.016094 1
1.844517 1.231187 0.027516 1
1.875321 1.241109 0.021137 1
1.872946 1.230150 0.022847 1
1.877399 1.222995 0.022943 1
1.881616 1.216165 0.023034 1
1.865715 1.197125 0.027974 1
1.889769 1.202806 0.023210 1
1.898563 1.203403 0.021639 1
1.891298 1.185049 0.025003 1
1.902339 1.181799 0.023480 1
1.906412 1.174883 0.023567 1
1.903679 1.164027 0.025268 1
1.910887 1.159404 0.024542 1
1.931900 1.162156 0.020592 1
1.962987 1.170915 0.014217 1
1.932851 1.144622 0.022371 1
1.926523 1.131886 0.024874 1
1.913270 1.115421 0.028989 1
2.003031 1.155489 0.008910 1
1.920927 1.101498 0.029150 1
1.924720 1.094517 0.029230 1
1.928488 1.087522 0.029309 1
1.932231 1.080515 0.029388 1
1.970829 1.091347 0.021412 1
1.974586 1.084193 0.021490 1
1.971353 1.073432 0.023179 1
1.974863 1.066634 0.023252 1
1.978534 1.059465 0.023328 1
1.971678 1.047002 0.025818 1
1.978786 1.041592 0.025088 1
1.989394 1.037883 0.023552 1
1.984151 1.030814 0.025198 1
2.031753 1.040550 0.015652 1
2.017680 1.024686 0.019748 1
2.003522 1.008931 0.023841 1
1.978653 0.988262 0.030345 1
1.982049 0.981080 0.030414 1
1.985421 0.973886 0.030483 1
2.024363 0.983062 0.022512 1
2.059829 0.990353 0.015346 1
2.041807 0.973209 0.020236 1
2.034421 0.961004 0.022714 1
2.037722 0.953628 0.022780 1
2.005123 0.930479 0.030878 1
2.008318 0.923205 0.030942 1
2.032918 0.925595 0.026183 1
2.014318 0.909353 0.031060 1
2.039091 0.911212 0.026305 1
2.056674 0.909880 0.023155 1
2.070655 0.906934 0.020808 1
2.070143 0.897942 0.021671 1
2.051446 0.881579 0.026546 1
2.032662 0.865356 0.031419 1
2.035630 0.857986 0.031476 1
2.085954 0.869317 0.021105 1
2.083801 0.864108 0.021936 1
2.091890 0.854197 0.021219 1
2.113117 0.853628 0.017265 1
2.118942 0.838320 0.017376 15
2.103444 0.823834 0.021438 1
2.150555 0.832035 0.011875 1
2.061312 0.790830 0.031964 1
2.111969 0.800575 0.021597 1
2.133174 0.799487 0.017642 1
2.117424 0.785275 0.021698 1
2.101601 0.771182 0.025753 1
2.130052 0.772868 0.020192 1
2.147407 0.770591 0.017034 1
2.116739 0.751203 0.024291 1
2.175229 0.761672 0.012328 1
2.121849 0.735870 0.024383 1
2.131695 0.730994 0.022825 1
2.137924 0.724477 0.022069 1
2.159080 0.722661 0.018110 1
2.124148 0.703143 0.026157 1
2.096595 0.686193 0.032602 1
2.166404 0.699208 0.018238 1
2.123766 0.677792 0.027881 1
2.147450 0.680701 0.023100 1
2.154568 0.670541 0.022357 1
2.179437 0.669308 0.017596 1
2.155348 0.653866 0.023234 1
2.142492 0.641801 0.026471 1
2.159778 0.638266 0.023308 1
2.116717 0.617579 0.032942 1
2.170110 0.615432 0.022615 15
2.160734 0.604972 0.025045 1
2.174170 0.600123 0.022679 1
2.164722 0.589727 0.025108 1
2.159128 0.579973 0.026739 1
2.176309 0.575962 0.023572 1
2.163043 0.564348 0.026799 1
2.206859 0.566680 0.018036 1
2.166849 0.548696 0.026856 1
2.187787 0.545344 0.022888 1
2.178182 0.534785 0.025312 1
2.179995 0.526910 0.025339 1
2.181781 0.519028 0.025364 1
2.217986 0.518734 0.018198 1
2.146965 0.494943 0.033403 1
2.148639 0.487177 0.033425 1
2.199318 0.493827 0.023051 1
2.190296 0.479530 0.025481 1
2.230332 0.479385 0.017514 1
2.193430 0.464087 0.025521 1
2.187302 0.454657 0.027138 1
2.204233 0.449701 0.023962 1
2.190342 0.438838 0.027176 1
2.160985 0.425233 0.033582 1
2.193271 0.422999 0.027210 1
2.186975 0.413703 0.028823 1
2.203812 0.408481 0.025644 1
2.205117 0.400915 0.025658 1
2.183332 0.388684 0.030464 1
2.200109 0.383314 0.027283 1
2.193652 0.374129 0.028892 1
2.194905 0.366200 0.028903 1
2.246440 0.366346 0.018534 1
2.201085 0.351702 0.028125 1
2.206196 0.343914 0.027337 1
2.222865 0.338145 0.024152 1
2.224047 0.329713 0.024160 1
2.232914 0.322725 0.022571 1
2.237820 0.315574 0.021779 1
2.211601 0.304416 0.027373 1
2.200443 0.298949 0.029771 1
2.233096 0.290379 0.023391 1
2.210699 0.279577 0.028185 1
2.199893 0.270660 0.030582 1
2.216412 0.264029 0.027391 1
2.213382 0.255606 0.028191 1
2.214180 0.248009 0.028192 1
2.211052 0.240020 0.028990 1
2.188466 0.229379 0.033780 1
2.220436 0.224365 0.027392 1
2.228973 0.217042 0.025793 1
2.217927 0.208387 0.028185 1
2.238166 0.201581 0.024190 1
2.231001 0.192883 0.025782 1
2.219896 0.183943 0.028172 1
2.232213 0.176766 0.025771 1
2.232776 0.168705 0.025764 1
2.225463 0.160536 0.027354 1
2.210322 0.151535 0.030540 1
2.210797 0.143549 0.030531 1
2.234749 0.136440 0.025731 1
2.227343 0.127971 0.027318 1
2.219906 0.119556 0.028904 1
2.216354 0.111365 0.029691 1
2.243937 0.108519 0.024095 1
2.216983 0.095752 0.029666 1
2.197677 0.087084 0.033645 1
2.209681 0.079498 0.031235 1
2.225578 0.071934 0.028025 1
2.229685 0.064390 0.027212 1
2.218100 0.056103 0.029591 1
2.230000 0.048285 0.027178 1
2.237953 0.040334 0.025562 1
2.230202 0.032178 0.027141 1
2.222422 0.024077 0.028719 1
2.230292 0.016070 0.027101 1
2.238133 0.008010 0.025482 1
2.265544 -0.000190 0.019868 1
2.253731 -0.008275 0.022242 1
2.218377 -0.016012 0.029409 1
2.237863 -0.024314 0.025391 1
2.249481 -0.032608 0.022969 1
2.229721 -0.040303 0.026939 1
2.237374 -0.048148 0.025316 1
2.229317 -0.056003 0.026887 1
2.272172 -0.065019 0.018069 1
2.236625 -0.072380 0.025233 1
2.271567 -0.081826 0.018010 1
2.236139 -0.084896 0.025187 1
2.243472 -0.096557 0.023546 1
2.243082 -0.104656 0.023515 1
2.227008 -0.111929 0.026681 1
2.242194 -0.121254 0.023448 1
2.241717 -0.129348 0.023415 1
2.225567 -0.136451 0.026580 1
2.232858 -0.145010 0.024945 1
2.232299 -0.153072 0.024910 1
2.223894 -0.160555 0.026473 1
2.219405 -0.167883 0.027238 1
2.250051 -0.178008 0.020803 1
2.229815 -0.184895 0.024762 1
2.229081 -0.193348 0.024721 1
2.259576 -0.204244 0.018280 1
2.211990 -0.207965 0.027842 1
2.207350 -0.215172 0.028603 1
2.206587 -0.222746 0.028564 1
2.225203 -0.233161 0.024517 1
2.232128 -0.242041 0.022872 1
2.254599 -0.252718 0.018024 1
2.206946 -0.255456 0.027587 1
2.182652 -0.260646 0.032346 1
2.232308 -0.274330 0.021892 1
2.227917 -0.277876 0.022670 1
2.218547 -0.289335 0.024198 1
2.217484 -0.297345 0.024149 1
2.208682 -0.303892 0.025705 1
2.215331 -0.312956 0.024053 1
2.229760 -0.322781 0.020799 1
2.205317 -0.327411 0.025556 1
2.196371 -0.334209 0.027108 1
2.210644 -0.344530 0.023849 1
2.221002 -0.354344 0.021391 1
2.169353 -0.354646 0.031757 1
2.226061 -0.372053 0.019675 1
2.197659 -0.375530 0.025233 1
2.184710 -0.381474 0.027583 1
2.202624 -0.392757 0.023516 1
2.220487 -0.404169 0.019447 1
2.199749 -0.408661 0.023400 1
2.182861 -0.413733 0.026550 1
2.227561 -0.430397 0.016860 1
2.183764 -0.429850 0.025631 1
2.201435 -0.441526 0.021557 1
2.226816 -0.454471 0.015878 1
2.175183 -0.452715 0.026250 1
2.173551 -0.460574 0.026187 1
2.195651 -0.469723 0.021334 1
2.204681 -0.483692 0.018830 1
2.145521 -0.479090 0.030815 1
2.193610 -0.497510 0.020308 1
2.165066 -0.499388 0.025866 1
2.170908 -0.508965 0.024192 1
2.211056 -0.526597 0.015282 1
2.136720 -0.517420 0.030488 1
2.172959 -0.534308 0.022379 1
2.163429 -0.540299 0.023917 1
2.176801 -0.551494 0.020633 1
2.205325 -0.566601 0.014129 1
2.165226 -0.565276 0.022098 1
2.155512 -0.571526 0.023631 1
2.123249 -0.570967 0.029999 1
2.159172 -0.588333 0.021881 1
2.149500 -0.594094 0.023416 1
2.139816 -0.599795 0.024951 1
2.160324 -0.613809 0.020044 1
2.158130 -0.621615 0.019967 1
2.159564 -0.630876 0.019079 1
2.176131 -0.644111 0.014972 1
2.106254 -0.631797 0.029401 1
2.141680 -0.650147 0.021267 1
2.129258 -0.650665 0.023645 1
2.136892 -0.666006 0.021102 1
2.142005 -0.676031 0.019408 1
2.132233 -0.681059 0.020942 1
2.122329 -0.686413 0.022472 1
2.157210 -0.705979 0.014321 1
2.154567 -0.714162 0.014232 1
2.107331 -0.707355 0.023830 1
2.082490 -0.707603 0.028588 1
2.080095 -0.714760 0.028508 1
2.170338 -0.753634 0.008235 1
2.120646 -0.753562 0.017753 15
2.106868 -0.757352 0.020087 1
2.115254 -0.768884 0.017573 1
2.094072 -0.769944 0.021524 1
2.098702 -0.780178 0.019816 1
2.088567 -0.785081 0.021342 1
2.104152 -0.799414 0.017206 1
2.075616 -0.797442 0.022775 1
2.076447 -0.806332 0.021873 1
2.091885 -0.820814 0.017734 1
2.067033 -0.819939 0.022494 1
2.078871 -0.832719 0.019166 1
2.084692 -0.839330 0.017499 1
2.062004 -0.843416 0.021403 1
2.059009 -0.850877 0.021306 1
2.103192 -0.877428 0.010677 1
2.056566 -0.867249 0.020300 1
2.046246 -0.871702 0.021822 1
2.043307 -0.878738 0.021727 1
2.054788 -0.891837 0.018389 1
2.044413 -0.896211 0.019910 1
2.055634 -0.909783 0.016564 1
2.037867 -0.911367 0.019701 1
2.023868 -0.914037 0.022033 1
2.031540 -0.925740 0.019500 1
2.042736 -0.939097 0.016154 1
2.057271 -0.954514 0.011989 1
1.993246 -0.934464 0.025689 1
2.007741 -0.949833 0.021523 1
2.029265 -0.968597 0.015729 1
2.000983 -0.964363 0.021310 1
2.008198 -0.976610 0.018764 1
1.994123 -0.978845 0.021095 1
2.001253 -0.991142 0.018546 1
2.004796 -1.001797 0.016810 1
2.008290 -1.012488 0.015072 1
1.999465 -1.012682 0.016644 1
1.994258 -1.023178 0.016482 1
1.990453 -1.030762 0.016363 1
1.965827 -1.027386 0.021137 1
1.972661 -1.039839 0.018580 1
1.972649 -1.048418 0.017657 1
1.958320 -1.050521 0.019982 1
1.958074 -1.059431 0.019052 1
1.954325 -1.066528 0.018937 1
1.954200 -1.075094 0.018011 1
1.950397 -1.082177 0.017894 1
1.943123 -1.087387 0.018593 1
1.946156 -1.098175 0.016843 1
1.966302 -1.118417 0.011009 1
1.927890 -1.106934 0.019048 1
1.930815 -1.117741 0.017295 1
1.909799 -1.115142 0.021260 1
1.923086 -1.131381 0.017060 1
1.922486 -1.140298 0.016121 1
1.911871 -1.143013 0.017640 1
1.904445 -1.147982 0.018335 1
1.903767 -1.156869 0.017394 1
1.896307 -1.161786 0.018089 1
1.898932 -1.172669 0.016328 1
1.900225 -1.178123 0.015447 1
1.897324 -1.190482 0.014439 1
1.889774 -1.195330 0.015132 1
1.865529 -1.189902 0.019920 1
1.867986 -1.200793 0.018155 1
1.867067 -1.209645 0.017208 1
1.869426 -1.220588 0.015440 1
1.875040 -1.233655 0.012850 1
1.870684 -1.240461 0.012720 1
1.856424 -1.240901 0.015051 1
1.845471 -1.243386 0.016561 1
1.850917 -1.256506 0.013968 1
1.836668 -1.256775 0.016299 1
1.816134 -1.252307 0.020281 1
1.844277 -1.280635 0.011933 1
1.830236 -1.280448 0.014271 1
1.802803 -1.272061 0.019885 1
1.811247 -1.287441 0.016462 1
1.813155 -1.298460 0.014682 1
1.802138 -1.300591 0.016192 1
1.810389 -1.316102 0.012764 1
1.805978 -1.322353 0.012634 1
1.788302 -1.320196 0.015783 1
1.793204 -1.333518 0.013175 1
1.806530 -1.348503 0.008979 1
1.783773 -1.346540 0.012897 1
1.766610 -1.343480 0.016062 1
1.752643 -1.342637 0.018404 1
1.766551 -1.363299 0.013308 1
1.764640 -1.372385 0.012335 1
1.762931 -1.381155 0.011368 1
1.748695 -1.380486 0.013702 1
1.722274 -1.369934 0.019348 1
1.739428 -1.392562 0.013431 1
1.737369 -1.401602 0.012454 1
1.738606 -1.412733 0.010657 1
1.715390 -1.404264 0.015480 1
1.698396 -1.400506 0.018651 1
1.724103 -1.431036 0.010234 1
1.700724 -1.422645 0.015053 1
1.701552 -1.434062 0.013244 1
1.690168 -1.435636 0.014746 1
1.685362 -1.441488 0.014606 1
1.674494 -1.442350 0.016124 1
1.687230 -1.463747 0.010996 1
1.679068 -1.467387 0.011676 1
1.658924 -1.460914 0.015673 1
1.660007 -1.471719 0.013872 1
1.657417 -1.474748 0.013797 1
1.929175 -1.827074 0.018259 13
1.914035 -1.826082 0.020160 13
1.909381 -1.834009 0.019638 6
1.892507 -1.831893 0.021879 6
1.888940 -1.841448 0.020999 4
1.876729 -1.842897 0.022207 4
1.867714 -1.846655 0.022727 2
1.874037 -1.865674 0.019405 2
1.901543 -1.905235 0.010850 1
1.866549 -1.884728 0.017635 1
1.848642 -1.880501 0.020237 1
1.867321 -1.912048 0.013766 1
1.874940 -1.932328 0.010092 1
1.854189 -1.925236 0.013392 1
1.833511 -1.918024 0.016694 1
1.854487 -1.952658 0.009510 1
1.808952 -1.920084 0.019108 1
1.807706 -1.932289 0.017517 1
1.822852 -1.961468 0.011724 1
1.802637 -1.953578 0.015040 1
1.793389 -1.956956 0.015555 1
1.786510 -1.963472 0.015361 1
1.793126 -1.984281 0.011660 1
1.792340 -1.990409 0.010860 1
1.774136 -1.991199 0.012678 1
1.761439 -1.992187 0.013874 1
1.751423 -1.996011 0.014369 1
1.760325 -2.019841 0.009956 1
1.764154 -2.037597 0.006954 1
1.735930 -2.020586 0.012377 1
1.713445 -2.008966 0.016408 1
1.721705 -2.033192 0.011977 1
1.722367 -2.048323 0.009664 1
1.728128 -2.069412 0.005940 1
1.700565 -2.051603 0.011382 1
1.674997 -2.037229 0.016104 1
1.672960 -2.049313 0.014493 1
1.658108 -2.046409 0.016407 1
1.678854 -2.085549 0.008442 1
1.659245 -2.076273 0.011777 1
1.637197 -2.063867 0.015821 1
1.632091 -2.073170 0.014901 1
1.649786 -2.109554 0.007628 1
1.642375 -2.115568 0.007421 1
1.622929 -2.105957 0.010761 1
1.627863 -2.127220 0.007016 1
1.588466 -2.093155 0.016012 1
1.609295 -2.126872 0.008827 1
1.617175 -2.160718 0.002834 1
1.595049 -2.148000 0.006877 1
1.587881 -2.153532 0.006677 1
1.580317 -2.159329 0.006467 1
1.587077 -2.183864 0.001996 1
1.560369 -2.164573 0.007464 1
1.531823 -2.141699 0.013658 1
1.526281 -2.150733 0.012728 1
1.532808 -2.175277 0.008251 1
1.548526 -2.212565 0.000925 1
1.517509 -2.186460 0.007827 1
1.519084 -2.204749 0.004766 1
1.495609 -2.187685 0.009548 1
1.490218 -2.196360 0.008623 1
1.480224 -2.198609 0.009122 1
1.472503 -2.204030 0.008908 1
1.437665 -2.170742 0.017257 1
1.454758 -2.211561 0.009194 1
1.442521 -2.210415 0.010408 1
1.441432 -2.225446 0.008050 1
1.426979 -2.220968 0.009978 1
1.423583 -2.232728 0.008333 1
1.402603 -2.218333 0.012409 1
1.405264 -2.230733 0.010155 1
1.409472 -2.260937 0.004840 1
1.377808 -2.229904 0.012502 1
1.372124 -2.238267 0.011570 1
1.362131 -2.240005 0.012071 1
1.352537 -2.241452 0.012582 1
1.338334 -2.236465 0.014519 1
1.330482 -2.241392 0.014303 1
1.335141 -2.266303 0.009777 1
1.345873 -2.301300 0.003092 1
1.306823 -2.256007 0.013654 1
1.303009 -2.267537 0.011998 1
1.304854 -2.289400 0.008171 1
1.300876 -2.300952 0.006511 1
1.291185 -2.302130 0.007021 1
1.279496 -2.299884 0.008252 1
1.269428 -2.301214 0.008752 1
1.261350 -2.305899 0.008531 1
1.243401 -2.293530 0.011917 1
1.241228 -2.308361 0.009531 1
1.248703 -2.340297 0.003533 1
1.242424 -2.348334 0.002586 1
1.216873 -2.322037 0.008866 1
1.231658 -2.367802 -0.000033 1
1.206547 -2.332221 0.007809 1
1.203700 -2.356167 0.003856 1
1.210432 -2.388288 -0.002162 1
1.170378 -2.333866 0.009925 1
1.156634 -2.327792 0.011876 1
1.153981 -2.342517 0.009478 1
1.158547 -2.371186 0.004177 1
1.143382 -2.361310 0.006865 1
1.145913 -2.386531 0.002283 1
1.128585 -2.373273 0.005688 1
1.109586 -2.356416 0.009822 1
1.099550 -2.357028 0.010324 1
1.091279 -2.361121 0.010100 1
1.095185 -2.389871 0.004781 1
1.080299 -2.379615 0.007477 1
1.086112 -2.411743 0.001436 1
1.064003 -2.387436 0.007036 1
1.048852 -2.377205 0.009725 1
1.047235 -2.395342 0.006582 1
1.038830 -2.399251 0.006355 1
1.020475 -2.381729 0.010507 1
1.028979 -2.421080 0.002989 1
1.020485 -2.424925 0.002759 1
1.011977 -2.428740 0.002530 1
1.001266 -2.416291 0.005339 1
1.001299 -2.450661 -0.000858 1
0.980047 -2.425606 0.004767 1
0.962122 -2.407646 0.008932 1
0.966128 -2.440148 0.002842 1
0.948304 -2.422075 0.007010 1
0.941337 -2.429260 0.006048 1
0.932815 -2.432800 0.005818 1
0.928798 -2.447206 0.003386 1
0.920643 -2.450527 0.003167 1
0.902732 -2.432312 0.007333 1
0.889371 -2.424942 0.009297 1
0.890020 -2.450049 0.004667 1
0.881856 -2.453242 0.004448 1
0.877540 -2.467561 0.002009 1
0.858963 -2.445206 0.006932 1
0.854599 -2.459474 0.004491 1
0.851539 -2.477418 0.001311 1
0.853880 -2.510097 -0.004822 1
0.840050 -2.498424 -0.002095 1
0.815040 -2.457319 0.006529 1
0.803739 -2.453027 0.007775 1
0.808415 -2.493087 0.000156 1
0.786519 -2.459115 0.007314 1
0.800529 -2.512515 -0.003153 1
0.782150 -2.502219 -0.000547 1
0.766151 -2.482747 0.003672 1
0.761672 -2.496695 0.001229 1
0.741220 -2.466213 0.007652 1
0.737521 -2.483977 0.004456 1
0.732483 -2.498009 0.001999 1
0.730223 -2.519374 -0.001933 1
0.705361 -2.473653 0.007470 1
0.712099 -2.525084 -0.002416 1
0.688000 -2.479054 0.007007 1
0.677420 -2.474067 0.008274 1
0.674041 -2.495612 0.004312 1
0.669821 -2.513271 0.001103 1
0.656527 -2.500794 0.003846 1
0.658826 -2.541048 -0.003835 1
0.642700 -2.517052 0.001156 1
0.625659 -2.489199 0.006897 1
0.629309 -2.537141 -0.002297 1
0.614083 -2.516877 0.001944 1
0.604215 -2.515484 0.002456 1
0.599507 -2.533017 -0.000765 1
0.584534 -2.512585 0.003482 1
0.592755 -2.579473 -0.009460 1
0.570320 -2.512213 0.003880 1
0.562954 -2.538406 -0.000960 1
0.544871 -2.502418 0.006302 1
0.543185 -2.531155 0.000838 1
0.538546 -2.552491 -0.003155 1
0.526828 -2.543166 -0.001143 1
0.519729 -2.552902 -0.002879 1
0.504052 -2.524264 0.002899 1
0.503150 -2.560732 -0.004091 1
0.491562 -2.551246 -0.002075 1
0.477477 -2.530209 0.002197 1
0.469448 -2.535966 0.001211 1
0.463045 -2.549378 -0.001280 1
0.447576 -2.520504 0.004504 1
0.441147 -2.533857 0.002012 1
0.436210 -2.554891 -0.001988 1
0.427252 -2.556667 -0.002224 1
0.416447 -2.546764 -0.000186 1
0.409767 -2.560039 -0.002684 1
0.397109 -2.542429 0.000852 1
0.385304 -2.528624 0.003637 1
0.377857 -2.537949 0.001894 1
0.370350 -2.547253 0.000148 1
0.359134 -2.533250 0.002949 1
0.357399 -2.549484 -0.000192 1
0.348785 -2.582778 -0.006610 1
0.335043 -2.553177 -0.000780 1
0.332207 -2.589420 -0.007819 1
0.318816 -2.563679 -0.002753 1
0.308623 -2.557283 -0.001473 1
0.300386 -2.566445 -0.003237 1
0.292538 -2.575516 -0.004990 1
0.280142 -2.553468 -0.000672 1
0.271190 -2.554699 -0.000906 1
0.265355 -2.575292 -0.004928 1
0.253648 -2.553059 -0.000592 1
0.247803 -2.581512 -0.006162 1
0.232825 -2.535880 0.002733 1
0.225409 -2.552588 -0.000557 1
0.219257 -2.577023 -0.005360 1
0.209319 -2.570239 -0.004072 1
0.201199 -2.575076 -0.005058 1
0.189616 -2.552610 -0.000718 1
0.182354 -2.565195 -0.003229 1
0.174161 -2.573896 -0.004990 1
0.165976 -2.578622 -0.005978 1
0.157309 -2.583362 -0.006978 1
0.153955 2.570768 0.013301 1
0.161726 2.558211 0.015759 1
0.170167 2.557404 0.015975 1
0.178606 2.556569 0.016191 1
0.188339 2.563475 0.014933 1
0.196364 2.554720 0.016645 1
0.199908 2.546428 0.018242 1
0.213616 2.544890 0.018592 1
0.224861 2.563365 0.015113 1
0.232825 2.558449 0.016070 1
0.242727 2.565146 0.014816 1
0.250073 2.552325 0.017263 1
0.258938 2.551166 0.017489 1
0.269444 2.561655 0.015497 1
0.279465 2.568210 0.014246 1
0.286083 2.551394 0.017427 1
0.295978 2.553931 0.016926 1
0.305451 2.556497 0.016414 1
0.313714 2.551262 0.017377 1
0.323835 2.557643 0.016129 1
0.331430 2.548470 0.017828 1
0.341153 2.554853 0.016569 1
0.351140 2.557176 0.016069 1
0.360706 2.559537 0.015559 1
0.369595 2.557992 0.015785 1
0.375192 2.541028 0.018939 2
0.385466 2.547162 0.017693 2
0.395049 2.549393 0.017183 1
0.399396 2.524570 0.021812 1
0.413073 2.549975 0.016887 1
0.416731 2.545260 0.017733 1
0.426824 2.527230 0.021000 1
0.437209 2.533153 0.019757 1
0.448459 2.542881 0.017783 1
0.458952 2.548717 0.016542 1
0.466959 2.542989 0.017498 1
0.472358 2.525722 0.020646 1
0.485486 2.542962 0.017213 1
0.492547 2.533318 0.018897 1
0.501344 2.531313 0.019119 1
0.517870 2.559780 0.013512 1
0.517506 2.519463 0.021032 1
0.526254 2.517371 0.021253 1
0.535510 2.519171 0.020733 1
0.543293 2.513204 0.021682 1
0.556910 2.530070 0.018261 1
0.567677 2.535453 0.017026 1
0.571459 2.514172 0.020886 1
0.586296 2.534688 0.016742 1
0.588911 2.509581 0.021324 1
0.600757 2.518617 0.019364 1
0.614790 2.535178 0.015952 1
0.622522 2.528962 0.016899 1
0.631303 2.526504 0.017120 1
0.633510 2.517704 0.018680 1
0.645746 2.514201 0.018987 1
0.649987 2.496580 0.022105 1
0.668872 2.527924 0.015803 1
0.670045 2.498836 0.021102 1
0.679883 2.499970 0.020596 1
0.685469 2.485915 0.022994 1
0.696478 2.490738 0.021764 1
0.707529 2.495513 0.020535 1
0.714545 2.489155 0.021463 1
0.719505 2.475162 0.023845 1
0.732628 2.487441 0.021162 1
0.744202 2.491915 0.019946 1
0.752853 2.489032 0.020162 1
0.758935 2.478677 0.021819 1
0.765818 2.472174 0.022743 1
0.778315 2.480352 0.020797 1
0.790879 2.488472 0.018852 1
0.802612 2.492679 0.017640 1
0.803200 2.467404 0.022170 1
0.814480 2.471703 0.020945 1
0.816210 2.450131 0.024751 1
0.827481 2.454365 0.023526 1
0.838365 2.458709 0.022292 2
0.846838 2.468139 0.020245 2
0.861534 2.466772 0.019858 1
0.865794 2.452487 0.022221 1
0.864180 2.423562 0.027448 1
0.879466 2.438700 0.024065 1
0.886037 2.431864 0.024980 1
0.903806 2.450185 0.020906 1
0.917228 2.457491 0.018982 1
0.921227 2.443102 0.021338 1
0.923615 2.425086 0.024406 1
0.939710 2.439696 0.021043 1
0.948178 2.436131 0.021252 1
0.949969 2.418264 0.024306 1
0.951654 2.400411 0.027357 1
0.968328 2.414636 0.024007 1
0.981503 2.421762 0.022076 1
0.980244 2.396502 0.026558 1
0.999923 2.417897 0.021778 1
1.005043 2.406962 0.023409 1
1.015044 2.406744 0.022903 1
1.028378 2.413623 0.020975 1
1.028389 2.391933 0.024736 1
1.031634 2.377387 0.027072 1
1.048373 2.391258 0.023724 1
1.044004 2.371548 0.027377 1
1.063233 2.379802 0.024841 1
1.083635 2.400542 0.020078 1
1.082816 2.379040 0.023818 1
1.099866 2.392585 0.020477 1
1.102855 2.377915 0.022806 1
1.107539 2.366761 0.024425 1
1.122036 2.374873 0.022148 2
1.127565 2.365427 0.023412 2
1.131724 2.354436 0.025017 1
1.136636 2.343019 0.026641 1
1.157676 2.363116 0.021893 1
1.158449 2.344903 0.024919 1
1.160575 2.330395 0.027227 1
1.176586 2.339678 0.024611 1
1.190382 2.345645 0.022692 1
1.190901 2.327422 0.025712 1
1.200488 2.326643 0.025194 1
1.229769 2.359932 0.017639 1
1.201096 2.290255 0.031223 1
1.234821 2.330005 0.022273 1
1.238975 2.318586 0.023877 1
1.252948 2.324194 0.021962 1
1.262596 2.323170 0.021445 1
1.246691 2.286870 0.028574 1
1.260199 2.283525 0.028151 1
1.296839 2.325905 0.018520 1
1.286594 2.290753 0.025034 1
1.294540 2.285978 0.025227 1
1.308644 2.291247 0.023315 1
1.318662 2.289746 0.022806 1
1.318277 2.271488 0.025803 1
1.336623 2.283281 0.022490 1
1.346251 2.281909 0.021972 1
1.345702 2.263641 0.024964 1
1.349298 2.252032 0.026553 1
1.363526 2.256959 0.024643 1
1.384257 2.271712 0.020636 1
1.388204 2.259758 0.022234 1
1.389519 2.244777 0.024519 1
1.421345 2.275685 0.017024 1
1.413468 2.247818 0.022092 1
1.410225 2.226293 0.025769 1
1.417945 2.221087 0.025955 1
1.439030 2.235332 0.021956 1
1.482651 2.281843 0.010989 1
1.452262 2.221463 0.023025 1
1.455436 2.209665 0.024604 1
1.445650 2.187672 0.028874 1
1.463881 2.189290 0.027059 1
1.482962 2.199893 0.023762 1
1.483662 2.184860 0.026031 1
1.505159 2.198498 0.022041 1
1.498794 2.173910 0.026394 1
1.501646 2.162061 0.027963 1
1.516202 2.166014 0.026059 1
1.509524 2.141534 0.030404 1
1.535952 2.161123 0.025030 1
1.531512 2.139807 0.028677 1
1.550916 2.149809 0.025387 1
1.555961 2.140995 0.026257 1
1.587196 2.166665 0.019497 1
1.614142 2.185654 0.014135 1
1.579868 2.127447 0.026076 1
1.582342 2.115480 0.027636 1
1.611824 2.137362 0.021583 1
1.664104 2.186372 0.009320 1
1.619908 2.115749 0.024026 1
1.629369 2.113160 0.023500 1
1.618801 2.086196 0.028501 1
1.646146 2.104529 0.023148 1
1.643340 2.086403 0.026082 1
1.664669 2.104539 0.021336 1
1.670510 2.089376 0.022974 1
1.652187 2.053281 0.030041 1
1.690104 2.083104 0.021937 1
1.697323 2.076923 0.022107 1
1.724858 2.094803 0.016757 1
1.732118 2.088501 0.016928 1
1.739355 2.082173 0.017099 1
1.725626 2.052262 0.022774 1
1.740622 2.054764 0.020877 1
1.748097 2.048089 0.021053 1
1.741947 2.027120 0.024657 1
1.775564 2.049836 0.017950 1
1.761311 2.020169 0.023612 1
1.789746 2.036854 0.018282 1
1.796803 2.030326 0.018447 1
1.803837 2.023773 0.018612 1
1.797300 2.002889 0.022206 1
1.817837 2.010594 0.018939 1
1.846287 2.027043 0.013609 1
1.858787 2.025985 0.012403 1
1.837971 1.991311 0.019409 1
1.822804 1.962096 0.025049 1
1.840672 1.966673 0.022468 1
1.863490 1.982927 0.017756 1
1.873784 1.972740 0.017995 1
1.872565 1.957250 0.020214 1
1.879343 1.950433 0.020371 1
1.900183 1.957374 0.017110 1
1.872710 1.917842 0.025459 1
1.921886 1.952084 0.015366 1
1.905885 1.923276 0.020986 1
1.929673 1.932648 0.017044 1
1.936031 1.925983 0.017191 1
1.940160 1.915895 0.018034 1
1.949676 1.911531 0.017505 1
1.938941 1.888379 0.021748 1
1.968692 1.902672 0.016446 1
1.951993 1.874260 0.022048 1
1.972756 1.880761 0.018784 1
1.994238 1.886423 0.015537 1
1.959630 1.842403 0.025216 1
1.986641 1.853600 0.020599 1
2.007518 1.859783 0.017337 1
1.990233 1.831721 0.022925 1
2.020368 1.845187 0.017631 1
2.020788 1.832702 0.019136 1
2.051070 1.845896 0.013845 1
2.042281 1.831937 0.016635 1
2.036730 1.808091 0.020247 1
2.052045 1.808306 0.018353 1
2.058302 1.800864 0.018495 1
2.064534 1.793400 0.018637 1
2.076831 1.790920 0.017421 1
2.128840 1.820779 0.007390 1
2.082766 1.771255 0.019050 1
2.079681 1.756291 0.021221 1
2.100850 1.761438 0.017964 1
2.088719 1.738742 0.022172 1
2.119507 1.750690 0.016891 1
2.119353 1.738155 0.018381 1
2.125066 1.730862 0.018510 2
2.118863 1.713151 0.021357 2
2.146702 1.722251 0.016756 1
2.152658 1.714480 0.016889 1
2.161735 1.709062 0.016346 1
2.161335 1.696510 0.017830 1
2.160583 1.684373 0.019306 1
2.182265 1.688264 0.016059 1
2.187812 1.680763 0.016182 1
2.177975 1.660851 0.019693 1
2.184004 1.652576 0.019828 1
2.155145 1.625207 0.026645 1
2.207682 1.646695 0.017370 1
2.200780 1.629208 0.020200 1
2.206693 1.620850 0.020331 1
2.205824 1.608363 0.021803 1
2.201652 1.593661 0.023947 1
2.216638 1.592788 0.022041 1
2.208835 1.576294 0.024850 1
2.233879 1.581558 0.020930 1
2.239344 1.573483 0.021050 1
2.251345 1.569760 0.019824 1
2.243343 1.553330 0.022628 1
2.238822 1.538730 0.024763 1
2.260657 1.541399 0.021517 1
2.275916 1.539653 0.019616 1
2.258003 1.516526 0.024437 1
2.276546 1.516837 0.021863 1
2.275119 1.504401 0.023321 1
2.280315 1.496182 0.023433 1
2.285482 1.487944 0.023545 1
2.304300 1.487560 0.020977 1
2.285896 1.464824 0.025786 1
2.301064 1.462710 0.023882 1
2.319370 1.462962 0.021302 1
2.321899 1.458778 0.021356 1
2.322661 1.442173 0.022859 1
2.321091 1.429367 0.024312 1
2.319215 1.417011 0.025758 1
2.347991 1.422476 0.021172 1
2.308213 1.388875 0.029981 1
2.333559 1.392262 0.026064 1
2.369011 1.401743 0.020133 1
2.373848 1.393197 0.020236 1
2.371765 1.380797 0.021677 1
2.373077 1.370335 0.022447 1
2.398557 1.373143 0.018531 1
2.406759 1.366377 0.017962 1
2.373282 1.337124 0.025419 1
2.402242 1.341572 0.020834 1
2.382476 1.319986 0.025612 1
2.394238 1.314630 0.024375 1
2.391775 1.302354 0.025806 1
2.410282 1.300966 0.023226 1
2.439115 1.305296 0.018638 1
2.397901 1.273293 0.027415 1
2.426949 1.277060 0.022831 1
2.452524 1.278879 0.018915 1
2.486937 1.262670 0.015181 1
2.469970 1.243442 0.019273 1
2.449341 1.222648 0.024030 1
2.478507 1.225633 0.019447 1
2.482729 1.216706 0.019533 1
2.508379 1.217739 0.015618 1
2.487497 1.197159 0.020369 1
2.499771 1.170241 0.020615 11
2.485775 1.153240 0.024027 1
2.496965 1.147463 0.022774 1
2.537075 1.154222 0.016193 1
2.540849 1.145548 0.016267 1
2.544595 1.136862 0.016342 1
2.548507 1.127706 0.016419 1
2.497830 1.095648 0.026478 1
2.512525 1.091193 0.024555 1
2.519999 1.073090 0.024701 11
2.567585 1.081721 0.016791 1
2.534673 1.057860 0.023513 1
2.519968 1.041489 0.026908 1
2.602518 1.068709 0.012315 1
2.582268 1.044698 0.017074 1
2.563759 1.026941 0.021130 1
2.589416 1.026110 0.017210 1
2.548625 1.000168 0.025250 1
2.581246 0.980240 0.021459 1
2.584611 0.970956 0.021522 1
2.573077 0.956377 0.024240 1
2.613573 0.960200 0.017661 1
2.590786 0.941739 0.022369 1
2.582665 0.929040 0.024416 1
2.600631 0.925297 0.021816 1
2.626396 0.923019 0.017895 1
2.607257 0.905647 0.021936 1
2.544807 0.855531 0.034698 11
2.735744 0.905986 0.001588 1
2.738849 0.896166 0.001643 1
2.650646 0.847666 0.018324 11
2.653548 0.838141 0.018374 1
2.749446 0.861708 0.001826 1
2.753712 0.847396 0.001899 1
2.664685 0.800420 0.018563 1
2.667423 0.790846 0.018609 1
2.632134 0.770646 0.025279 1
2.646307 0.763856 0.023337 1
2.648917 0.754346 0.023380 1
2.704837 0.759125 0.014148 1
2.653910 0.735776 0.023460 1
2.687990 0.714406 0.018940 11
2.690427 0.704751 0.018978 1
2.692830 0.695088 0.019015 1
2.695199 0.685417 0.019051 1
2.659166 0.666574 0.025705 1
2.699837 0.666049 0.019120 1
2.702105 0.656354 0.019153 1
2.704339 0.646650 0.019185 1
2.706539 0.636939 0.019217 1
2.754933 0.637415 0.011306 1
2.710838 0.617494 0.019277 1
2.647348 0.593772 0.030554 1
2.713973 0.602890 0.019320 1
2.678394 0.580311 0.025976 1
2.719028 0.578515 0.019387 1
2.682202 0.561544 0.026026 1
2.676362 0.550397 0.027372 1
2.693724 0.543754 0.024750 1
2.703319 0.535539 0.023449 1
2.677976 0.520820 0.028100 1
2.706910 0.516118 0.023491 1
2.708655 0.506398 0.023511 1
2.683159 0.491944 0.028159 1
2.735293 0.491403 0.019579 1
2.705903 0.475906 0.024887 1
2.699721 0.464920 0.026225 1
2.681808 0.452118 0.029546 1
2.695024 0.444309 0.027577 1
2.712043 0.437495 0.024945 1
2.701735 0.426498 0.026940 1
2.714950 0.418015 0.024969 1
2.728070 0.409930 0.022996 1
2.702157 0.395867 0.027634 1
2.719121 0.388270 0.024999 1
2.712533 0.377970 0.026329 1
2.752864 0.373724 0.019725 1
2.718266 0.364341 0.025678 1
2.712302 0.348267 0.027008 1
2.740889 0.341743 0.022385 1
2.698852 0.327489 0.029660 1
2.723520 0.319905 0.025697 1
2.736348 0.311383 0.023716 1
2.694163 0.297594 0.030988 1
2.761829 0.295074 0.019750 1
2.762850 0.284669 0.019749 1
2.720577 0.270747 0.027019 1
2.737183 0.262383 0.024372 1
2.734070 0.252713 0.025030 1
2.715277 0.240792 0.028331 1
2.767188 0.235071 0.019732 1
2.728613 0.222182 0.026336 1
2.729332 0.212388 0.026329 1
2.722145 0.202054 0.027643 1
2.738509 0.193794 0.024991 1
2.711566 0.182271 0.029609 1
2.743653 0.174364 0.024309 1
2.752110 0.164453 0.022975 1
2.728988 0.153376 0.026929 1
2.745229 0.144327 0.024271 1
2.749617 0.134649 0.023596 1
2.706472 0.127888 0.030862 1
2.734622 0.114823 0.026210 1
2.734967 0.105008 0.026194 1
2.707675 0.094361 0.030805 1
2.707948 0.084640 0.030787 1
2.731839 0.075958 0.026800 1
2.751769 0.066546 0.023473 1
2.716445 0.056089 0.029404 1
2.724473 0.046440 0.028060 1
2.736413 0.036774 0.026052 1
2.736485 0.026954 0.026029 1
2.716799 0.017083 0.029311 1
2.716802 0.007332 0.029286 1
2.736496 -0.002508 0.025952 1
2.732486 -0.012297 0.026586 1
2.752110 -0.022327 0.023249 1
2.751975 -0.032201 0.023220 1
2.747862 -0.042003 0.023851 1
2.775267 -0.052464 0.019188 1
2.743491 -0.061129 0.024452 1
2.727448 -0.070522 0.027067 1
2.774476 -0.081330 0.019092 1
2.746521 -0.090798 0.023689 1
2.730381 -0.100037 0.026302 1
2.745928 -0.106072 0.023634 1
2.753202 -0.120226 0.022258 1
2.752726 -0.130103 0.022219 1
2.720701 -0.138316 0.027479 1
2.747704 -0.150124 0.022801 1
2.719560 -0.158331 0.027397 1
2.730762 -0.168840 0.025368 1
2.730116 -0.178639 0.025326 1
2.721567 -0.187882 0.026608 1
2.748393 -0.199683 0.021925 1
2.708348 -0.206014 0.028509 1
2.746932 -0.218415 0.021839 1
2.714625 -0.226115 0.027092 1
2.725526 -0.237380 0.025053 1
2.712856 -0.246084 0.026994 1
2.711941 -0.255820 0.026945 1
2.711040 -0.265067 0.026897 1
2.690487 -0.272318 0.030165 1
2.716890 -0.285348 0.025468 1
2.707995 -0.294246 0.026742 1
2.726512 -0.306165 0.023372 1
2.705796 -0.313680 0.026634 1
2.755563 -0.329465 0.017953 1
2.695690 -0.331652 0.027853 1
2.753803 -0.343796 0.017870 1
2.751841 -0.359104 0.017780 1
2.750532 -0.368975 0.017720 1
2.717991 -0.374072 0.022974 1
2.724442 -0.384921 0.021585 1
2.648929 -0.383549 0.034144 1
2.694364 -0.399956 0.026113 1
2.724115 -0.414332 0.020736 1
2.714817 -0.422903 0.022000 1
2.717181 -0.433260 0.021271 1
2.696064 -0.440350 0.024524 1
2.686688 -0.448740 0.025787 1
2.688955 -0.459040 0.025055 1
2.710620 -0.472711 0.020998 1
2.673952 -0.476287 0.026913 1
2.656705 -0.483098 0.029503 1
2.670482 -0.495479 0.026773 1
2.668698 -0.505066 0.026702 1
2.674629 -0.516121 0.025299 1
2.723205 -0.534994 0.016579 1
2.678716 -0.536364 0.023825 1
2.680752 -0.546275 0.023088 1
2.694148 -0.559540 0.020345 1
2.688278 -0.568405 0.020934 1
2.656281 -0.567222 0.026218 1
2.672598 -0.585202 0.022775 1
2.670500 -0.594795 0.022696 1
2.706975 -0.612470 0.015957 1
2.704782 -0.622182 0.015875 1
2.679491 -0.626586 0.019791 1
2.642682 -0.628131 0.025707 1
2.674973 -0.645812 0.019624 1
2.695669 -0.660954 0.015538 1
2.654995 -0.661258 0.022121 1
2.641267 -0.667465 0.024041 1
2.631353 -0.674550 0.025293 1
2.655571 -0.691304 0.020531 1
2.710243 -0.716164 0.010426 1
2.623901 -0.703343 0.025025 1
2.580901 -0.711426 0.031528 11
2.646832 -0.739448 0.019415 1
2.644196 -0.748951 0.019322 1
2.573191 -0.739219 0.031256 1
2.608348 -0.759746 0.024476 1
2.598064 -0.766924 0.025718 1
2.610610 -0.780221 0.022954 1
2.607971 -0.789128 0.022862 1
2.633026 -0.801698 0.018132 1
2.624817 -0.815200 0.018648 1
2.629455 -0.826945 0.017210 1
2.607835 -0.830052 0.020461 1
2.593599 -0.835861 0.022368 1
2.568085 -0.837986 0.026285 1
2.572460 -0.850099 0.024839 1
2.606922 -0.871594 0.018038 1
2.573873 -0.871050 0.023294 1
2.570933 -0.879835 0.023195 1
2.579014 -0.892863 0.021079 1
2.598390 -0.909320 0.016955 1
2.580255 -0.913496 0.019530 1
2.558400 -0.916256 0.022776 1
2.573736 -0.932023 0.019313 1
2.559289 -0.937286 0.021216 1
2.548546 -0.943800 0.022449 1
2.526679 -0.946191 0.025695 1
2.552914 -0.966204 0.020213 1
2.567958 -0.982273 0.016742 1
2.534960 -0.980362 0.022002 1
2.520431 -0.985259 0.023904 1
2.520617 -0.995736 0.023118 1
2.542988 -1.014352 0.018303 1
2.522833 -1.011742 0.021607 1
2.506449 -1.020974 0.023450 1
2.506491 -1.031453 0.022660 1
2.510146 -1.043425 0.021196 1
2.517398 -1.056928 0.019057 1
2.531874 -1.073507 0.015571 1
2.462762 -1.054828 0.027577 1
2.488286 -1.075483 0.022074 1
2.484478 -1.084431 0.021952 1
2.502378 -1.102695 0.017786 1
2.465722 -1.098025 0.023723 1
2.497955 -1.122703 0.016856 1
2.440082 -1.107342 0.026853 1
2.486779 -1.138148 0.017290 1
2.461178 -1.137386 0.021212 1
2.457155 -1.146238 0.021085 1
2.474606 -1.164929 0.016906 1
2.456172 -1.167209 0.019477 1
2.441326 -1.171043 0.021374 1
2.440752 -1.181505 0.020568 1
2.450819 -1.197052 0.017734 1
2.446587 -1.205867 0.017601 1
2.413931 -1.200937 0.022879 1
2.423859 -1.216538 0.020040 1
2.457114 -1.238250 0.013208 1
2.436634 -1.244047 0.015717 1
2.400294 -1.237360 0.021667 1
2.392404 -1.244222 0.022209 1
2.409082 -1.263573 0.018008 1
2.390816 -1.264603 0.020588 1
2.403625 -1.282710 0.017054 1
2.395601 -1.289534 0.017592 1
2.391047 -1.298156 0.017452 1
2.351883 -1.287831 0.024102 1
2.382079 -1.314923 0.017176 1
2.377437 -1.323498 0.017034 1
2.365841 -1.328283 0.018249 1
2.368062 -1.340598 0.016747 1
2.349301 -1.341906 0.019313 1
2.344564 -1.350366 0.019168 1
2.336364 -1.356875 0.019703 1
2.328387 -1.362924 0.020244 1
2.326999 -1.373269 0.019418 1
2.322396 -1.381233 0.019278 1
2.324337 -1.393561 0.017769 1
2.319421 -1.401934 0.017620 1
2.307687 -1.406280 0.018833 1
2.285793 -1.404513 0.022089 1
2.310385 -1.424812 0.016563 1
2.316325 -1.445451 0.013609 1
2.311228 -1.453795 0.013455 1
2.282593 -1.447678 0.018076 1
2.274137 -1.453830 0.018605 1
2.242260 -1.445336 0.023911 1
2.267191 -1.472305 0.017613 1
2.268658 -1.484697 0.016092 1
2.240172 -1.478027 0.020718 1
2.221704 -1.477574 0.023296 2
2.269404 -1.519896 0.012201 2
2.234353 -1.508675 0.018197 1
2.258661 -1.536237 0.011881 1
2.233810 -1.530905 0.015834 1
2.254630 -1.556476 0.010197 1
2.219994 -1.544396 0.016205 1
2.197971 -1.541743 0.019461 1
2.202299 -1.556345 0.017244 1
2.219537 -1.579933 0.012283 1
2.188065 -1.569971 0.017604 1
2.176073 -1.573353 0.018812 1
2.193367 -1.596689 0.013853 1
2.174603 -1.595881 0.016425 1
2.159361 -1.596858 0.018319 1
2.156271 -1.601148 0.018228 1
2.148084 -1.612430 0.017987 1
2.142689 -1.619799 0.017828 1
2.143620 -1.631818 0.016294 1
2.121753 -1.628218 0.019555 1
2.115731 -1.636265 0.019379 1
2.113118 -1.646276 0.018522 1
2.123028 -1.665804 0.014909 1
2.108056 -1.665923 0.016812 1
2.086857 -1.661162 0.020095 1
2.083831 -1.671492 0.019226 1
2.076392 -1.677813 0.019399 7
2.075431 -1.688592 0.018201 7
2.075968 -1.700603 0.016656 12
2.059190 -1.699523 0.018898 12
2.048594 -1.703274 0.019759 12
2.046897 -1.714764 0.018540 12
2.042087 -1.723779 0.018011 15
2.040896 -1.734540 0.016806 15
2.024457 -1.732783 0.019058 14
2.013506 -1.736697 0.019910 14
2.010416 -1.746511 0.019041 11
2.007283 -1.756324 0.018171 11
2.004417 -1.765773 0.017309 12
1.996813 -1.765574 0.018258 12
2.485168 -2.336190 0.009870 1
2.476961 -2.345117 0.009634 1
2.469135 -2.353572 0.009410 1
2.515847 -2.448491 -0.005281 10
2.435880 -2.388883 0.008458 1
2.427489 -2.397639 0.008218 1
2.410617 -2.415061 0.007737 10
2.393623 -2.432364 0.007253 10
2.351047 -2.474677 0.006042 1
2.342358 -2.483135 0.005795 1
2.333639 -2.491563 0.005548 1
2.325328 -2.499541 0.005312 1
2.308188 -2.515831 0.004827 10
2.294928 -2.528282 0.004451 10
2.282048 -2.540252 0.004087 1
2.272683 -2.548879 0.003823 1
2.263287 -2.557471 0.003558 1
2.254309 -2.565623 0.003304 1
2.284340 -2.634464 -0.007367 10
2.209453 -2.605507 0.002041 1
2.200307 -2.613470 0.001784 1
2.181934 -2.629300 0.001268 10
2.172706 -2.637167 0.001009 1
2.163450 -2.645002 0.000749 1
2.136456 -2.667539 -0.000008 1
2.126625 -2.675631 -0.000283 1
2.098850 -2.698173 -0.001059 1
2.089382 -2.705749 -0.001324 1
2.079888 -2.713292 -0.001589 1
2.075131 -2.717051 -0.001722 1
2.060342 -2.728652 -0.002134 1
2.050768 -2.736093 -0.002401 1
2.041649 -2.743132 -0.002655 1
2.032024 -2.750508 -0.002923 1
2.022374 -2.757851 -0.003191 1
2.012698 -2.765160 -0.003461 1
1.993271 -2.779676 -0.004000 10
1.983519 -2.786883 -0.004271 1
1.973742 -2.794056 -0.004543 1
1.954114 -2.808299 -0.005087 10
1.944756 -2.815017 -0.005346 1
1.934881 -2.822054 -0.005620 1
