# .PCD v.7 - Point Cloud Data file format
VERSION .7
FIELDS x y z intensity
SIZE 4 4 4 1
TYPE F F F U
COUNT 1 1 1 1
WIDTH 1549
HEIGHT 1
VIEWPOINT 0 0 0 1 0 0 0
POINTS 1549
DATA ascii
1.025445 7.559453 0.968303 1
1.051693 7.556263 0.968198 1
1.079635 7.556601 0.968097 1
1.104231 7.549575 0.967986 1
1.132226 7.549694 0.967883 1
1.168849 7.567758 0.967801 1
1.193521 7.560402 0.967687 1
1.226897 7.570955 0.967593 1
1.255116 7.570573 0.967486 2
1.278067 7.559311 0.967366 1
1.312296 7.573611 0.967278 1
1.335256 7.562149 0.967156 1
1.367203 7.568454 0.967053 1
1.399234 7.574615 0.966948 1
1.431349 7.580634 0.966842 1
1.461703 7.582957 0.966731 1
1.484696 7.570973 0.966604 1
1.515115 7.573059 0.966491 1
1.554990 7.592667 0.966394 1
1.585583 7.594454 0.966278 1
1.616232 7.596108 0.966161 1
1.645019 7.594118 0.966040 1
1.677693 7.599016 0.965924 1
1.710445 7.603765 0.965807 1
1.743274 7.608367 0.965688 1
1.775025 7.613472 0.965575 0
1.804873 7.614961 0.965458 0
1.835928 7.615662 0.965333 0
1.869035 7.619690 0.965209 0
1.916305 7.647766 0.965103 0
1.953693 7.658344 0.964981 0
1.993239 7.672184 0.964860 0
2.063660 7.737360 0.964774 1
2.134583 7.802127 0.964684 1
2.216370 7.883585 0.964601 0
5.141036 12.443289 0.966954 47
5.191568 12.435394 0.966711 40
5.257053 12.450979 0.966480 47
5.309874 12.445982 0.966235 43
5.360592 12.437386 0.965986 47
5.413506 12.431937 0.965738 42
5.470827 12.432968 0.965490 43
5.523865 12.427043 0.965237 43
5.585760 12.434245 0.964988 47
5.643368 12.434491 0.964734 45
5.696620 12.427825 0.964475 43
5.754391 12.427560 0.964216 39
5.807757 12.420413 0.963952 37
5.872466 12.429535 0.963693 40
5.921433 12.415297 0.963423 40
5.986377 12.423847 0.963158 40
6.042597 12.423651 0.962902 37
6.103204 12.425069 0.962630 42
6.156968 12.416420 0.962354 38
6.215091 12.409362 0.962062 36
6.271626 12.408148 0.961797 38
6.334937 12.411711 0.961517 36
6.400734 12.418199 0.961234 35
6.466677 12.424366 0.960948 33
6.520843 12.414153 0.960659 31
6.579832 12.410109 0.960367 31
6.643708 12.412181 0.960074 31
6.705709 12.415458 0.959792 31
6.760107 12.404212 0.959494 29
6.829168 12.411745 0.959193 28
6.886136 12.403128 0.958890 26
6.950065 12.399002 0.958568 26
7.014564 12.399271 0.958259 26
7.069237 12.386686 0.957950 7
5.296078 10.086473 0.958125 2
5.215048 9.920768 0.957911 3
5.208436 9.849026 0.957680 6
5.196357 9.771238 0.957451 7
5.181284 9.690551 0.957226 10
5.173382 9.619326 0.957001 10
5.195782 9.585152 0.956763 13
5.171769 9.495754 0.956547 8
5.178189 9.443303 0.956318 11
5.184330 9.390912 0.956090 11
5.182386 9.329466 0.955867 12
5.195776 9.286311 0.955636 11
5.199645 9.235354 0.955423 10
5.197989 9.178440 0.955214 11
5.204159 9.125134 0.954978 11
5.216587 9.082122 0.954750 12
5.239460 9.051056 0.954513 9
5.258127 9.018214 0.954291 12
5.291475 8.998900 0.954045 2
5.300521 8.952849 0.953819 2
5.303923 8.900941 0.953598 3
5.343985 8.831200 0.953117 28
5.382257 8.817327 0.952863 28
5.416410 8.801661 0.952623 25
5.454658 8.787461 0.952367 19
5.502554 8.780454 0.952088 14
5.556112 8.784458 0.951823 11
5.594419 8.769654 0.951562 9
5.643900 8.766117 0.951286 13
5.692092 8.763665 0.951022 10
5.741708 8.759634 0.950742 10
5.802578 8.761135 0.950424 11
5.848158 8.755095 0.950156 11
5.896628 8.751651 0.949883 11
5.949223 8.743829 0.949568 11
6.004900 8.744077 0.949270 11
6.066427 8.749591 0.948961 10
6.119432 8.746458 0.948661 10
6.176950 8.749990 0.948364 8
6.227221 8.743545 0.948064 10
6.277545 8.736842 0.947761 10
6.342540 8.743533 0.947435 10
6.403395 8.748604 0.947123 8
6.458490 8.747934 0.946818 7
6.519332 8.746727 0.946478 10
6.574610 8.745467 0.946167 7
6.634295 8.745107 0.945836 7
6.701393 8.748250 0.945477 7
6.752330 8.739238 0.945155 7
6.815302 8.740555 0.944810 6
6.883050 8.748345 0.944466 6
6.946269 8.748960 0.944114 6
7.007927 8.745047 0.943751 6
7.077427 8.750178 0.943383 6
7.139630 8.751317 0.943037 6
7.209399 8.755698 0.942663 6
7.273186 8.754539 0.942296 5
7.343217 8.758155 0.941915 4
7.483688 8.764202 0.941142 1
7.627799 8.771185 0.940349 6
7.704734 8.777827 0.939937 5
7.769339 8.774031 0.939548 5
7.846563 8.779831 0.939129 5
7.928865 8.791865 0.938709 4
8.009569 8.799232 0.938276 3
8.109390 8.820864 0.937797 1
8.260139 8.881006 0.937199 1
12.857228 12.266213 0.926177 22
12.969902 12.269884 0.925534 26
13.079581 12.270504 0.924894 21
13.189445 12.270495 0.924248 21
13.299492 12.269856 0.923597 21
13.403268 12.263853 0.922956 18
13.529819 12.273748 0.922255 18
13.633936 12.266490 0.921603 15
13.738190 12.258641 0.920946 16
13.862124 12.264129 0.920236 13
13.973225 12.259648 0.919552 13
14.089066 12.261928 0.918871 8
14.211658 12.268138 0.918167 8
14.344983 12.272522 0.917390 8
14.454835 12.268226 0.916709 8
14.580023 12.269455 0.915961 8
14.627876 12.213242 0.915395 17
14.733364 12.199872 0.914692 8
14.885558 12.216957 0.913855 8
15.034738 12.230910 0.913020 9
15.251097 12.287858 0.911991 9
15.380918 12.286663 0.911195 9
15.510940 12.284699 0.910392 9
15.647890 12.286284 0.909564 9
15.788439 12.289199 0.908719 9
15.925838 12.289132 0.907876 9
16.043118 12.275496 0.907086 9
16.161949 12.266455 0.906309 10
16.348980 12.298788 0.905322 10
16.487778 12.286896 0.904404 10
16.631096 12.290066 0.903535 10
16.762909 12.280876 0.902671 10
16.939505 12.297602 0.901662 10
17.068291 12.284648 0.900794 10
13.570357 10.065997 0.910930 2
13.658890 10.041105 0.910245 2
13.539714 9.903518 0.910262 2
13.277361 9.685536 0.910747 2
13.289744 9.615151 0.910294 2
13.260451 9.528599 0.910015 2
13.234236 9.444302 0.909728 2
13.276193 9.401604 0.909233 2
13.293476 9.345269 0.908820 2
13.287397 9.272882 0.908466 2
13.471160 9.303082 0.907466 2
13.610904 9.304879 0.906589 2
13.634854 9.251328 0.906144 2
13.564442 9.144759 0.906007 2
13.567976 9.077587 0.905614 2
13.593958 9.018786 0.905123 2
13.579157 8.942578 0.904795 2
13.600765 8.820444 0.903976 2
13.567152 8.735726 0.903718 2
13.565409 8.667296 0.903344 2
13.581335 8.607776 0.902906 2
13.613704 8.559696 0.902426 2
13.751741 8.559106 0.901532 2
14.612398 8.760978 0.897115 2
14.600840 8.614984 0.896349 2
14.576404 8.533889 0.896040 2
17.460411 8.735025 0.878287 3
17.483604 8.665722 0.877714 3
17.491648 8.590528 0.877203 3
17.596401 8.552881 0.876278 3
27.869776 12.406285 0.831566 8
28.227398 12.422510 0.829286 8
28.578003 12.433569 0.827019 8
28.912048 12.442143 0.824845 9
29.259747 12.447315 0.822556 9
29.701851 12.484323 0.819832 9
30.029888 12.470891 0.817554 10
23.136805 9.510516 0.845189 5
23.210855 9.340144 0.843608 37
23.236044 9.250987 0.842869 59
23.211449 9.145728 0.842361 26
23.216904 9.050498 0.841713 16
23.304018 8.691200 0.838798 5
32.988914 9.556723 0.778432 11
32.999157 9.429986 0.777496 11
33.028397 9.307907 0.776459 11
42.684475 10.620389 0.719004 23
42.687950 10.295431 0.716706 46
42.700558 10.135515 0.715495 69
42.736122 9.980359 0.714156 69
42.767227 9.824289 0.712837 46
42.805637 9.669636 0.711475 46
42.843510 9.514821 0.710113 69
42.867596 9.365470 0.708881 46
42.910851 9.219661 0.707539 46
42.955044 9.065818 0.706130 46
42.998711 8.911767 0.704720 70
43.045788 8.758189 0.703287 46
43.100227 8.605713 0.701807 46
43.150208 8.452298 0.700347 47
43.231255 8.303740 0.698704 23
76.282455 10.601261 0.485068 61
54.865612 4.578313 0.589066 30
28.420353 2.270347 0.756650 7
28.296730 2.159352 0.756635 7
28.280634 2.053029 0.755899 7
12.974756 1.152473 0.856276 1
12.391259 1.096027 0.859920 1
11.811558 1.043672 0.863570 1
10.691687 0.995146 0.871050 1
10.363634 0.951996 0.873003 1
9.961177 0.745144 0.874123 1
9.964246 0.703438 0.873754 1
9.959229 0.664008 0.873460 1
9.954082 0.624608 0.873166 1
9.928675 0.581768 0.872985 1
9.911187 0.540877 0.872764 2
9.909544 0.499442 0.872426 2
9.887778 0.458910 0.872236 3
9.905725 0.414521 0.871734 3
9.875788 0.376626 0.871623 3
9.919275 0.168362 0.869536 17
9.936279 0.125452 0.869046 10
9.917075 0.083075 0.868815 21
9.917987 0.043377 0.868465 22
9.926739 0.003001 0.868054 18
9.946948 -0.042632 0.867515 17
9.951424 -0.082827 0.867133 10
9.935462 -0.125356 0.866874 15
9.943639 -0.165956 0.866461 13
9.947069 -0.212457 0.866029 17
9.962687 -0.256091 0.865536 6
10.032858 -0.643549 0.861597 1
10.046887 -0.688169 0.861098 1
10.065011 -0.731376 0.860582 1
18.282593 -2.269195 0.789361 3
17.550167 -2.357729 0.793644 2
17.282856 -2.377589 0.795319 2
17.034727 -2.402541 0.796812 2
16.793337 -2.433783 0.798199 2
15.680782 -2.482652 0.805458 2
15.606415 -2.528562 0.805544 2
15.527395 -2.576270 0.805645 2
15.475673 -2.629159 0.805507 2
-35.670311 1.291327 0.807720 9
-35.653130 1.402912 0.808708 9
-35.535503 1.518690 0.810188 9
-35.666832 1.762040 0.811554 19
-35.636101 1.873073 0.812590 9
-35.844872 2.233729 0.814525 69
-88.567238 5.986810 0.602592 57
-88.932556 6.312539 0.603478 57
-88.970322 6.604516 0.605594 57
-88.950203 6.908193 0.608061 57
-107.134354 8.514213 0.537369 63
-105.488029 8.759742 0.546811 63
-103.446510 8.962856 0.557723 63
-19.763998 2.451241 0.889912 2
-19.400105 2.482678 0.891817 2
-18.996372 2.508043 0.893857 2
-18.600645 2.531345 0.895843 2
-18.228857 2.554201 0.897715 2
-17.972546 2.585985 0.899127 2
-17.720474 2.613659 0.900488 2
-17.364695 2.631367 0.902244 2
-17.032846 2.649238 0.903892 1
-16.764654 2.672037 0.905286 1
-16.742802 2.721841 0.905760 1
-16.557966 2.751862 0.906827 1
-16.412798 2.785546 0.907740 1
-16.402477 2.835475 0.908160 1
-16.380085 2.883793 0.908622 1
-16.321856 2.927164 0.909209 1
-16.231802 2.965763 0.909904 1
-16.288538 3.022064 0.910063 1
-16.277401 3.071490 0.910478 1
-16.266464 3.118367 0.910872 1
-16.262905 3.168893 0.911259 1
-16.156408 3.203399 0.911993 1
-16.133190 3.247945 0.912423 1
-16.156807 3.302548 0.912714 1
-16.116673 3.349304 0.913235 1
-16.214821 3.416829 0.913281 1
-16.127016 3.455342 0.913954 1
-16.138018 3.508275 0.914286 1
-16.129591 3.555275 0.914661 1
-16.177071 3.715350 0.915591 1
-16.182690 3.770508 0.915957 1
-16.208206 3.827166 0.916244 1
-16.194799 3.873603 0.916631 1
-16.204237 3.927311 0.916967 1
-16.330914 4.005766 0.916952 1
-16.312477 4.054239 0.917374 1
-16.321239 4.108562 0.917714 1
-16.321985 4.161259 0.918077 1
-16.428482 4.235128 0.918116 1
-16.444368 4.291834 0.918438 1
-16.599726 4.383739 0.918382 1
-16.560537 4.428401 0.918863 1
-29.072248 7.871382 0.886998 6
-28.621971 7.856244 0.888881 5
-28.210835 7.848158 0.890637 5
-27.860750 7.858201 0.892245 5
-27.393597 7.824672 0.894073 5
-26.879940 7.868841 0.896620 15
-26.400311 7.920422 0.899061 5
-26.341372 7.995747 0.899817 5
-26.280365 8.162388 0.901179 14
-26.216856 8.235786 0.901936 39
-26.164618 8.312304 0.902662 58
-26.109093 8.479913 0.903993 31
-26.075172 8.561764 0.904669 77
-26.113403 8.666489 0.905180 108
-26.120733 8.761774 0.905761 109
-26.123888 8.855965 0.906352 109
-26.073490 8.932754 0.907059 73
-18.850834 6.743848 0.924126 2
-18.694504 6.755862 0.924870 2
-18.557182 6.773437 0.925567 4
-18.385990 6.778159 0.926327 2
-18.226273 6.785784 0.927054 2
-18.070467 6.793722 0.927766 2
-17.899773 6.795167 0.928499 2
-17.751787 6.803785 0.929180 2
-17.607687 6.812835 0.929845 4
-17.456228 6.818135 0.930517 4
-17.308666 6.823870 0.931174 2
-17.158537 6.824559 0.931810 4
-17.037390 6.838517 0.932404 4
-16.890261 6.841483 0.933039 4
-16.750736 6.846440 0.933654 4
-16.621477 6.857509 0.934261 4
-16.421955 6.892175 0.935301 4
-16.260736 6.884693 0.935926 4
-16.136675 6.891531 0.936481 4
-16.001680 6.892925 0.937049 3
-15.907351 6.910642 0.937544 5
-15.816747 6.929348 0.938028 3
-15.737196 6.952260 0.938491 5
-15.653989 6.973089 0.938955 5
-15.392426 7.194126 0.941309 7
-15.396069 7.252804 0.941632 3
-15.363268 7.294557 0.942004 5
-15.341180 7.341303 0.942361 5
-15.326145 7.391427 0.942707 5
-15.318126 7.445004 0.943044 5
-15.309896 7.498604 0.943381 5
-15.312222 7.557520 0.943704 5
-15.304704 7.608870 0.944023 5
-15.288674 7.658989 0.944368 5
-15.286740 7.716287 0.944696 5
-15.291698 7.777281 0.945017 5
-15.292834 7.836565 0.945342 5
-15.290167 7.894100 0.945671 5
-15.304987 7.960959 0.945982 5
-15.319502 8.028006 0.946294 3
-15.333711 8.095239 0.946607 3
-15.329984 8.153211 0.946938 5
-15.357688 8.228355 0.947240 5
-15.381516 8.301867 0.947547 5
-15.422524 8.385262 0.947839 4
-15.450420 8.458924 0.948129 2
-23.469995 12.992297 0.941574 4
-23.150473 13.013647 0.942916 18
-22.975061 13.006413 0.943549 18
-22.804768 13.005781 0.944196 17
-22.631277 13.002098 0.944838 26
-22.469778 13.009018 0.945487 21
-22.300272 13.005261 0.946110 17
-22.129704 12.994902 0.946700 29
-21.971054 12.995266 0.947299 24
-21.817400 13.002275 0.947913 24
-21.640835 12.984789 0.948484 16
-21.481647 12.976728 0.949037 24
-21.328751 12.980820 0.949628 11
-21.173487 12.973011 0.950164 7
-21.005445 12.970022 0.950772 11
-20.721186 12.970210 0.951821 22
-20.555607 12.946881 0.952310 32
-21.321844 12.998942 1.082168 29
-21.186129 13.012564 1.082114 36
-21.056059 13.024154 1.082050 58
-20.922766 13.032838 1.081958 21
-20.700775 12.979252 1.081248 21
-20.568037 12.986077 1.081141 63
-20.395229 12.965975 1.080765 48
-20.374634 13.048800 1.081420 20
-20.334543 13.109797 1.081871 13
-20.248816 13.145079 1.082056 13
-20.229538 13.224422 1.082683 6
-20.110456 13.236662 1.082638 6
-19.865810 13.162766 1.081733 6
-64.918488 44.112671 1.390666 57
-64.626968 44.218998 1.391182 57
-64.396858 44.382690 1.392244 56
-64.089958 44.507973 1.392897 56
-63.363491 44.303356 1.390331 55
-62.944557 44.327431 1.390016 54
-62.333271 44.226929 1.388445 53
-61.845665 44.178883 1.387455 53
-18.596281 13.165350 1.080203 11
-18.403368 13.103676 1.079461 5
-18.258194 13.084722 1.079129 5
-17.911335 13.000911 1.078017 16
-58.448372 44.145401 1.383030 48
-51.786186 39.331867 1.335403 34
-57.633545 44.141731 1.382004 47
-17.288406 13.043055 1.077602 47
-17.196068 13.056752 1.077601 30
-17.047537 13.025054 1.077160 20
-16.921240 13.010004 1.076882 10
-16.829437 13.021897 1.076867 10
-16.725332 13.023188 1.076751 15
-16.676069 13.064472 1.077029 10
-16.532997 13.118297 1.077296 5
-16.438457 13.125411 1.077239 4
-49.078686 40.778412 1.343962 32
-16.006733 13.016218 1.075816 14
-15.988902 13.086072 1.076367 42
-15.834844 13.037933 1.075784 18
-15.740606 13.036490 1.075657 13
-15.731495 13.113593 1.076278 41
-15.536445 13.026261 1.075324 32
-15.449590 13.033618 1.075278 31
-15.365823 13.043191 1.075254 40
-15.302911 13.071118 1.075406 31
-15.130606 12.999038 1.074604 35
-15.056195 13.015179 1.074646 35
-14.958339 13.009223 1.074477 35
-14.900841 13.035908 1.074626 35
-14.804082 13.034008 1.074492 35
-14.749527 13.062804 1.074662 29
-14.652223 13.055013 1.074479 17
-14.523345 13.016265 1.074004 34
-14.452489 13.032285 1.074049 34
-14.367325 13.034026 1.073959 28
-14.279440 13.032525 1.073839 28
-14.194569 13.033363 1.073742 28
-14.078594 13.002782 1.073350 37
-14.008277 13.016751 1.073378 28
-13.943653 13.036047 1.073458 20
-13.864277 13.035889 1.073359 28
-13.761220 13.019477 1.073099 48
-13.674498 13.014755 1.072954 27
-13.583800 12.996894 1.072697 27
-13.445479 12.941360 1.072072 34
-13.400928 12.978484 1.072322 38
-13.356257 13.015443 1.072571 27
-13.266964 13.000744 1.072341 26
-13.190091 13.007035 1.072299 26
-8.800097 8.410023 1.029225 3
-8.780956 8.443894 1.029480 1
-8.684847 8.385384 1.028882 1
-8.634963 8.387393 1.028838 1
-8.576976 8.369612 1.028621 1
-8.461788 8.348973 1.028311 4
-8.422802 8.351327 1.028283 4
-8.372126 8.347825 1.028192 4
-8.324129 8.341830 1.028084 4
-8.276285 8.340836 1.028018 4
-8.222028 8.329367 1.027857 4
-8.176966 8.325680 1.027772 4
-8.132011 8.326990 1.027728 4
-8.093541 8.333140 1.027731 4
-8.055103 8.339111 1.027733 4
-7.996357 8.320202 1.027506 4
-7.942881 8.307165 1.027334 4
-7.914819 8.319715 1.027403 4
-7.867826 8.316582 1.027320 2
-7.830995 8.320521 1.027307 2
-7.776709 8.307548 1.027134 4
-7.738739 8.312107 1.027125 4
-7.695874 8.310195 1.027057 4
-7.651915 8.303922 1.026952 4
-7.609230 8.301589 1.026881 4
-7.572776 8.304416 1.026859 4
-7.532665 8.304873 1.026814 4
-7.493755 8.309295 1.026803 4
-7.456165 8.312571 1.026784 4
-7.416231 8.312467 1.026734 4
-7.373985 8.308957 1.026654 4
-7.331831 8.305243 1.026572 3
-7.289769 8.301323 1.026488 3
-7.252489 8.303680 1.026462 3
-7.216535 8.304950 1.026428 3
-7.179354 8.306972 1.026400 3
-7.144535 8.312088 1.026399 3
-7.105143 8.310506 1.026338 3
-7.068115 8.312018 1.026305 3
-7.031138 8.313362 1.026271 3
-6.980621 8.294759 1.026057 3
-6.943820 8.295717 1.026020 3
-6.909317 8.299821 1.026011 2
-6.874846 8.303773 1.026001 2
-6.839465 8.303394 1.025955 3
-6.805073 8.307042 1.025943 3
-6.772911 8.313881 1.025960 3
-6.736391 8.313885 1.025915 3
-6.702102 8.317080 1.025900 3
-6.667850 8.320127 1.025883 3
-6.629741 8.311275 1.025764 3
-6.590903 8.312247 1.025724 3
-6.554684 8.311428 1.025673 3
-6.518527 8.310444 1.025621 3
-6.491298 8.317924 1.025649 3
-6.454764 8.321630 1.025635 3
-6.423388 8.322047 1.025600 3
-6.388215 8.324660 1.025578 3
-6.352307 8.322915 1.025520 3
-6.318510 8.324449 1.025491 3
-6.284755 8.325834 1.025461 3
-6.253062 8.330527 1.025461 3
-6.223954 8.333601 1.025451 2
-6.189026 8.335314 1.025422 2
-6.154722 8.331932 1.025353 1
-6.119897 8.333336 1.025321 1
-6.060243 8.284328 1.024847 1
-6.021796 8.278344 1.024751 1
-5.990525 8.281976 1.024742 1
-5.980427 8.324059 1.025075 1
-5.954801 8.338048 1.025159 1
-5.920917 8.333652 1.025081 1
-5.897144 8.350961 1.025194 1
-5.880796 8.382327 1.025431 1
-5.827039 8.342866 1.025042 1
-5.806897 8.366960 1.025215 1
-5.775061 8.365464 1.025164 1
-5.727388 8.336027 1.024864 1
-5.707160 8.359829 1.025035 1
-5.697615 8.405010 1.025394 1
-5.575686 8.353982 1.024826 6
-5.542957 8.352172 1.024771 6
-5.515497 8.361031 1.024810 5
-5.488020 8.369788 1.024849 4
-5.452820 8.355536 1.024689 5
-5.427088 8.367683 1.024757 4
-5.394959 8.369463 1.024732 3
-5.372144 8.384444 1.024827 3
-5.336331 8.374484 1.024702 2
-5.313834 8.393511 1.024830 2
-5.289608 8.408822 1.024926 1
-5.271815 8.438674 1.025149 1
-5.252242 8.464831 1.025340 1
-5.238925 8.505607 1.025658 1
-5.222458 8.543278 1.025947 2
-5.203435 8.564521 1.026098 1
-5.187906 8.601573 1.026383 1
-5.175255 8.645985 1.026732 1
-5.151777 8.668798 1.026891 1
-5.135609 8.705785 1.027174 1
-5.126615 8.757015 1.027583 1
-5.109963 8.793985 1.027866 1
-5.097543 8.842076 1.028246 1
-5.090800 8.909319 1.028789 1
-5.087852 8.979251 1.029359 2
-5.075841 9.031147 1.029770 2
-5.083566 9.139621 1.030670 3
-5.066466 9.171830 1.030913 2
-5.057580 9.235044 1.031421 1
-18.098269 44.406097 1.335870 29
-17.930046 44.417114 1.335754 29
-17.763313 44.431248 1.335667 29
-6.163436 13.066971 1.064206 7
-6.066585 12.922719 1.062904 7
-5.909989 12.726729 1.061105 28
-5.942225 12.960577 1.063063 22
-5.881674 12.917409 1.062635 7
-5.828047 12.901268 1.062437 7
-5.666907 12.818328 1.061560 19
-5.658713 12.938183 1.062533 7
-14.554840 42.704624 1.317583 29
-14.959953 44.595913 1.333592 29
-14.805397 44.633350 1.333711 29
-14.627303 44.589581 1.333134 29
-14.488259 44.679672 1.333703 29
-5.322466 13.016363 1.062763 10
-12.857972 41.044506 1.301891 88
-12.665216 40.885281 1.300350 59
-5.127617 12.961601 1.062076 7
-5.085808 12.972586 1.062115 7
-13.051390 44.756943 1.332582 29
-11.985214 42.396183 1.311913 29
-4.705214 12.852068 1.060661 2
-4.616209 12.843622 1.060483 11
-4.561900 12.794230 1.060012 2
-4.419281 12.730787 1.059317 21
-4.399247 12.841162 1.060198 33
-4.365789 12.888809 1.060548 9
-4.309438 12.822593 1.059936 16
-4.232784 12.870135 1.060232 33
-4.197805 12.901194 1.060444 47
-4.140266 12.822392 1.059728 23
-4.094682 12.806314 1.059540 23
-9.052920 41.881981 1.304112 59
-8.912812 41.922264 1.304272 29
-9.288827 45.067329 1.330531 29
-8.980293 45.113468 1.330532 29
-8.821308 45.106087 1.330277 29
-3.721003 12.843491 1.059389 4
-3.662395 12.730812 1.058393 6
-3.594043 12.841471 1.059217 11
-3.538285 12.740067 1.058317 22
-3.489479 12.686014 1.057814 15
-3.463281 12.806351 1.058769 29
-3.404350 12.668620 1.057567 24
-3.367390 12.705361 1.057823 15
-3.318611 12.642662 1.057249 18
-3.330500 13.112355 1.061117 26
-3.295578 13.184659 1.061667 59
-3.171699 12.795572 1.058324 11
-3.075296 12.636318 1.056900 24
-3.023801 12.544736 1.056086 14
-2.991926 12.644001 1.056861 6
-2.955311 12.671272 1.057040 13
-2.906314 12.599095 1.056388 31
-2.872627 12.690059 1.057093 6
-2.794319 12.744023 1.057440 38
-2.747090 12.655077 1.056653 22
-2.711472 12.737587 1.057286 6
-2.669735 12.728162 1.057158 27
-2.639262 12.842146 1.058056 15
-2.586701 12.712860 1.056931 11
-2.546374 12.726961 1.056997 11
-2.544568 13.571999 1.063927 15
-2.502017 13.605932 1.064154 17
-2.461902 13.595583 1.064020 20
-2.413351 13.593421 1.063943 17
-2.373118 13.710862 1.064857 7
-2.305767 12.920586 1.058292 6
-2.267456 12.889626 1.057991 6
-2.225469 12.870632 1.057784 20
-2.181921 12.871526 1.057738 18
-2.157999 13.880044 1.065982 26
-2.100461 13.000773 1.058699 7
-2.056007 12.693212 1.056121 11
-2.018886 13.485440 1.062575 12
-1.979585 13.457565 1.062298 5
-1.933820 13.489552 1.062505 5
-1.852255 12.637111 1.055412 13
-1.809662 12.788647 1.056603 6
-1.713822 13.695190 1.063923 20
-1.606542 12.760302 1.056123 6
-1.568311 12.735080 1.055869 6
-1.669957 8.179914 1.018626 0
-1.650466 8.050984 1.017545 0
-1.631872 7.922009 1.016464 0
-1.585003 7.891592 1.016157 5
-1.567149 7.782424 1.015240 2
-1.502393 7.702199 1.014503 11
-1.483255 7.640716 1.013975 8
-1.463341 7.595137 1.013577 10
-1.441543 7.577413 1.013405 11
-1.398640 7.537766 1.013027 47
-1.376575 7.539854 1.013017 54
-1.351833 7.545637 1.013034 109
-1.329331 7.551548 1.013055 112
-1.306826 7.545326 1.012977 109
-1.285999 7.523113 1.012769 72
-1.265185 7.512887 1.012660 57
-1.240843 7.514273 1.012641 45
-1.217621 7.515697 1.012625 39
-1.193914 7.521012 1.012639 39
-1.170640 7.522269 1.012621 37
-1.148336 7.515505 1.012539 31
-1.124547 7.520567 1.012551 29
-1.102277 7.513646 1.012467 17
-1.078439 7.518540 1.012478 16
-1.057385 7.519701 1.012462 15
-1.031756 7.520148 1.012434 13
-1.010697 7.504994 1.012284 13
-0.988466 7.513848 1.012330 12
-0.963287 7.526235 1.012401 8
-0.940571 7.514634 1.012278 11
-0.918432 7.507086 1.012189 11
-0.897470 7.499649 1.012102 10
-0.871641 7.507547 1.012135 10
-0.848224 7.507652 1.012107 9
-0.824107 7.511612 1.012110 9
-0.804322 7.504074 1.012025 9
-0.779318 7.499589 1.011957 6
-0.752964 7.515094 1.012052 4
-0.731676 7.502980 1.011927 4
-0.708193 7.502581 1.011895 5
-0.682368 7.526095 1.012056 10
-0.666237 7.482142 1.011676 16
-0.642330 7.489577 1.011708 16
-0.616898 7.492538 1.011701 8
-0.593385 7.491725 1.011665 3
-0.568188 7.498650 1.011691 3
-0.543776 7.501569 1.011686 3
-0.521327 7.500743 1.011651 10
-0.498608 7.495682 1.011582 15
-0.473237 7.502240 1.011605 7
-0.447801 7.508700 1.011627 10
-0.425055 7.503382 1.011555 11
-0.401397 7.501875 1.011514 9
-0.376979 7.508332 1.011537 9
-0.351181 7.510253 1.011522 9
-0.325515 7.516238 1.011539 8
-0.304866 7.506906 1.011438 8
-0.280131 7.508836 1.011423 8
-0.252328 7.522282 1.011499 7
-0.228510 7.520148 1.011453 6
-0.204687 7.517927 1.011405 6
-0.179806 7.519479 1.011388 6
-0.155959 7.517081 1.011339 6
-0.127790 7.530002 1.011411 4
-0.104971 7.523567 1.011330 2
-0.083350 7.521552 1.011287 2
-0.058325 7.522643 1.011265 2
-0.034401 7.519802 1.011213 2
-0.013909 7.505376 1.011069 2
0.012297 7.510029 1.011076 2
0.038526 7.510406 1.011047 1
0.060138 7.503743 1.010966 1
0.086458 7.508101 1.010969 1
0.108063 7.501279 1.010887 1
0.136814 7.508887 1.010914 1
0.160693 7.501158 1.010822 2
0.187392 7.513461 1.010890 2
0.208887 7.502131 1.010771 2
0.240269 7.512706 1.010819 1
0.266899 7.516343 1.010816 1
0.291303 7.520660 1.010822 2
0.316720 7.520316 1.010788 1
0.340832 7.516101 1.010724 2
0.368971 7.523101 1.010747 1
0.397187 7.529984 1.010769 1
0.425253 7.532575 1.010756 1
0.443927 7.512950 1.010572 1
0.471128 7.519938 1.010596 1
0.500683 7.525957 1.010610 1
0.526328 7.524805 1.010569 1
0.549714 7.524430 1.010537 1
0.577991 7.526374 1.010519 1
0.604034 7.529094 1.010509 1
0.629791 7.527542 1.010465 1
0.660027 7.537031 1.010506 1
0.682865 7.527846 1.010402 1
0.707183 7.522285 1.010327 1
0.738735 7.530953 1.010360 1
0.768101 7.540431 1.010402 1
0.794052 7.538242 1.010352 1
0.826275 7.550680 1.010415 1
0.856611 7.555128 1.010414 1
0.881545 7.553093 1.010367 1
0.909244 7.554130 1.010342 1
0.937453 7.559218 1.010349 0
0.966875 7.563681 1.010350 0
0.988164 7.549777 1.010209 0
1.014350 7.546731 1.010152 0
1.047210 7.558131 1.010206 0
1.071797 7.551225 1.010119 0
1.104825 7.562354 1.010170 0
1.129452 7.555235 1.010082 0
1.159214 7.558865 1.010075 0
1.192495 7.569581 1.010122 0
1.222407 7.572941 1.010113 0
1.255888 7.583364 1.010158 1
1.284183 7.582865 1.010119 0
1.310734 7.578667 1.010052 0
1.342669 7.585093 1.010066 0
1.370581 7.588969 1.010064 0
1.397225 7.584432 1.009994 0
1.422052 7.576232 1.009896 0
1.450541 7.575042 1.009852 0
1.480914 7.577280 1.009833 0
1.520667 7.597079 1.009947 0
1.558722 7.613148 1.010032 0
1.589377 7.614929 1.010009 0
1.616283 7.609538 1.009932 0
1.650850 7.618090 1.009960 0
1.677817 7.612457 1.009881 0
1.716416 7.627712 1.009959 0
1.744256 7.625962 1.009911 0
1.779169 7.633907 1.009933 0
1.833922 7.676477 1.010215 0
1.936460 7.746851 1.010667 0
1.991362 7.784390 1.010908 0
2.046229 7.826467 1.011186 0
2.090413 7.846881 1.011300 0
2.134788 7.867070 1.011411 1
5.010750 12.513379 1.046012 5
28.043125 50.199615 1.327021 29
28.216816 50.098000 1.325975 29
28.554432 50.261013 1.326900 29
26.038626 45.848221 1.293774 29
26.090687 45.584316 1.291546 29
26.223429 45.467403 1.290425 29
26.580873 45.685654 1.291778 29
26.679552 45.479851 1.289970 29
26.377552 44.674911 1.283735 29
32.994114 54.485554 1.356130 36
35.562798 57.981346 1.381669 43
35.785835 57.886692 1.380620 43
36.553268 58.605896 1.385582 45
34.640362 55.332645 1.361068 39
34.517639 54.744499 1.356393 38
35.064011 55.141857 1.358985 39
37.931557 58.922695 1.386497 47
38.261223 58.967148 1.386459 47
34.331886 52.915226 1.341614 35
30.794989 47.490845 1.301438 29
34.769665 52.748814 1.339714 35
34.612816 52.148472 1.334981 34
33.711220 50.520943 1.322732 31
33.645142 50.085056 1.319237 30
32.273125 47.848179 1.302563 29
41.320110 59.799591 1.389550 51
32.997234 48.144672 1.304111 29
42.035973 59.906254 1.389551 52
35.436714 50.706070 1.322142 33
34.817715 49.529522 1.313247 31
34.841324 49.210072 1.310598 30
37.142509 51.856125 1.329492 36
44.135029 60.521057 1.392029 55
44.345016 60.362957 1.390476 55
44.621174 60.289040 1.389532 55
44.928799 60.296165 1.389215 56
5.233348 9.828580 1.023716 4
5.219522 9.752081 1.023106 4
5.186416 9.649840 1.022307 2
5.209684 9.552481 1.021480 6
5.200850 9.481536 1.020909 6
5.207145 9.429050 1.020471 6
5.207960 9.370544 1.019990 6
5.204393 9.310357 1.019501 6
5.221735 9.268935 1.019140 8
5.216381 9.204657 1.018619 8
5.219809 9.153783 1.018197 9
5.225810 9.100469 1.017753 9
5.237945 9.062927 1.017430 7
5.258064 9.028825 1.017125 5
5.350656 8.901205 1.015965 18
5.359152 8.855142 1.015577 9
5.378357 8.820790 1.015272 13
5.413884 8.803856 1.015090 16
5.443871 8.780969 1.014865 11
5.508377 8.796840 1.014917 9
5.543908 8.779366 1.014730 9
5.579409 8.761739 1.014542 5
5.617672 8.746820 1.014373 9
5.664437 8.745797 1.014307 7
5.723773 8.749064 1.014262 8
5.776232 8.747687 1.014186 6
5.827420 8.747398 1.014121 6
5.875710 8.738493 1.013989 6
5.931250 8.739120 1.013927 6
5.992617 8.745040 1.013900 6
6.045500 8.742278 1.013813 6
6.097108 8.740646 1.013736 6
6.154391 8.738689 1.013650 6
6.210414 8.737843 1.013575 6
6.263618 8.733956 1.013478 6
6.333071 8.747632 1.013505 6
6.392337 8.748583 1.013441 6
6.431130 8.730230 1.013243 6
6.499392 8.738719 1.013229 6
6.558938 8.738750 1.013157 6
6.621555 8.741141 1.013100 6
6.675359 8.735176 1.012985 6
6.732213 8.731591 1.012886 6
6.807125 8.743602 1.012893 6
6.864192 8.739347 1.012789 6
6.939425 8.750562 1.012789 4
6.989298 8.741961 1.012657 4
7.083020 8.768059 1.012757 2
7.158782 8.778010 1.012746 2
7.240824 8.792702 1.012766 2
7.359515 8.782162 1.012535 2
7.346650 8.716369 1.012011 2
7.302575 8.625319 1.011317 2
7.415841 8.663878 1.011495 2
7.600884 8.759760 1.012056 2
7.751669 8.770355 1.011959 5
7.838247 8.783719 1.011962 5
7.931314 8.801531 1.011995 5
8.030920 8.823724 1.012055 2
8.127644 8.842859 1.012094 5
49.898579 41.098988 1.225664 39
49.166199 39.951061 1.217142 36
49.397182 39.858555 1.216101 37
50.137386 40.119278 1.217335 38
49.677216 39.492466 1.212756 37
49.882030 39.364346 1.211455 37
51.311436 40.135323 1.216033 39
14.019994 12.646861 1.036100 5
14.018471 12.560513 1.035394 5
14.130217 12.556033 1.035220 10
14.212821 12.530003 1.034906 5
14.269326 12.485041 1.034468 10
14.513192 12.485920 1.034177 11
14.510475 12.398741 1.033465 22
14.622420 12.221161 1.031872 16
14.681849 12.096931 1.030780 5
15.574546 12.516604 1.033132 18
15.565778 12.427791 1.032414 18
15.708314 12.428696 1.032248 18
15.738040 12.360469 1.031652 12
15.807395 12.326330 1.031287 12
16.333813 12.474393 1.031858 19
16.190451 12.296264 1.030572 19
16.413544 12.346404 1.030711 19
16.571857 12.363953 1.030661 13
16.640755 12.312594 1.030156 20
16.750097 12.294291 1.029872 20
17.268339 12.511415 1.031020 14
17.287809 12.431965 1.030345 14
17.205069 12.296938 1.029338 7
13.313575 9.783203 1.013472 4
13.224935 9.591591 1.012008 4
13.260349 9.545110 1.011584 4
13.283133 9.488036 1.011088 4
13.295201 9.425099 1.010557 4
13.314031 9.366030 1.010049 4
13.229288 9.254162 1.009235 4
13.270038 9.204133 1.008775 4
13.388892 9.202650 1.008617 4
13.364465 9.120903 1.007977 4
13.637011 9.195870 1.008259 4
13.688225 9.080381 1.007249 4
13.572598 8.955438 1.006365 4
13.618136 8.910236 1.005939 4
13.599254 8.832407 1.005323 4
13.619378 8.774474 1.004823 4
13.639287 8.716496 1.004323 4
13.592141 8.558399 1.003084 4
27.065222 12.114230 1.015792 14
28.182753 12.428044 1.017001 16
28.533306 12.439463 1.016667 16
28.873056 12.444393 1.016292 17
29.218962 12.443028 1.015858 18
29.557510 12.448916 1.015493 18
29.947369 12.464722 1.015146 19
23.359665 9.990950 1.002902 10
23.315458 9.875982 1.002013 10
23.236755 9.749613 1.001072 10
23.195730 8.772184 0.993105 9
23.337524 8.622958 0.991707 20
23.378031 8.543600 0.991007 10
23.431103 8.463017 0.990281 10
23.514652 8.391083 0.989589 10
32.858601 9.929953 0.990796 22
32.993038 9.575357 0.987723 67
33.096664 9.471171 0.986742 22
43.102898 11.410268 0.990423 29
43.924221 10.927420 0.985459 29
42.704384 10.337288 0.982108 88
42.724983 10.178912 0.980784 88
42.764629 10.024466 0.979469 88
42.811584 9.871411 0.978156 59
42.836864 9.722135 0.976900 59
42.871002 9.566468 0.975581 59
42.916389 9.412884 0.974266 59
42.957321 9.258362 0.972949 59
43.025272 9.108631 0.971637 88
43.042908 8.941615 0.970246 59
43.069027 8.792341 0.968989 59
43.123592 8.639803 0.967671 59
43.173698 8.486322 0.966351 59
43.229786 8.317454 0.964897 59
43.335541 8.188640 0.963711 29
109.512115 16.716509 0.952815 2
109.534630 16.322956 0.949559 2
75.885811 8.952718 0.930210 60
54.456707 6.363079 0.935148 29
54.506985 6.169044 0.933495 29
54.437057 5.964181 0.931900 29
54.390305 5.761895 0.930298 29
28.355524 2.393389 0.934474 39
28.322277 1.756804 0.929292 26
28.332767 1.651272 0.928414 26
28.344563 1.445189 0.926709 13
12.763515 1.108354 0.942982 3
9.907708 0.546668 0.941864 6
9.882277 0.510359 0.941597 6
9.870647 0.428079 0.940936 31
9.872396 0.382453 0.940560 20
18.455753 -2.279762 0.908234 5
18.227106 -2.315454 0.908221 5
15.621059 -2.519560 0.909730 4
15.549903 -2.568955 0.909412 4
15.525621 -2.627621 0.908960 4
-35.675949 1.030853 1.001528 56
-35.607601 1.148219 1.002408 56
-35.574844 1.265404 1.003329 55
-35.545677 1.382409 1.004253 55
-35.524105 1.499336 1.005186 55
-35.530228 1.610780 1.006108 55
-35.527855 1.727954 1.007066 74
-35.537071 1.845425 1.008041 55
-35.541874 1.962853 1.009010 55
-35.594051 2.087754 1.010098 75
-35.654186 2.201578 1.011105 56
-53.899937 3.402485 1.043249 29
-74.289742 4.602600 1.078005 50
-74.336601 4.858249 1.080160 50
-88.540459 5.905365 1.106104 63
-88.650543 6.215249 1.108780 63
-88.591850 6.515268 1.111169 63
-88.807503 6.833469 1.114043 63
-88.950157 7.148159 1.116799 63
-107.030205 8.796755 1.152412 63
-105.439034 9.041819 1.152479 63
-103.775688 9.270036 1.152319 63
-19.771980 2.501140 0.994158 4
-19.308382 2.522819 0.993770 4
-18.964352 2.552259 0.993591 4
-18.485222 2.563517 0.993098 3
-18.308460 2.604287 0.993216 3
-17.905087 2.617865 0.992835 3
-17.406050 2.621414 0.992254 3
-17.344591 2.669243 0.992572 3
-17.140192 2.697889 0.992557 3
-16.923248 2.729040 0.992547 3
-16.746305 2.760807 0.992592 3
-16.692078 2.809105 0.992922 3
-16.685637 2.860517 0.993336 3
-16.496567 2.888083 0.993331 3
-16.470709 2.931088 0.993652 3
-16.463146 2.986789 0.994100 3
-16.334015 3.015042 0.994174 3
-16.286907 3.061985 0.994501 3
-16.307283 3.116086 0.994970 3
-16.426325 3.185357 0.995684 3
-16.403154 3.230863 0.996029 3
-16.386942 3.282527 0.996433 3
-16.387156 3.331636 0.996836 3
-16.422300 3.389181 0.997351 3
-16.358198 3.432803 0.997630 3
-16.267681 3.463712 0.997773 3
-16.353497 3.530324 0.998424 3
-16.344088 3.583060 0.998846 3
-16.346750 3.635423 0.999278 3
-16.349222 3.687836 0.999711 3
-16.344124 3.736286 1.000103 3
-16.322670 3.784186 1.000469 3
-16.328524 3.837413 1.000913 3
-16.318497 3.887549 1.001312 3
-16.343557 3.944895 1.001813 3
-16.485851 4.027009 1.002661 3
-16.478535 4.081060 1.003095 3
-16.498930 4.138491 1.003591 3
-16.507940 4.190983 1.004033 3
-16.477160 4.237378 1.004376 3
-16.634037 4.323603 1.005275 3
-16.672977 4.386499 1.005838 3
-37.480026 9.320517 1.071735 23
-37.485748 9.452793 1.072827 23
-30.146849 7.808609 1.050372 11
-29.792688 7.825860 1.050081 11
-29.085060 7.853198 1.049441 22
-28.665754 7.846379 1.048873 21
-28.266186 7.841759 1.048347 21
-27.928856 7.850782 1.048009 30
-27.584061 7.855464 1.047626 20
-26.795078 7.830246 1.046455 9
-26.359243 7.976680 1.047124 100
-26.405811 8.175041 1.048808 9
-26.315409 8.240924 1.049238 9
-26.194206 8.297026 1.049550 9
-26.333944 8.618493 1.052358 18
-26.330046 8.710773 1.053110 9
-26.329607 8.804341 1.053877 18
-26.347836 8.904173 1.054718 28
-26.335260 8.994243 1.055442 18
-26.350340 9.088894 1.056237 28
-19.238951 6.794575 1.028727 4
-18.979986 6.773772 1.028240 4
-18.765762 6.769768 1.027946 4
-18.475960 6.799351 1.027834 4
-18.305845 6.800497 1.027636 4
-18.146185 6.807460 1.027498 4
-18.001717 6.818844 1.027415 4
-17.846102 6.825154 1.027276 4
-17.383938 6.839418 1.026829 3
-17.228962 6.841689 1.026658 3
-17.078911 6.841755 1.026475 3
-16.961536 6.856616 1.026454 3
-16.833080 6.866319 1.026376 3
-16.714859 6.882221 1.026362 3
-16.595074 6.890731 1.026286 3
-16.492886 6.908588 1.026307 7
-16.357460 6.912110 1.026171 3
-16.236963 6.920897 1.026096 3
-16.122923 6.934483 1.026068 3
-16.000004 6.937727 1.025944 3
-15.912958 6.958382 1.026007 6
-15.829612 6.980088 1.026084 6
-15.757285 7.006082 1.026208 6
-15.574154 7.093832 1.026705 6
-15.519966 7.126473 1.026906 6
-15.519211 7.186105 1.027394 3
-15.516751 7.239407 1.027829 3
-15.487599 7.283315 1.028153 6
-15.469169 7.332195 1.028532 3
-15.461407 7.386160 1.028965 3
-15.446214 7.436699 1.029361 3
-15.456053 7.499373 1.029887 3
-15.444037 7.551693 1.030301 3
-15.421049 7.598720 1.030659 3
-15.414559 7.648072 1.031056 3
-15.410363 7.710410 1.031562 3
-15.390393 7.759118 1.031937 3
-15.390457 7.812145 1.032373 3
-15.393838 7.875920 1.032900 3
-15.417124 7.944302 1.033489 3
-15.441198 8.019467 1.034135 3
-15.462601 8.090684 1.034746 3
-15.469535 8.154639 1.035279 3
-15.480976 8.218256 1.035815 3
-15.507199 8.296244 1.036486 3
-15.565947 8.389350 1.037322 3
-15.556664 8.439745 1.037724 3
-23.576403 13.030807 1.085184 26
-23.383556 13.031403 1.084953 25
-23.216110 13.035116 1.084779 25
-23.045427 13.035825 1.084576 25
-22.865335 13.020208 1.084228 25
-69.354378 38.388180 1.797124 60
-69.223808 38.638844 1.799067 60
-69.941910 39.353039 1.811476 61
-68.371765 38.773243 1.795200 60
-68.256500 38.999229 1.796983 60
-67.943321 39.126331 1.796434 59
-67.923828 39.422867 1.799610 60
-68.748100 40.231716 1.813761 61
-67.777779 39.955788 1.804640 60
-67.242920 39.947536 1.801222 59
-67.140793 40.195789 1.803366 59
-67.318184 40.613838 1.809151 60
-67.397888 40.975208 1.813701 60
-71.157349 44.610851 1.877829 62
-70.745560 44.670685 1.875981 62
-70.218689 44.671215 1.872761 62
-69.567398 44.604530 1.868024 63
-69.076927 44.604004 1.865025 63
-68.258362 44.401989 1.857742 62
-58.631485 38.367435 1.730451 51
-67.379257 44.448990 1.852938 62
-66.914696 44.467941 1.850341 61
-66.403419 44.468594 1.847257 61
-65.253166 43.998661 1.834929 60
-64.858398 44.052124 1.833165 59
-64.411362 44.067020 1.830649 59
-64.214615 44.252796 1.831607 59
-56.782764 39.372643 1.730836 50
-63.015461 44.054672 1.822146 58
-62.646297 44.112305 1.820611 58
-62.498634 44.326202 1.822208 58
-61.990116 44.279907 1.818650 57
-60.955196 43.847416 1.807491 56
-60.605099 43.906635 1.806107 56
-60.628765 44.239239 1.810120 56
-60.212021 44.230911 1.807566 56
-59.807648 44.244762 1.805349 55
-51.113190 38.011822 1.681430 45
-50.932659 38.144489 1.681926 44
-51.920998 39.183651 1.699888 46
-57.806595 43.977192 1.790504 54
-49.089970 37.530388 1.663966 42
-48.889610 37.638058 1.664070 41
-17.160154 12.945687 1.189053 4
-48.381924 37.753021 1.662486 41
-48.353359 37.994648 1.665177 41
-48.339260 38.249050 1.668107 41
-55.251648 44.109108 1.777282 52
-49.125980 39.425941 1.686581 44
-54.494801 44.107082 1.772923 51
-54.131241 44.114365 1.770934 51
-53.802082 44.147789 1.769458 51
-53.018051 44.086880 1.764280 50
-52.686054 44.126034 1.762871 50
-52.311798 44.096317 1.760403 49
-51.979248 44.115108 1.758756 49
-15.966973 13.237914 1.185738 8
-15.900116 13.265586 1.185697 6
-15.833236 13.292940 1.185654 16
-49.845730 44.056568 1.746137 47
-49.449032 44.000603 1.743264 47
-48.493877 44.031120 1.738372 46
-48.181095 44.027107 1.736608 46
-47.880527 44.032440 1.735029 46
-47.556679 44.043934 1.733403 46
-46.632843 44.050388 1.728468 45
-45.993595 44.031303 1.724787 45
-42.060490 40.461498 1.659847 32
-45.351128 43.999779 1.720953 44
-45.106319 44.041725 1.720161 44
-44.815636 44.066307 1.718915 44
-38.691341 38.416599 1.616707 43
-38.517620 38.513729 1.616989 42
-38.562649 38.810070 1.620893 22
-13.400617 12.977491 1.168632 3
-13.350163 13.096920 1.169853 3
-13.271714 13.093714 1.169405 16
-13.170146 13.073516 1.168627 9
-8.704993 8.414948 1.087457 1
-8.653537 8.407579 1.087101 2
-8.596863 8.393995 1.086641 2
-8.545750 8.391378 1.086348 2
-8.505274 8.395195 1.086190 2
-8.451708 8.389070 1.085842 2
-8.404819 8.387559 1.085586 2
-8.350170 8.376737 1.085175 2
-8.302176 8.370584 1.084857 2
-8.260796 8.374422 1.084698 2
-8.218168 8.373917 1.084479 2
-8.169175 8.368175 1.084163 2
-8.121575 8.366326 1.083904 2
-8.072806 8.360082 1.083584 2
-8.026699 8.356674 1.083313 2
-7.985754 8.359228 1.083145 2
-7.944865 8.361587 1.082975 7
-7.896503 8.354407 1.082648 3
-7.858261 8.359471 1.082526 2
-7.813877 8.353942 1.082241 2
-7.775744 8.358633 1.082116 2
-7.727782 8.350554 1.081782 3
-7.682404 8.345388 1.081498 3
-7.644466 8.349491 1.081369 3
-7.604136 8.350245 1.081187 3
-7.563871 8.350808 1.081003 3
-7.526082 8.354370 1.080870 4
-7.483535 8.351360 1.080630 4
-7.443468 8.351351 1.080442 5
-7.397616 8.340554 1.080088 5
-7.362452 8.346596 1.080001 5
-7.322600 8.346017 1.079808 6
-7.282819 8.345249 1.079614 6
-7.245441 8.347543 1.079471 5
-7.207075 8.345492 1.079268 5
-7.166469 8.340006 1.079010 4
-7.131308 8.350125 1.078981 3
-7.091854 8.348448 1.078779 2
-7.053760 8.345695 1.078571 1
-7.008942 8.332885 1.078202 1
-6.979738 8.348037 1.078267 0
-6.957551 8.367953 1.078426 0
-6.950552 8.416098 1.079022 0
-6.855798 8.330322 1.077482 0
-6.869882 8.407400 1.078550 0
-6.837369 8.414465 1.078498 0
-6.784316 8.387047 1.077906 0
-6.729324 8.356001 1.077259 0
-6.702292 8.373432 1.077369 0
-6.660577 8.362138 1.077039 0
-6.652764 8.409739 1.077630 0
-6.594103 8.371062 1.076869 0
-6.588160 8.421949 1.077511 0
-6.501216 8.339387 1.076054 0
-6.462989 8.334735 1.075829 0
-6.994388 9.266188 1.090350 0
-7.001647 9.406630 1.092232 2
-6.957931 9.400109 1.091962 1
-6.916353 9.396832 1.091745 0
-6.808224 9.279433 1.089743 0
-6.732519 9.212445 1.088543 0
-6.105074 8.189207 1.072408 0
-6.081901 8.207106 1.072550 0
-6.002021 8.183403 1.071909 1
-5.972991 8.190481 1.071885 2
-5.959439 8.225448 1.072295 2
-5.914556 8.263734 1.072624 6
-5.894208 8.283848 1.072811 2
-5.911513 8.374436 1.074086 0
-5.861338 8.342256 1.073459 0
-5.901386 8.483941 1.075507 0
-5.819160 8.387043 1.073891 0
-5.785964 8.386259 1.073751 0
-5.675889 8.361630 1.072996 9
-5.648344 8.370979 1.073016 8
-5.627881 8.394561 1.073254 4
-5.589647 8.444528 1.073780 0
-5.605321 8.543603 1.075170 0
-5.589284 8.577929 1.075571 0
-5.563159 8.594795 1.075701 0
-5.538289 8.610947 1.075826 0
-5.550128 8.702543 1.077104 0
-5.524858 8.718660 1.077228 0
-5.511156 8.760159 1.077738 0
-5.530476 8.878792 1.079409 0
-5.538673 8.967223 1.080632 0
-5.531919 9.027181 1.081418 0
-5.547352 9.138435 1.082978 0
-5.544301 9.205275 1.083871 0
-5.561611 9.324209 1.085542 0
-5.541937 9.358792 1.085941 0
-5.693959 9.885145 1.093606 1
-20.000042 44.389408 1.611249 13
-19.831680 44.411434 1.610968 13
-6.944607 13.345099 1.144882 2
-19.282501 44.362202 1.608429 13
-19.117752 44.388927 1.608237 13
-18.944565 44.371101 1.607414 26
-18.743885 44.303326 1.605823 39
-18.578257 44.324303 1.605560 26
-18.409374 44.358746 1.605474 26
-18.254208 44.383099 1.605298 13
-18.091480 44.409721 1.605131 13
-17.927387 44.431980 1.604904 13
-17.577671 44.414433 1.603543 26
-17.404535 44.408390 1.602910 26
-6.199318 13.040833 1.138291 2
-6.159852 13.063112 1.138472 1
-16.902149 44.431587 1.601649 13
-5.939715 12.686273 1.132624 1
-16.599648 44.488037 1.601487 12
-16.440134 44.516106 1.601383 12
-16.279354 44.539787 1.601218 12
-16.102516 44.513432 1.600321 12
-15.943154 44.539684 1.600202 12
-15.588519 44.475948 1.598269 38
-14.905560 42.807755 1.573312 12
-15.275219 44.539436 1.598221 12
-15.133513 44.620113 1.598919 12
-14.791596 44.613503 1.597843 12
-14.641273 44.636608 1.597732 12
-14.485520 44.669079 1.597739 12
-13.473228 42.195553 1.560774 23
-13.364385 42.362732 1.562780 23
-13.846367 44.706406 1.596473 12
-13.683324 44.709000 1.596063 12
-13.525519 44.730324 1.595929 12
-13.376789 44.785912 1.596296 12
-13.221840 44.817749 1.596322 12
-13.065825 44.845161 1.596286 12
-12.886517 44.778889 1.594896 12
-12.566405 44.795795 1.594295 12
-11.843664 42.410908 1.559387 11
-12.271619 44.882553 1.594739 12
-12.113824 44.898796 1.594563 12
-11.955153 44.910576 1.594326 12
-4.611388 12.831597 1.130915 1
-4.523567 12.826365 1.130625 10
-4.470570 12.780476 1.129858 11
-4.360907 12.864509 1.130762 17
-4.228150 12.845788 1.130191 3
-4.186011 12.849703 1.130148 2
-9.351564 41.143276 1.535738 33
-9.194299 41.074368 1.534422 22
-9.588926 45.017487 1.590220 25
-9.435852 45.047794 1.590305 25
-9.283314 45.081512 1.590442 25
-9.128707 45.102863 1.590405 25
-3.944371 13.476040 1.138339 2
-3.906911 13.522413 1.138906 3
-3.818454 13.499446 1.138400 16
-3.774199 13.501899 1.138343 17
-3.504420 12.816397 1.128229 22
-3.447499 12.698717 1.126473 41
-3.407187 12.691678 1.126296 20
-3.405252 13.038422 1.131138 56
-3.375207 13.146686 1.132593 57
-3.333209 13.155526 1.132638 56
-3.298516 13.211699 1.133359 30
-3.290912 13.526298 1.137743 16
-3.153229 12.655970 1.125321 15
-3.129399 12.831215 1.127729 24
-3.095259 12.910875 1.128783 13
-3.042910 12.775176 1.126792 9
-2.948419 12.663065 1.125059 15
-2.913811 12.742188 1.126108 14
-2.829899 12.668486 1.124936 36
-2.782895 12.583681 1.123671 58
-2.741198 12.598591 1.123812 41
-2.692622 13.142732 1.131355 2
-2.635455 12.885659 1.127665 11
-2.636351 13.642682 1.138270 12
-2.594386 13.644855 1.138237 5
-2.542799 13.535228 1.136624 8
-2.458501 13.678957 1.138513 26
-2.414058 13.676623 1.138417 22
-2.381977 13.985868 1.142704 13
-2.337476 13.939221 1.141988 6
-2.237675 13.617702 1.137346 16
-2.195884 13.742562 1.139040 23
-2.151405 13.599306 1.136973 23
-2.103552 13.271953 1.132323 13
-2.054775 12.552474 1.122177 7
-2.014618 12.596730 1.122746 21
-1.974138 12.628848 1.123146 21
-1.933498 12.632827 1.123153 21
-1.887987 13.476567 1.134924 35
-1.851952 12.660356 1.123442 10
-1.764563 13.023234 1.128427 12
-1.728412 12.830577 1.125687 19
-1.688738 12.757723 1.124622 18
-1.648720 12.716723 1.124004 21
-1.603582 12.855489 1.125901 28
-1.631450 7.929551 1.056908 10
-1.586479 7.863190 1.055937 27
-1.569444 7.762089 1.054505 28
-1.545114 7.752628 1.054351 67
-1.521767 7.747148 1.054255 102
-1.499272 7.729617 1.053990 63
-1.435007 7.644679 1.052750 22
-1.397236 7.553283 1.051443 13
-1.352873 7.521212 1.050963 252
-1.331216 7.519163 1.050919 252
-1.309170 7.521022 1.050931 252
-1.286785 7.514732 1.050829 182
-1.260323 7.536083 1.051111 62
-1.236597 7.541553 1.051174 38
-1.216682 7.523222 1.050906 23
-1.190873 7.536344 1.051075 24
-1.168986 7.525678 1.050914 22
-1.145835 7.534926 1.051031 21
-1.123120 7.540126 1.051093 15
-1.097451 7.540830 1.051091 15
-1.075124 7.533816 1.050982 15
-1.052835 7.526727 1.050874 15
-1.030036 7.531602 1.050933 13
-1.008923 7.524525 1.050825 14
-0.983205 7.532863 1.050932 13
-0.960908 7.533542 1.050934 12
-0.938166 7.521934 1.050764 13
-0.914106 7.526227 1.050817 12
-0.890003 7.530431 1.050868 11
-0.865199 7.538491 1.050974 10
-0.842815 7.538768 1.050972 11
-0.821333 7.526948 1.050802 11
-0.797120 7.530810 1.050851 8
-0.773580 7.530647 1.050844 5
-0.750027 7.530399 1.050836 6
-0.724978 7.537927 1.050937 5
-0.704778 7.525940 1.050768 5
-0.679292 7.529146 1.050809 4
-0.654907 7.532481 1.050853 5
-0.632421 7.532038 1.050846 4
-0.606355 7.543032 1.050997 3
-0.585956 7.526525 1.050767 5
-0.537802 7.528499 1.050794 7
-0.514985 7.523496 1.050725 8
-0.491309 7.522315 1.050710 8
-0.466732 7.524947 1.050748 8
-0.444164 7.523856 1.050734 7
-0.421586 7.522687 1.050720 6
-0.395069 7.532837 1.050864 6
-0.373182 7.523448 1.050737 5
-0.348469 7.525637 1.050772 4
-0.320808 7.539372 1.050967 3
-0.296812 7.533321 1.050888 3
-0.273125 7.535516 1.050923 2
-0.247250 7.541198 1.051008 2
-0.224509 7.539349 1.050988 2
-0.201553 7.529082 1.050853 2
-0.174527 7.538340 1.050989 2
-0.150691 7.540094 1.051021 2
-0.123522 7.549145 1.051154 2
-0.095069 7.553588 1.051226 2
-0.073312 7.547368 1.051148 1
-0.048220 7.552596 1.051230 2
-0.023057 7.553555 1.051254 2
0.000989 7.550587 1.051224 1
0.025038 7.547531 1.051192 1
0.051435 7.552034 1.051267 1
0.075474 7.544619 1.051177 2
0.103142 7.552737 1.051302 1
0.128531 7.557294 1.051378 1
0.151363 7.545789 1.051233 1
0.178048 7.553964 1.051360 2
0.199805 7.546838 1.051275 2
0.227620 7.550261 1.051339 1
0.253198 7.554342 1.051411 1
0.273518 7.539006 1.051214 1
0.305496 7.557637 1.051491 1
0.331045 7.557243 1.051503 1
0.357948 7.560522 1.051566 1
0.386050 7.563283 1.051624 1
0.413265 7.570518 1.051744 1
0.437592 7.565952 1.051700 1
0.463300 7.565049 1.051707 1
0.494369 7.574862 1.051866 1
0.516194 7.566688 1.051772 1
0.539137 7.558005 1.051673 1
0.566645 7.564616 1.051787 1
0.592476 7.563214 1.051790 1
0.624172 7.576605 1.052001 1
0.650098 7.574982 1.052002 1
0.673069 7.565831 1.051899 1
0.702008 7.571432 1.052003 1
0.732530 7.580614 1.052157 1
0.757047 7.574872 1.052103 1
0.786172 7.580117 1.052204 1
0.812263 7.577865 1.052200 1
0.841501 7.582872 1.052298 1
0.867653 7.580405 1.052292 1
0.895412 7.581506 1.052337 1
0.926419 7.589822 1.052484 1
0.953135 7.591192 1.052532 1
0.978265 7.588804 1.052528 1
1.014401 7.607693 1.052825 0
1.037484 7.597271 1.052711 0
1.065527 7.597678 1.052750 0
1.100320 7.612493 1.052992 0
1.125111 7.605395 1.052927 0
1.158405 7.616301 1.053115 0
1.225332 7.637654 1.053487 6
1.276928 7.626040 1.053399 1
1.308904 7.632645 1.053530 1
1.338027 7.636100 1.053616 1
1.371951 7.646008 1.053795 0
1.402378 7.648619 1.053872 0
1.432864 7.651098 1.053949 0
1.474374 7.674791 1.054325 0
1.511739 7.687016 1.054542 0
1.541341 7.689646 1.054621 0
1.570302 7.687999 1.054641 0
1.599295 7.686232 1.054661 0
1.638937 7.701341 1.054923 0
1.706820 7.773816 1.055992 0
1.740050 7.778536 1.056107 0
1.767579 7.772590 1.056071 0
1.798988 7.773532 1.056133 0
1.838253 7.788303 1.056392 0
1.943679 7.866643 1.057603 1
26.099833 50.020184 1.656284 33
26.568668 50.022121 1.657099 67
