# .PCD v.7 - Point Cloud Data file format
VERSION .7
FIELDS x y z intensity
SIZE 4 4 4 1
TYPE F F F U
COUNT 1 1 1 1
WIDTH 1498
HEIGHT 1
VIEWPOINT 0 0 0 1 0 0 0
POINTS 1498
DATA ascii
-11.266159 6.628755 1.207585 16
-11.256652 6.667458 1.208100 11
-11.243582 6.704067 1.208524 11
-11.247361 6.751194 1.209404 9
-11.250923 6.798417 1.210284 11
-11.260013 6.851621 1.211360 9
-11.264150 6.897433 1.212229 9
-11.263676 6.942806 1.213020 8
-11.266360 6.990415 1.213903 6
-11.269880 7.036489 1.214774 6
-11.281106 7.092475 1.215945 6
-11.293121 7.146996 1.217105 4
-11.301539 7.199460 1.218174 4
-11.309704 7.252058 1.219243 4
-10.902265 6.392885 1.258401 1
-10.893587 6.430305 1.258977 1
-10.891573 6.471914 1.259781 1
-10.906379 6.524093 1.261158 2
-10.870034 6.544711 1.260817 2
-10.887824 6.599178 1.262309 7
-10.854670 6.621752 1.262082 4
-10.821465 6.644163 1.261853 9
-10.781488 6.662086 1.261393 11
-10.764983 6.695019 1.261736 23
-10.745008 6.725720 1.261963 11
-10.741626 6.767338 1.262766 10
-10.735744 6.805262 1.263442 9
-10.728684 6.844741 1.264129 9
-10.737012 6.896932 1.265405 9
-10.752733 6.952218 1.266901 8
-10.749414 6.992617 1.267694 9
-10.754751 7.041393 1.268845 10
-10.759854 7.090280 1.269997 9
-10.768001 7.141564 1.271265 8
-10.785706 7.199883 1.272882 8
-10.799849 7.256086 1.274384 6
-10.808301 7.306273 1.275643 5
-10.824031 7.366681 1.277274 5
-10.859986 7.439816 1.279593 3
-10.870838 7.492864 1.280972 2
-49.554214 35.978138 2.679971 41
-49.222889 35.989395 2.673610 3
-49.154869 36.194805 2.676794 41
-49.188278 36.477020 2.683709 41
-65.983276 49.447308 3.304474 63
-51.317669 38.619087 2.773489 46
-47.656998 36.335506 2.650342 76
-47.520679 36.484978 2.651029 76
-47.217163 36.503109 2.645503 37
-47.111656 36.662910 2.647057 75
-47.049389 36.870094 2.650541 38
-61.977283 49.092201 3.218035 60
-45.267033 35.948406 2.595019 32
-44.961658 35.950550 2.589174 64
-44.823853 36.087780 2.589666 32
-44.586903 36.143070 2.586387 31
-44.319332 36.171585 2.581920 31
-60.205017 49.710072 3.198139 59
-59.844955 49.753380 3.192285 59
-59.604206 49.895649 3.191018 59
-43.395412 36.368526 2.568914 29
-43.032143 36.582287 2.567060 58
-42.965065 36.762978 2.570042 59
-42.878952 36.940201 2.572600 59
-42.729214 37.061623 2.572669 59
-42.641819 37.238293 2.575221 29
-42.764969 37.604382 2.586191 30
-42.639839 37.749279 2.587320 61
-42.485142 37.854382 2.586970 30
-42.361504 38.013474 2.588496 30
-54.572727 49.542717 3.088826 55
-54.288647 49.619930 3.085484 55
-54.100769 49.768608 3.085636 55
-46.808899 43.241512 2.795476 46
-53.660229 50.037872 3.084143 55
-53.442394 50.173855 3.083503 55
-44.632179 42.042892 2.727058 42
-52.724358 50.170410 3.070501 54
-52.392056 50.190960 3.065052 54
-42.067600 40.379009 2.640484 34
-41.941189 40.530018 2.641940 34
-51.432041 50.276180 3.050061 53
-42.918842 42.080883 2.697453 39
-50.836494 50.350410 3.041382 53
-41.400463 41.086067 2.646120 34
-41.982243 41.976978 2.678427 37
-49.793507 50.319908 3.022363 52
-40.985088 41.518097 2.649622 34
-49.293114 50.490826 3.017942 52
-40.029366 41.082119 2.622172 31
-39.742531 41.045269 2.616308 31
-49.335575 51.567970 3.045720 53
-49.420094 52.014080 3.058417 53
-49.369148 52.317478 3.065217 54
-49.440975 52.756680 3.077562 54
-49.483387 53.167446 3.088707 54
-49.480598 53.531693 3.097926 54
-49.483856 53.905476 3.107510 55
-38.635662 42.114460 2.624657 31
-39.116779 42.933163 2.653643 33
-38.822220 42.894501 2.647755 33
-38.612034 43.232025 2.652966 33
-45.319965 51.316902 2.971941 50
-49.692394 56.784618 3.184983 57
-49.666084 57.169483 3.194529 57
-49.704166 57.613819 3.206689 58
-44.483337 51.780769 2.970350 50
-35.861126 41.770634 2.570244 25
-43.015396 50.728943 2.919263 48
-42.727428 50.732800 2.914755 48
-42.486481 50.774696 2.912013 48
-34.878700 41.733086 2.553568 24
-34.545265 41.580643 2.544279 23
-41.783390 50.971222 2.906066 48
-34.965797 42.712708 2.580786 26
-34.417183 42.300056 2.561284 24
-33.323528 41.196262 2.514974 20
-33.009136 41.081066 2.507037 19
-33.015186 41.379379 2.515075 20
-32.968586 41.611481 2.520552 20
-33.889091 43.121525 2.575008 25
-33.496613 42.906845 2.563276 24
-33.457726 43.160824 2.569499 24
-33.326958 43.292999 2.571075 24
-38.850731 51.107403 2.864610 46
-38.333481 50.767796 2.847699 46
-37.969303 50.632317 2.838605 45
-30.749588 40.957481 2.469484 17
-30.623814 41.077248 2.470871 17
-27.688843 37.252834 2.323780 14
-27.865952 37.773907 2.340554 14
-30.426653 41.711109 2.485228 17
-30.311941 41.834846 2.486941 17
-30.105312 41.856171 2.484537 17
-25.951033 36.337029 2.273572 25
-25.858740 36.466984 2.275828 25
-35.538826 51.214329 2.819193 44
-35.519413 51.932529 2.838740 45
-34.840862 52.078495 2.833339 45
-26.047697 38.704842 2.340386 14
-24.099897 36.180981 2.243417 24
-24.002296 36.298748 2.245380 24
-24.226263 36.936291 2.266238 25
-23.635866 36.257626 2.239291 12
-8.443785 11.698000 1.347119 13
-8.391945 11.696577 1.346393 14
-8.360663 11.729268 1.346902 18
-8.331267 11.765311 1.347534 20
-25.874645 42.087627 2.433064 16
-22.680656 36.900917 2.244890 12
-25.093292 41.407581 2.403732 15
-25.194067 41.897778 2.418950 15
-25.336992 42.469189 2.437026 16
-26.434679 44.773571 2.516547 18
-25.880367 44.134937 2.491368 17
-25.783518 44.316273 2.495343 17
-29.611582 51.696629 2.754026 38
-25.314924 44.175583 2.485521 17
-28.695587 51.688766 2.742606 37
-21.942579 39.532928 2.311083 13
-23.257315 42.422199 2.410184 15
-22.978186 42.232693 2.401402 15
-22.825039 42.270054 2.400684 15
-22.687944 42.356934 2.401602 15
-21.727022 40.785515 2.344824 14
-21.887104 42.185238 2.387397 14
-25.431532 49.947941 2.653987 29
-25.026070 49.976784 2.650285 57
-24.819389 49.980923 2.648113 57
-24.631418 50.024132 2.647307 28
-20.751694 42.008350 2.369576 14
-20.591839 42.037292 2.368688 14
-20.592707 42.422958 2.380042 14
-20.384476 42.345322 2.375521 14
-20.562296 43.521061 2.412090 15
-22.860033 50.171192 2.632763 26
-19.070139 41.646725 2.341105 13
-22.457651 50.175678 2.628772 26
-18.723291 41.613663 2.336595 13
-18.494678 41.866844 2.341836 13
-18.125256 42.147495 2.346571 13
-21.127882 50.323063 2.619982 25
-17.857519 42.333027 2.349534 13
-17.562353 41.992188 2.336514 13
-17.350155 41.841675 2.329995 13
-17.868992 44.152794 2.404211 15
-17.651083 44.024017 2.398329 14
-16.677204 42.245953 2.335932 13
-17.010592 43.650604 2.381269 14
-17.060064 44.247612 2.399720 14
-16.845314 44.140152 2.394575 44
-18.471600 50.474152 2.600295 23
-18.307600 50.587502 2.602327 23
-18.092230 50.515022 2.598305 23
-17.555445 51.239475 2.615876 74
-17.365845 51.247742 2.614595 73
-17.198565 51.265289 2.613791 73
-16.998110 51.267185 2.612258 73
-16.810022 51.277199 2.611087 48
-16.622047 51.286514 2.609910 48
-16.259554 51.349197 2.609051 48
-13.225258 41.196938 2.275465 12
-13.074780 41.172424 2.273591 12
-12.928447 41.216751 2.273869 12
-13.469023 43.787514 2.356663 13
-14.956800 50.701591 2.579628 21
-12.984201 43.766327 2.352546 13
-12.799906 43.636040 2.347251 13
-12.562548 43.320705 2.335906 13
-12.633072 44.242462 2.364770 14
-12.478215 44.263920 2.364385 14
-13.832003 50.587551 2.568384 20
-13.619327 50.461365 2.563088 20
-13.407677 50.334301 2.557786 19
-3.018118 5.624375 1.109953 0
-2.940872 5.428651 1.103414 1
-2.915097 5.381094 1.101783 2
-2.887219 5.325757 1.099899 2
-2.867141 5.305493 1.099150 3
-2.848024 5.289057 1.098526 4
-2.829033 5.272540 1.097902 3
-2.814042 5.271478 1.097782 9
-2.793709 5.246969 1.096905 19
-2.777332 5.242002 1.096658 11
-2.761740 5.240901 1.096537 12
-2.743257 5.224017 1.095911 7
-2.724902 5.207057 1.095284 4
-2.709474 5.205765 1.095161 5
-2.694064 5.204418 1.095038 6
-2.678000 5.199072 1.094789 6
-2.661983 5.193667 1.094539 6
-2.647302 5.196092 1.094541 8
-2.630720 5.186622 1.094164 8
-2.616063 5.188939 1.094165 7
-2.600924 5.183187 1.093913 8
-2.586280 5.185400 1.093913 8
-2.571628 5.187561 1.093913 8
-2.557531 5.193629 1.094039 8
-2.541754 5.187769 1.093785 8
-2.527629 5.193737 1.093910 9
-2.511906 5.187765 1.093656 9
-2.497246 5.189667 1.093653 9
-2.482580 5.191517 1.093651 10
-2.468641 5.193227 1.093648 10
-2.453496 5.191007 1.093518 12
-2.438373 5.188732 1.093388 12
-2.424149 5.194351 1.093509 12
-2.411166 5.211847 1.094009 16
-2.395191 5.201467 1.093625 12
-2.380822 5.198909 1.093494 13
-2.365740 5.196373 1.093361 13
-2.350317 5.197833 1.093355 14
-2.335623 5.199170 1.093348 13
-2.321317 5.196409 1.093215 14
-2.306301 5.193661 1.093081 15
-2.291307 5.190859 1.092946 15
-2.277539 5.203950 1.093316 16
-2.262825 5.205034 1.093307 16
-2.247834 5.202077 1.093171 17
-2.233385 5.207047 1.093287 17
-2.218170 5.199995 1.093025 20
-2.203973 5.196836 1.092888 21
-2.189501 5.201655 1.093003 22
-2.174795 5.202431 1.092992 29
-2.161035 5.223124 1.093610 25
-2.145551 5.207823 1.093093 26
-2.130662 5.204451 1.092954 27
-2.115946 5.205022 1.092941 28
-2.101363 5.209537 1.093053 28
-2.086750 5.214001 1.093165 27
-2.072001 5.214418 1.093151 27
-2.057251 5.214784 1.093136 27
-2.042422 5.211101 1.092994 28
-2.029288 5.219335 1.093232 26
-2.014522 5.219552 1.093216 29
-1.999716 5.215719 1.093073 28
-1.984270 5.223832 1.093307 28
-1.969479 5.219894 1.093163 32
-1.955423 5.243891 1.093901 27
-1.940571 5.243849 1.093883 28
-1.925752 5.239758 1.093738 26
-1.910868 5.243611 1.093845 24
-1.895836 5.255407 1.094202 21
-1.881093 5.247163 1.093930 18
-1.866230 5.246862 1.093910 18
-1.850419 5.254484 1.094139 13
-1.837135 5.250123 1.093994 16
-1.821518 5.249644 1.093971 16
-1.805758 5.253104 1.094073 26
-1.791892 5.264584 1.094430 21
-1.777140 5.259977 1.094281 21
-1.761677 5.271295 1.094634 24
-1.746930 5.266584 1.094484 26
-1.731787 5.269807 1.094585 22
-1.715188 5.284909 1.095061 19
-1.700919 5.272057 1.094659 16
-1.686717 5.271174 1.094634 12
-1.671503 5.274184 1.094734 9
-1.656449 5.285169 1.095084 8
-1.641454 5.284083 1.095057 8
-1.626774 5.278960 1.094904 8
-1.610728 5.281695 1.095000 10
-1.592364 5.320288 1.096225 19
-1.579712 5.291101 1.095319 15
-1.563965 5.297710 1.095540 14
-1.549300 5.300354 1.095636 13
-1.534647 5.294916 1.095481 12
-1.519212 5.297383 1.095575 10
-1.502159 5.307666 1.095918 10
-1.486652 5.310017 1.096011 10
-1.471122 5.312312 1.096104 10
-1.457713 5.302725 1.095823 8
-1.440277 5.320794 1.096415 6
-1.424669 5.322922 1.096507 4
-1.408032 5.332926 1.096848 4
-1.393390 5.327009 1.096688 4
-1.377415 5.336995 1.097030 4
-1.358972 5.358700 1.097744 3
-1.342960 5.356468 1.097706 2
-1.327146 5.358245 1.097794 2
-1.313247 5.352168 1.097634 2
-1.298620 5.345932 1.097472 2
-1.282802 5.347548 1.097559 4
-1.265709 5.357004 1.097895 4
-1.249824 5.358500 1.097981 5
-1.233921 5.359940 1.098066 4
-1.216661 5.369204 1.098400 4
-1.198644 5.382340 1.098858 2
-1.181920 5.387531 1.099067 2
-1.167992 5.376920 1.098776 2
-1.154128 5.366265 1.098486 4
-1.135903 5.379144 1.098942 2
-1.118329 5.388021 1.099272 1
-1.100683 5.396830 1.099602 1
-1.086062 5.398031 1.099687 1
-1.070677 5.394954 1.099643 1
-1.051278 5.411405 1.100219 2
-0.983991 5.491182 1.102932 1
-0.985323 5.417812 1.100657 0
-0.933597 5.430737 1.101258 0
-0.918098 5.427127 1.101209 0
-0.895193 5.454576 1.102151 0
-0.848298 5.447257 1.102127 0
-0.827837 5.462729 1.102694 0
-0.812228 5.458750 1.102642 0
-0.760309 5.465797 1.103102 0
-0.736300 5.492448 1.104036 0
-0.307450 6.987533 1.151975 0
-0.696286 5.514603 1.104913 0
-0.235903 7.000647 1.152740 1
-0.212696 7.002272 1.152911 0
-0.188328 7.007643 1.153204 0
-0.160473 7.024411 1.153866 0
-0.127855 7.056367 1.155019 0
-0.581415 5.497675 1.105006 0
-0.551494 5.538666 1.106422 0
-0.535621 5.533723 1.106362 0
-0.520975 5.524913 1.106179 0
-0.502275 5.531538 1.106490 0
-0.481487 5.541632 1.106919 0
-0.459362 5.555436 1.107471 0
-0.452263 5.523613 1.106550 0
-0.437718 5.514534 1.106364 0
-0.411625 5.539473 1.107282 0
-0.393147 5.541602 1.107463 0
-0.383838 5.517227 1.106786 0
-0.337503 5.598436 1.109536 0
-0.317400 5.604045 1.109836 0
-0.306716 5.583237 1.109281 0
-0.289322 5.581196 1.109336 0
-0.265020 5.597851 1.110001 0
-0.248942 5.591907 1.109932 0
-0.234292 5.582164 1.109742 0
-0.209138 5.602582 1.110530 0
-0.191612 5.600177 1.110582 0
-0.166857 5.616344 1.111242 0
-0.118498 5.597315 1.111027 0
-0.094938 5.609397 1.111563 0
-0.047500 5.633235 1.112631 0
-0.001302 5.696328 1.114860 0
0.008921 5.674719 1.114298 0
0.026011 5.671846 1.114347 0
0.052543 5.599497 1.112418 0
-0.012314 5.326515 1.103837 80
0.005360 5.327317 1.104008 17
0.024574 5.327357 1.104171 8
0.048087 5.338553 1.104700 4
0.110546 5.432989 1.108003 1
0.234127 5.657674 1.115651 2
21.307816 49.604145 2.584757 28
24.047180 54.843948 2.761930 43
24.331369 54.950535 2.767575 44
20.771582 47.233688 2.510878 21
20.622051 46.527225 2.488980 20
21.136877 47.159702 2.512058 22
21.393404 47.267986 2.517565 22
21.618320 47.310905 2.520899 23
21.652077 46.979355 2.511624 22
21.775084 46.843998 2.508874 22
22.031874 46.926815 2.513706 22
22.184662 46.828648 2.512342 22
26.920097 54.902531 2.790446 45
27.155663 54.889347 2.792377 45
27.414440 54.917309 2.795733 45
27.662420 54.945786 2.799013 46
30.794575 60.135857 2.978741 51
30.995035 60.010700 2.977191 51
31.320549 60.107845 2.983266 52
46.736710 86.790199 3.900494 45
24.458990 47.180866 2.545115 26
24.628153 47.083736 2.544112 26
24.565908 46.625454 2.530472 25
24.466145 46.072624 2.513775 23
24.906301 46.477047 2.529862 25
24.148647 44.843903 2.475702 20
28.494410 51.739426 2.716605 42
28.598993 51.513081 2.711364 41
28.748154 51.361736 2.708730 41
28.934307 51.271278 2.708226 41
29.122307 51.183540 2.707835 41
24.473074 43.344616 2.437137 17
25.527613 44.693890 2.486559 22
25.626526 44.513256 2.482630 21
25.935436 44.662682 2.490271 22
25.970894 44.383507 2.482913 22
26.183155 44.379677 2.485227 22
27.266327 45.706932 2.534433 26
31.703814 52.125248 2.763215 45
31.986027 52.164036 2.767562 45
33.310940 53.760490 2.827056 47
33.465942 53.593952 2.824291 47
27.547623 44.477386 2.503810 24
27.619516 44.273670 2.499074 24
27.562542 43.852161 2.486845 23
27.800917 43.876968 2.490387 23
27.847385 43.625370 2.484078 23
28.014486 43.547226 2.483978 23
28.910822 44.176147 2.512050 25
28.497953 43.301243 2.483230 23
28.612638 43.149361 2.480541 23
28.710125 42.974594 2.477035 23
30.268915 44.786613 2.545456 29
30.264492 44.461861 2.536655 28
29.918503 43.682751 2.511331 26
31.052755 44.881317 2.557930 30
31.149883 44.707863 2.554528 30
30.451263 43.461040 2.512212 26
30.475084 43.185986 2.505180 26
43.282066 59.423717 3.104019 57
31.830961 44.335960 2.553437 30
32.016670 44.261780 2.553904 31
36.669113 49.834972 2.762834 46
36.854370 49.718613 2.762212 46
43.767273 57.987801 3.072385 57
43.857952 57.694122 3.065864 56
41.208862 54.035721 2.934123 52
41.317776 53.791954 2.929198 52
41.420425 53.541908 2.924044 52
41.716118 53.525455 2.927642 52
41.942921 53.424809 2.928121 52
42.081917 53.219288 2.924684 52
40.782345 50.965870 2.848230 50
39.834545 49.513691 2.797462 48
39.919876 49.270866 2.792388 48
40.096092 49.133430 2.791324 48
40.440384 49.203888 2.797996 48
48.577137 58.053310 3.140374 60
49.023579 58.154079 3.149309 60
49.628971 58.427929 3.164960 61
42.166370 49.775574 2.837240 50
45.042370 52.591988 2.950351 53
39.162647 45.821495 2.693364 45
39.196846 45.545521 2.686871 45
38.763477 44.463417 2.653212 43
38.978127 44.387909 2.654471 43
39.476425 44.306213 2.659799 44
40.903282 45.191444 2.703191 46
41.146072 45.117004 2.704983 46
58.219238 61.338512 3.365011 58
58.987728 61.683910 3.385237 58
59.958370 62.221481 3.413307 57
50.480728 52.488121 3.028931 57
61.563850 62.937885 3.455562 55
62.052635 62.980034 3.464150 55
13.522211 15.878638 1.563115 2
13.651917 15.794961 1.563107 2
61.839993 60.235634 3.394346 57
61.928894 59.904163 3.387796 57
12.357215 13.831661 1.495449 6
13.590682 14.743299 1.536968 2
13.404270 14.483137 1.527803 6
14.066055 14.965533 1.549935 7
14.193325 14.781381 1.547710 12
14.524784 14.866556 1.555169 5
13.729797 14.015902 1.522269 9
15.965770 15.766833 1.599971 9
14.785769 14.696217 1.555593 7
14.591681 14.345471 1.544299 7
14.706867 14.342619 1.546182 17
14.803458 14.324190 1.547402 22
15.577917 14.840535 1.572280 11
15.072377 14.345008 1.552455 7
14.973769 14.172491 1.546880 20
14.975405 14.079073 1.544809 7
14.967798 13.885418 1.540345 2
15.639249 13.922520 1.552857 2
15.696751 13.775897 1.550653 7
72.049492 53.799248 3.418686 53
74.889503 55.421867 3.504274 50
75.085640 55.157902 3.502055 50
76.053719 55.028576 3.516561 49
78.792221 56.509335 3.597388 46
15.976660 13.239126 1.544047 2
16.051243 13.193494 1.544419 2
84.400024 59.064281 3.752847 63
84.991257 59.044041 3.763125 63
24.228577 16.812521 1.769862 5
24.003733 16.307838 1.755481 5
24.032354 16.068960 1.751253 5
24.488489 16.222721 1.762938 5
23.999893 15.820881 1.745722 5
24.141977 15.781436 1.747644 5
23.545124 15.325820 1.727328 5
23.354044 15.102361 1.719307 5
13.491171 9.396512 1.419435 14
23.974970 14.866647 1.726665 5
25.160746 15.017579 1.752510 5
24.875481 14.627514 1.739609 5
24.819380 14.481589 1.735781 5
24.193987 13.944055 1.713525 10
25.710722 14.575212 1.755002 5
24.778469 13.886629 1.723972 5
24.772837 13.769078 1.721712 5
24.893188 13.711643 1.723047 5
25.256929 13.652066 1.729187 5
26.990061 14.219406 1.773877 6
25.731186 13.295247 1.732287 5
25.864109 13.122417 1.731917 5
26.214672 13.158405 1.739600 5
26.453619 13.026938 1.742138 5
49.966274 16.854616 2.290210 29
49.979259 16.660570 2.287579 29
49.845894 16.423243 2.281235 28
49.559513 15.937393 2.268015 54
50.023994 15.885438 2.277071 28
102.124405 29.657812 3.580321 101
102.258636 29.303774 3.578090 124
102.407120 28.953287 3.576243 131
102.550560 28.601088 3.574295 122
102.697571 28.229965 3.572188 131
102.838577 27.876423 3.570232 139
102.965988 27.538582 3.568236 135
103.104652 27.183792 3.566272 131
88.302567 23.159101 3.194473 121
88.476631 22.867416 3.194194 121
88.766457 22.602589 3.196785 121
89.969383 18.541697 3.169541 50
90.125198 17.906029 3.164973 50
47.779968 4.319383 2.086574 17
47.798073 3.971836 2.083608 17
47.844143 3.800169 2.082981 52
47.857674 3.626524 2.081633 35
47.862610 3.452425 2.080106 52
47.894905 3.279609 2.079207 35
-84.515030 1.160725 2.983400 61
-84.553864 1.449116 2.986744 61
-84.211815 1.734342 2.980756 61
-84.924385 2.030424 3.000712 60
-190.052490 5.976105 5.609354 63
-151.087479 5.959182 4.655246 63
-140.987946 6.084249 4.409153 63
-146.213989 7.814269 4.552936 63
-140.921616 8.050139 4.425663 63
-141.075699 8.544919 4.434098 63
-130.382812 8.391427 4.171130 63
-36.395981 3.578350 1.826935 8
-35.800243 3.658340 1.813184 7
-35.508228 3.747288 1.806950 7
-141.637390 12.985479 4.491498 63
-141.724197 13.459970 4.498474 63
-95.512604 9.666172 3.331911 50
-36.847057 4.594320 1.848383 8
-36.416748 4.671471 1.838719 8
-35.902866 4.736449 1.826900 7
-35.500870 4.804703 1.817849 7
-197.481659 26.691204 5.998947 63
-197.341522 28.026947 6.010664 63
-45.726532 7.826908 2.100429 13
-45.682629 7.976485 2.101137 13
-61.648556 10.741496 2.520388 44
-61.594387 10.946495 2.521538 44
-200.436859 34.804409 6.165331 63
-196.164093 35.473343 6.070310 63
-193.739960 36.425785 6.023608 63
-193.807510 37.131275 6.034038 63
-194.033463 37.868584 6.048737 63
-194.210251 39.296112 6.071085 63
-194.400482 40.032944 6.085086 63
-137.613174 29.499228 4.585476 63
-136.476517 29.751017 4.561493 63
-134.125702 29.707050 4.504567 63
-134.283463 30.201197 4.514862 63
-133.930893 30.606874 4.511804 63
-134.348999 31.186510 4.529539 63
-135.126938 31.853388 4.557084 63
-131.730835 31.520115 4.471475 63
-131.264069 31.910915 4.465642 63
-131.309082 32.423344 4.473716 63
-123.162315 30.892048 4.258576 63
-122.199890 31.100277 4.238543 63
-122.298409 31.527046 4.246817 63
-122.272308 31.967857 4.252355 63
-123.977814 32.861584 4.305414 63
-119.401375 32.104538 4.186132 63
-108.147278 29.519985 3.882622 63
-115.585472 31.944134 4.093427 63
-114.927734 32.210197 4.081685 63
-21.827871 6.555487 1.510097 2
-21.655422 6.577687 1.506346 2
-21.588682 6.636571 1.505631 2
-21.257891 6.614428 1.497507 2
-20.923662 6.588912 1.489259 2
-20.942297 6.666530 1.490849 2
-20.771265 6.679830 1.487027 2
-20.666162 6.722962 1.485205 2
-20.558186 6.760969 1.483245 2
-20.634308 6.852552 1.486416 2
-20.518446 6.887428 1.484234 2
-20.592896 6.982780 1.487433 2
-20.571850 7.047784 1.487941 2
-20.549507 7.115959 1.488473 2
-20.527994 7.180811 1.488979 2
-20.317898 7.178486 1.484050 2
-20.296169 7.242529 1.484549 2
-20.595520 7.417312 1.494258 2
-15.363750 5.770544 1.346778 6
-15.245411 5.780680 1.344204 15
-15.108383 5.783202 1.341079 12
-14.961082 5.778410 1.337603 13
-14.854344 5.790282 1.335337 13
-14.724389 5.795248 1.332427 17
-14.632784 5.811338 1.330586 21
-14.515941 5.814613 1.327958 16
-14.417010 5.826574 1.325888 20
-14.306983 5.833522 1.323484 18
-14.219364 5.848601 1.321732 20
-14.113231 5.855697 1.319427 21
-14.022026 5.868107 1.317557 20
-13.938287 5.882966 1.315901 23
-13.832415 5.888149 1.313581 21
-13.748798 5.901880 1.311917 23
-13.650490 5.908885 1.309807 23
-13.572399 5.919029 1.308213 23
-13.492637 5.932756 1.306646 27
-13.390902 5.936460 1.304412 25
-13.314932 5.950719 1.302947 27
-13.239001 5.964509 1.301478 33
-13.155809 5.974576 1.299784 27
-13.079979 5.987402 1.298308 30
-13.004196 5.999760 1.296828 30
-12.927587 6.013564 1.295359 28
-12.855535 6.026651 1.293982 30
-12.788030 6.039097 1.292699 28
-12.702473 6.042643 1.290855 27
-12.645026 6.061251 1.289914 26
-12.580369 6.076067 1.288747 27
-12.525649 6.097557 1.287926 31
-12.449353 6.108193 1.286431 23
-12.386571 6.118180 1.285227 21
-12.325617 6.133218 1.284159 20
-12.253959 6.142524 1.282752 18
-12.200209 6.160404 1.281902 15
-12.142898 6.176157 1.280938 14
-12.089158 6.193400 1.280083 10
-12.032784 6.206734 1.279100 5
-11.989696 6.228904 1.278578 4
-11.939501 6.247111 1.277828 3
-11.903425 6.272534 1.277527 3
-11.860246 6.293994 1.276999 3
-11.838144 6.326619 1.277147 2
-11.815936 6.359155 1.277294 2
-11.790117 6.389677 1.277326 2
-11.771200 6.423957 1.277584 3
-11.740737 6.454031 1.277515 3
-11.748507 6.546138 1.279490 3
-11.722103 6.576301 1.279519 8
-11.692145 6.604349 1.279433 6
-11.614753 6.649912 1.278689 11
-11.567390 6.667306 1.278029 17
-11.540636 6.696715 1.278051 25
-11.476085 6.703368 1.276817 15
-11.736399 6.266755 1.338612 57
-11.729372 6.304877 1.339266 58
-11.727339 6.350265 1.340217 59
-11.722549 6.392069 1.341020 60
-11.721078 6.435853 1.341959 60
-11.705483 6.471853 1.342352 59
-11.707143 6.517670 1.343428 55
-11.698190 6.557613 1.344094 54
-11.686591 6.593867 1.344610 44
-11.524257 6.547137 1.339257 17
-11.439250 6.542101 1.336901 23
-11.375050 6.548735 1.335364 26
-11.318763 6.557444 1.334087 22
-11.278690 6.577744 1.333506 17
-11.228328 6.591629 1.332511 16
-11.183827 6.610999 1.331801 12
-11.154907 6.635281 1.331616 7
-11.138535 6.669447 1.331993 3
-11.132213 6.709913 1.332782 3
-11.112181 6.741896 1.333020 4
-11.098791 6.778086 1.333533 4
-11.102110 6.825007 1.334737 2
-11.089425 6.859616 1.335238 2
-11.095711 6.908837 1.336580 4
-11.107416 6.964141 1.338212 4
-11.110923 7.009822 1.339406 4
-11.126496 7.066024 1.341166 3
-11.131816 7.115746 1.342511 2
-11.136900 7.165580 1.343857 2
-11.151672 7.222254 1.345620 1
-11.212374 7.310676 1.349329 0
-69.214180 47.261990 3.798062 42
-68.758255 47.309998 3.787775 43
-68.340469 47.364315 3.778634 43
-67.864281 47.374866 3.766967 43
-67.382317 47.378040 3.755000 43
-66.971046 47.411217 3.745577 44
-51.751560 37.058044 3.106420 88
-49.759182 35.882683 3.027317 41
-51.263412 37.245281 3.099097 44
-49.302299 36.058491 3.020521 40
-48.858852 35.971504 3.007396 39
-48.674152 36.356884 3.012775 39
-48.766510 36.684574 3.023489 40
-48.500179 36.972218 3.024476 80
-48.408924 37.174496 3.027537 40
-53.580772 41.508396 3.265717 44
-63.338066 49.496986 3.710189 44
-45.496815 35.632278 2.916955 30
-45.011326 35.752079 2.908500 58
-44.725296 35.768471 2.902118 85
-44.541637 35.854382 2.900038 56
-44.317848 35.918884 2.896454 55
-43.894306 35.828667 2.884025 53
-43.668152 35.887615 2.880276 52
-43.536861 36.012859 2.880561 52
-43.322884 36.067806 2.877027 51
-43.257812 36.273708 2.881080 52
-43.070827 36.350510 2.878805 51
-42.946938 36.506191 2.880164 25
-42.783508 36.614880 2.879343 76
-42.836014 36.912861 2.888717 52
-42.931839 37.251377 2.900222 54
-42.805347 37.381733 2.900904 54
-42.636360 37.486713 2.899930 54
-42.476040 37.599003 2.899375 53
-42.421352 37.819912 2.904262 27
-47.586304 42.798866 3.160177 44
-54.572662 49.522697 3.506058 44
-54.288639 49.599957 3.501806 44
-53.901501 49.937531 3.502590 88
-53.686764 50.077271 3.501728 44
-53.358974 50.108402 3.495299 44
-53.063225 50.151100 3.489935 44
-42.388596 40.154839 2.969224 32
-52.363827 50.160542 3.474729 44
-52.080601 50.226933 3.470389 44
-41.961884 40.562004 2.971461 32
-51.364517 50.206070 3.454099 44
-51.116158 50.301788 3.451439 44
-42.684101 42.129311 3.032329 37
-42.098957 41.808094 3.010360 35
-50.041645 50.210670 3.425524 44
-49.727276 50.248825 3.419867 44
-41.726273 42.271084 3.015798 35
-49.418385 50.601719 3.423548 44
-39.801647 40.826157 2.932472 28
-49.443790 51.327301 3.445357 44
-39.429600 40.990185 2.929406 27
-49.509609 52.125404 3.470254 44
-49.488045 52.461414 3.479733 44
-49.540359 52.880394 3.493242 44
-49.561768 53.250675 3.504684 44
-38.886425 41.815922 2.942498 28
-38.682201 41.876175 2.940067 28
-39.257595 42.809597 2.979846 31
-49.692631 54.868484 3.555701 44
-38.767509 43.140682 2.979752 31
-38.614384 43.247414 2.979858 31
-45.343220 51.359039 3.361362 44
-45.026772 51.346127 3.354586 44
-49.852341 57.385899 3.634963 44
-49.809731 57.736095 3.644766 44
-44.337803 51.604340 3.348648 44
-43.192287 50.586964 3.294800 44
-42.963902 50.646370 3.292099 44
-42.670071 50.660294 3.286734 44
-34.980019 41.565811 2.856079 19
-33.978931 40.617466 2.807280 15
-34.440701 41.477314 2.842825 18
-41.607468 50.747948 3.268700 44
-41.329311 50.754375 3.263525 44
-41.041721 50.746895 3.257760 44
-33.122475 40.965332 2.801523 14
-40.525520 50.819817 3.250163 44
-40.262566 50.820663 3.245194 44
-34.030674 43.015999 2.882874 21
-33.502304 42.639336 2.861102 19
-39.478973 50.874023 3.232107 44
-28.212400 36.149223 2.557845 10
-38.805958 50.698006 3.214015 44
-38.396778 50.488346 3.199810 44
-38.077492 50.415138 3.191604 44
-37.794373 50.388840 3.185573 44
-37.537571 50.396851 3.181136 44
-37.327641 50.468712 3.179607 44
-37.088181 50.516502 3.176798 44
-30.646805 41.720562 2.779442 12
-30.440277 41.728725 2.775999 12
-30.300131 41.831177 2.776784 12
-36.447105 51.061989 3.182817 44
-36.272057 51.182072 3.183588 44
-25.836407 36.418888 2.523524 19
-25.759220 36.571796 2.527128 29
-25.610514 36.618023 2.526045 29
-25.496958 36.717056 2.527301 19
-25.461748 36.936176 2.533826 19
-25.040190 36.561947 2.514416 19
-24.543629 36.064224 2.489711 28
-24.298693 35.964851 2.482313 27
-24.178270 36.031986 2.482484 27
-24.268446 36.433628 2.497176 18
-24.271597 36.714710 2.506468 19
-23.805611 36.241940 2.483169 27
-8.542668 11.695656 1.421719 5
-8.420137 11.662701 1.418622 15
-8.382832 11.685187 1.418761 18
-8.349540 11.714411 1.419193 18
-8.344597 11.791709 1.421683 10
-31.557024 51.464893 3.113586 78
-31.324320 51.471157 3.110094 77
-31.095932 51.483337 3.106890 100
-30.867815 51.494541 3.103678 38
-30.431051 51.526466 3.097936 75
-25.939377 43.903374 2.772396 12
-29.761486 51.569637 3.089094 73
-25.431147 44.046848 2.769461 12
-28.659882 51.640518 3.074948 70
-28.431015 51.634224 3.071358 100
-28.219072 51.658890 3.069091 69
-27.999971 51.668476 3.066225 34
-27.799271 51.712769 3.064831 34
-27.578756 51.717026 3.061803 33
-27.408558 51.798134 3.062144 33
-26.736492 51.778046 3.051965 32
-21.866104 42.158646 2.653265 21
-25.387922 49.877079 2.967813 77
-25.191357 49.904408 2.966052 51
-24.993185 49.927341 2.964136 25
-24.791756 49.942242 2.961917 50
-24.622368 50.025276 2.962508 50
-20.629837 41.759708 2.622649 10
-20.487888 41.806843 2.622397 10
-20.698460 42.637215 2.654019 10
-20.067963 41.614384 2.610181 10
-23.502474 51.193558 2.988527 27
-22.840063 50.146381 2.943520 23
-22.623350 50.112122 2.939599 22
-22.437872 50.150745 2.938642 22
-18.911016 42.067234 2.611319 10
-22.045223 50.148396 2.933721 22
-21.855469 50.173744 2.932301 44
-18.252775 41.696156 2.590248 10
-18.214878 41.995216 2.600335 10
-17.906408 41.609848 2.583066 10
-21.105759 50.264565 2.926545 21
-17.705570 41.936584 2.592250 10
-17.420351 41.639091 2.578407 10
-17.986975 44.031078 2.669704 10
-17.879427 44.203041 2.674591 11
-17.734629 44.251846 2.674698 11
-16.836208 42.234821 2.592936 10
-15.976241 40.695503 2.528639 9
-16.962976 43.992359 2.656964 10
-18.784948 50.319466 2.902515 19
-18.640701 50.461231 2.906062 19
-18.380653 50.257504 2.896044 18
-18.249674 50.410397 2.900164 18
-17.891840 50.514294 2.900230 37
-17.899235 51.137215 2.922687 62
-17.721645 51.184925 2.922629 100
-17.529707 51.186195 2.920776 82
-17.353746 51.206982 2.919800 81
-17.162098 51.206856 2.917936 60
-16.975218 51.221325 2.916663 60
-16.791815 51.246601 2.915831 60
-16.612724 51.253304 2.914387 59
-16.426140 51.298996 2.914302 19
-13.424175 41.389637 2.527957 9
-13.184417 41.050236 2.513476 9
-13.064080 41.187435 2.517364 9
-13.609871 43.744320 2.614992 10
-13.244804 42.952808 2.583034 10
-13.081823 42.930130 2.580787 10
-14.975683 50.772758 2.882263 17
-12.890428 43.401577 2.596290 10
-14.585222 50.658764 2.874800 16
-12.576754 43.345200 2.591604 10
-12.560259 43.946548 2.613390 10
-14.008712 50.522045 2.865061 15
-13.776787 50.355961 2.857131 14
-13.604347 50.396915 2.857257 14
-13.416893 50.334030 2.853486 14
-2.973701 5.502306 1.132890 1
-2.958729 5.505643 1.132899 1
-2.937922 5.489744 1.132161 2
-2.918028 5.473586 1.131422 3
-2.904011 5.484727 1.131729 4
-2.887503 5.484080 1.131588 2
-2.863052 5.440124 1.129801 3
-2.840477 5.407969 1.128462 2
-2.817370 5.371788 1.126973 1
-2.799803 5.362978 1.126531 1
-2.778626 5.330388 1.125190 1
-2.756896 5.301914 1.123999 1
-2.737560 5.281071 1.123106 1
-2.719124 5.260014 1.122213 2
-2.699353 5.239140 1.121319 1
-2.682565 5.225808 1.120724 1
-2.665796 5.216477 1.120278 2
-2.648456 5.203136 1.119681 3
-2.638266 5.229078 1.120580 4
-2.617784 5.199942 1.119385 3
-2.602477 5.198262 1.119236 4
-2.588515 5.200370 1.119236 4
-2.572657 5.194628 1.118937 4
-2.557972 5.196741 1.118937 4
-2.541450 5.190986 1.118636 4
-2.526977 5.188931 1.118486 5
-2.511791 5.186922 1.118334 5
-2.498883 5.196659 1.118631 6
-2.483457 5.198606 1.118628 7
-2.467320 5.188503 1.118176 7
-2.452192 5.186279 1.118023 9
-2.438892 5.199887 1.118468 8
-2.424190 5.201534 1.118463 8
-2.409793 5.199076 1.118309 8
-2.394272 5.192669 1.118005 9
-2.379199 5.190182 1.117850 9
-2.364914 5.195600 1.117993 10
-2.350596 5.200968 1.118136 12
-2.335536 5.198325 1.117980 15
-2.320498 5.195628 1.117823 14
-2.305484 5.192878 1.117666 15
-2.291748 5.206014 1.118106 15
-2.276725 5.203161 1.117947 16
-2.262584 5.212215 1.118237 20
-2.247760 5.201232 1.117780 18
-2.234049 5.206152 1.117920 18
-2.219817 5.215064 1.118208 25
-2.205294 5.219936 1.118347 9
-2.174606 5.213600 1.118025 1
-2.160594 5.214289 1.118013 1
-2.146019 5.218957 1.118150 1
-2.116927 5.232138 1.118572 3
-2.101712 5.220675 1.118110 4
-2.087059 5.225141 1.118245 4
-2.072271 5.225559 1.118231 4
-2.057758 5.237914 1.118663 3
-2.043509 5.230223 1.118350 4
-2.027899 5.226504 1.118184 4
-2.013157 5.230713 1.118317 3
-1.999164 5.238861 1.118599 3
-1.984305 5.234975 1.118433 3
-1.969510 5.247026 1.118863 2
-1.954651 5.243037 1.118696 2
-1.939801 5.242993 1.118677 3
-1.924919 5.246894 1.118807 2
-1.909312 5.246738 1.118787 3
-1.894950 5.262534 1.119365 3
-1.880182 5.254289 1.119046 3
-1.865773 5.265990 1.119474 3
-1.850640 5.273627 1.119750 1
-1.835568 5.277216 1.119878 1
-1.820729 5.272761 1.119707 1
-1.804740 5.280211 1.119981 1
-1.790668 5.275680 1.119810 1
-1.774267 5.291005 1.120382 1
-1.760373 5.282381 1.120061 2
-1.745586 5.277666 1.119888 2
-1.729976 5.288867 1.120310 1
-1.714968 5.288038 1.120285 3
-1.698485 5.299082 1.120704 1
-1.682929 5.306121 1.120976 1
-1.668614 5.305180 1.120951 1
-1.654115 5.296162 1.120626 1
-1.638055 5.319042 1.121492 1
-1.622497 5.313849 1.121314 1
-1.606427 5.324597 1.121732 0
-1.591713 5.327384 1.121853 0
-1.577979 5.310146 1.121230 0
-1.561067 5.328690 1.121943 0
-1.545925 5.319241 1.121614 0
-1.529598 5.337734 1.122328 0
-1.515235 5.328253 1.122000 0
-1.498826 5.338599 1.122414 0
-1.482339 5.348884 1.122827 0
-1.470716 5.315416 1.121607 0
-1.450985 5.353385 1.123058 0
-1.439092 5.323802 1.121987 0
-1.422000 5.337826 1.122546 0
-1.407832 5.327992 1.122216 0
-1.390615 5.341893 1.122774 0
-1.373826 5.351764 1.123183 0
-1.358053 5.353652 1.123296 0
-1.185446 6.463674 1.164890 0
-1.171879 6.429429 1.163661 0
-1.149737 6.454465 1.164654 0
-1.127662 6.471364 1.165348 0
-1.279804 5.366421 1.124003 0
-1.267039 5.348230 1.123373 0
-1.249781 5.353552 1.123628 0
-1.234549 5.351048 1.123589 0
-1.218750 5.356501 1.123847 0
-1.204874 5.346010 1.123512 0
-1.186186 5.363029 1.124210 0
-1.158848 5.427175 1.126681 0
-0.936304 6.548664 1.168890 0
-0.913291 6.458938 1.165682 1
-1.100782 5.395942 1.125772 0
-1.072944 5.459723 1.128240 0
-1.049425 5.495781 1.129671 0
-1.033698 5.492576 1.129625 0
-1.024536 5.458016 1.128399 0
-1.003515 5.404499 1.126538 0
-0.950228 5.425424 1.127576 0
-0.935649 5.417978 1.127380 0
-0.917450 5.426050 1.127774 0
-0.901968 5.422385 1.127725 0
-0.884615 5.426435 1.127969 0
-0.869131 5.422655 1.127919 0
-0.850754 5.430456 1.128310 0
-0.837221 5.418808 1.127965 0
-0.819773 5.422605 1.128208 0
-0.791181 5.468880 1.130065 0
-0.398121 6.890673 1.184187 0
-0.339098 6.949336 1.186691 1
-0.315112 6.955204 1.187059 1
-0.286762 6.976375 1.188013 1
-0.260422 6.989729 1.188672 1
-0.237278 6.991445 1.188890 1
-0.210752 7.004588 1.189548 0
-0.619167 5.483055 1.131717 0
-0.593079 5.512786 1.132976 0
-0.585484 5.481231 1.131894 0
-0.563895 5.495498 1.132566 0
-0.471525 5.621442 1.137792 0
-0.434576 5.520926 1.134478 0
-0.416187 5.523143 1.134707 0
-0.097159 5.648015 1.141974 0
-0.051633 5.711574 1.144651 0
-0.072227 5.616393 1.141103 0
-0.056891 5.610109 1.141032 0
-0.033822 5.617866 1.141533 0
0.027450 5.583187 1.140941 0
0.019152 5.477765 1.137177 2
-0.031847 5.321104 1.131184 1
-0.001112 5.351151 1.132556 1
0.047888 5.416751 1.135362 1
0.107470 5.508213 1.139181 0
20.248306 49.079185 2.869321 21
23.107019 54.750690 3.097142 41
20.789375 49.338631 2.884287 23
23.610424 54.845234 3.106030 42
23.843218 54.849392 3.108805 42
24.082600 54.889519 3.112915 43
24.296915 54.852192 3.114093 43
20.876390 47.402740 2.818611 17
20.848139 46.939632 2.802396 16
21.303759 47.449516 2.825222 18
21.472155 47.400673 2.825547 18
21.650389 47.350666 2.825966 18
21.826735 47.296425 2.826236 19
26.089071 55.128162 3.144771 44
26.370501 55.207081 3.150893 44
26.709030 54.933872 3.145794 88
26.944441 54.944229 3.149083 88
27.210480 54.964542 3.153113 88
27.459976 54.974724 3.156616 44
30.643776 60.322945 3.377664 44
30.757759 60.040951 3.369626 44
31.000790 59.992706 3.371145 44
22.682983 44.743614 2.750604 13
70.446487 128.556305 6.187931 44
22.503351 43.724033 2.714067 12
22.822254 43.932686 2.725280 12
25.032463 47.387596 2.870196 24
25.222610 47.359917 2.871831 24
28.319664 51.826099 3.062477 41
28.334431 51.449352 3.050175 40
24.373344 44.506641 2.765446 15
28.894222 51.577934 3.062183 41
29.078602 51.502598 3.062271 41
25.039076 44.586655 2.777391 16
25.073822 44.287357 2.768028 15
40.217060 68.018700 3.763651 44
25.589605 44.435192 2.780247 17
25.704542 44.281506 2.776868 16
24.403294 41.929501 2.681082 11
26.150948 44.326981 2.784841 17
26.284599 44.201836 2.782721 17
31.848759 52.322300 3.129030 44
32.032215 52.210648 3.128123 44
32.299740 52.224617 3.132565 44
27.226250 44.325584 2.800738 19
32.367065 51.557556 3.112000 44
27.212307 43.658794 2.778994 17
27.356583 43.550133 2.777694 17
27.701721 43.398247 2.778121 18
28.143801 43.727791 2.795528 19
28.630610 44.098438 2.814963 21
28.906488 44.167015 2.821472 22
28.587498 43.406998 2.792238 19
28.467812 42.931248 2.775216 18
29.812319 44.464359 2.845263 24
29.281366 43.426060 2.803881 21
29.998466 44.084175 2.836215 24
30.758816 44.789040 2.870742 27
30.731285 44.435005 2.859144 26
30.667875 44.037098 2.845601 25
30.847097 43.961082 2.846155 25
31.106604 43.988918 2.851302 25
31.266338 43.885883 2.850728 25
31.243790 43.549026 2.839846 25
43.408669 58.724632 3.515594 44
43.498344 58.424873 3.507789 44
43.596439 58.158154 3.501175 44
43.668251 57.860237 3.493174 44
43.811111 57.611805 3.487936 44
43.910110 57.330803 3.480972 44
44.002640 57.043617 3.473732 44
44.182816 56.864357 3.471343 44
44.633266 57.010311 3.483627 44
45.036522 57.095573 3.493259 44
39.659035 49.306343 3.161774 88
39.780342 49.106430 3.157891 88
40.247387 49.320053 3.172688 44
48.643551 58.103943 3.587890 44
49.313763 58.454941 3.610547 44
49.741219 58.528381 3.620518 44
38.555836 45.780445 3.035985 44
38.803257 45.723263 3.038821 44
38.883530 45.498241 3.033619 44
39.060402 45.378899 3.033355 44
38.931919 44.931103 3.017736 88
39.456875 45.184814 3.035002 44
39.608742 45.053055 3.033968 88
39.783787 44.914906 3.033203 44
39.956261 44.789158 3.032775 44
40.187305 44.739178 3.035690 44
56.114567 60.852100 3.807856 41
56.685719 60.999107 3.823026 41
57.318321 61.224293 3.841671 40
57.927883 61.420235 3.859058 40
58.461185 61.555283 3.873245 39
58.979038 61.670532 3.886591 39
60.147873 62.382648 3.929755 38
60.809780 62.605164 3.949041 38
51.119251 52.748344 3.477745 44
62.226665 63.121967 3.991579 37
60.679394 61.202065 3.906504 38
13.617779 15.761414 1.687027 2
13.720200 15.646844 1.685846 7
12.584649 14.396351 1.627985 3
61.520615 59.114258 3.864611 39
12.906314 14.506820 1.637575 4
14.238614 15.512878 1.692608 25
13.877175 15.089412 1.673517 13
13.333273 14.509780 1.646387 16
14.149513 15.131481 1.680279 4
14.066520 14.861703 1.671185 40
14.123958 14.813498 1.671069 27
14.737744 15.239972 1.695461 10
14.625755 15.044625 1.687828 4
14.708382 15.014962 1.688764 5
13.646758 13.941269 1.637500 20
15.348599 15.050059 1.703281 7
15.369586 14.966972 1.701527 18
14.766096 14.384130 1.673162 19
14.715760 14.248540 1.668504 35
14.790199 14.212549 1.669165 33
14.892910 14.198394 1.671018 19
14.724382 13.972545 1.661458 6
14.772780 13.916675 1.661057 4
15.430056 14.327764 1.686085 22
15.493290 14.284563 1.686352 10
15.381072 14.108434 1.679342 5
15.471334 13.981629 1.678075 7
15.466138 13.888083 1.675569 14
70.644676 53.928856 3.921009 36
75.179352 56.027531 4.075466 33
75.558594 55.485405 4.070438 33
15.890656 13.441455 1.673830 2
79.016731 57.054882 4.187774 30
83.188042 58.676525 4.322820 44
16.947092 13.703199 1.704360 2
16.988049 13.634910 1.703633 2
23.738459 16.631399 1.932568 4
23.782660 16.535406 1.931377 4
23.867565 16.213791 1.925959 4
23.975794 16.155840 1.927213 4
76.042854 46.255356 3.861008 36
24.279436 16.094648 1.933089 4
23.251152 15.153296 1.887059 4
24.700144 15.723394 1.934882 5
23.538397 14.965396 1.889821 4
23.286081 14.718428 1.878212 4
23.751526 14.849660 1.892451 4
23.087553 14.379118 1.865897 4
23.153387 14.195304 1.863494 17
24.953066 15.015944 1.925512 10
25.280024 15.071667 1.934762 10
24.585438 14.595385 1.907383 4
24.133801 14.249093 1.888803 4
24.801645 14.354192 1.907584 9
24.776497 14.225228 1.904230 4
25.407598 14.418897 1.924015 5
24.695719 13.954331 1.896521 14
24.737234 13.859477 1.895576 4
24.706264 13.730022 1.892108 4
24.739758 13.631737 1.890911 4
24.891846 13.372554 1.889414 4
25.090595 13.235921 1.891658 4
25.834631 12.986971 1.905580 4
26.245556 13.053535 1.917377 5
49.957680 16.839369 2.606488 25
49.821335 16.600359 2.598875 25
49.480858 16.302040 2.584858 24
49.667229 15.965961 2.584317 24
54.081894 16.201881 2.706418 37
54.296913 16.049604 2.709794 38
54.537350 15.892273 2.713795 77
54.538769 15.681903 2.710554 38
54.660809 15.513353 2.711234 38
88.587784 22.872961 3.740097 154
88.780388 22.584549 3.740987 154
68.634712 13.941969 3.068886 44
59.663425 11.641320 2.792168 88
59.700283 11.426165 2.790358 88
59.744274 11.212188 2.788782 88
59.809010 10.990451 2.787699 44
59.887032 10.781669 2.787170 44
60.103420 9.940626 2.782567 44
60.162052 9.727843 2.781564 44
-84.168846 1.443045 3.456877 42
-200.590027 4.858523 7.016648 44
-151.694855 5.475245 5.539742 44
-151.478348 5.991209 5.537891 44
-150.645615 6.976817 5.521802 44
-146.033127 7.320095 5.385278 44
-145.011612 7.775607 5.358675 44
-145.255737 8.263527 5.370773 44
-141.670944 8.595059 5.265430 44
-130.279877 8.424338 4.918818 44
-150.187546 10.071006 5.537898 44
-95.427879 9.324913 3.873799 33
-196.933533 29.384655 7.165897 44
-45.753853 7.680406 2.357842 10
-61.605743 10.742369 2.871981 44
-201.395676 34.278137 7.361836 44
-196.370529 34.801189 7.218370 44
-193.678528 35.713707 7.150070 44
-193.821640 36.397167 7.163532 44
-193.973282 37.153416 7.178299 44
-194.196533 37.925587 7.195496 44
-194.285980 38.639408 7.207977 44
-136.016479 27.694580 5.321409 44
-135.711563 28.095310 5.317923 44
-135.467224 28.531334 5.316780 44
-134.391983 28.791845 5.288511 44
-134.325287 29.260633 5.293206 44
-134.557770 29.794643 5.307762 44
-134.257187 30.213345 5.304895 44
-135.106049 30.888702 5.339866 44
-135.233200 31.430815 5.351566 44
-135.111923 31.868084 5.354424 44
-133.792984 32.047577 5.318094 44
-158.977448 38.588608 6.159716 44
-135.631714 33.467449 5.393662 44
-131.647461 32.979279 5.268773 44
-131.660797 33.439243 5.276170 44
-133.092728 34.284344 5.331282 44
-139.152206 36.358624 5.541538 44
-157.805420 41.719151 6.173027 44
-133.436951 36.333069 5.373295 44
-132.485428 37.056297 5.356886 44
-116.826965 33.183258 4.836679 44
-115.219551 33.138248 4.788963 44
-116.555016 33.950020 4.841124 44
-21.293184 6.623792 1.615972 2
-21.273382 6.691244 1.616501 2
-21.107794 6.715106 1.612073 2
-21.022627 6.762213 1.610377 1
-20.983232 6.822860 1.610245 1
-20.958921 6.888043 1.610633 1
-20.859142 6.925857 1.608378 1
-20.834480 6.990580 1.608762 1
-20.832430 7.062551 1.609932 1
-20.863243 7.149021 1.612308 1
-20.880669 7.224184 1.614110 1
-20.866360 7.292720 1.614887 1
-20.866955 7.366343 1.616190 1
-20.874834 7.442628 1.617756 2
-20.954216 7.543822 1.621825 2
-15.288158 5.640919 1.425325 2
-15.181350 5.655487 1.422522 2
-15.036950 5.655932 1.418392 2
-14.915274 5.663565 1.415048 2
-14.828327 5.680489 1.412870 2
-14.532588 5.820402 1.407023 1
-14.418740 5.826643 1.403910 1
-14.345943 5.848206 1.402252 1
-14.221116 5.848701 1.398729 1
-14.114994 5.855814 1.395865 1
-14.019240 5.868845 1.393411 1
-13.954871 5.889158 1.391987 1
-13.875717 5.903001 1.390025 1
-13.740384 5.895389 1.386074 1
-13.579854 5.926415 1.382176 2
-13.485386 5.933850 1.379678 3
-13.402880 5.943456 1.377561 6
-13.319570 5.954553 1.375456 7
-13.232666 5.963514 1.373212 10
-13.138535 5.968677 1.370696 11
-13.051799 5.976522 1.368443 21
-12.983347 5.992083 1.366858 18
-12.926703 6.010306 1.365658 19
-12.843778 6.018376 1.363528 20
-12.768176 6.029308 1.361664 26
-12.710718 6.048284 1.360469 20
-12.646037 6.063490 1.359002 20
-12.592197 6.083489 1.357937 15
-12.516754 6.092736 1.356059 22
-12.466528 6.113784 1.355123 35
-12.455742 6.153958 1.355672 30
-12.448384 6.195896 1.356356 34
-12.436371 6.237884 1.356918 43
-12.418900 6.272596 1.357182 45
-12.411073 6.314517 1.357865 48
-12.410191 6.360102 1.358820 53
-12.410063 6.403922 1.359761 55
-12.404310 6.449595 1.360594 56
-12.388714 6.487885 1.361006 54
-12.387097 6.533638 1.361961 53
-12.381765 6.577558 1.362780 52
-63.380707 42.378944 4.392869 53
-70.409286 47.463551 4.796518 61
-51.472218 34.872101 3.743399 30
-69.531982 47.577957 4.769517 61
-67.799149 47.408127 4.704130 63
-67.481865 47.510548 4.696441 63
-67.023232 47.527454 4.681201 63
-66.852127 47.765617 4.682946 63
-66.862938 48.118633 4.694648 63
-50.643829 36.588509 3.769331 31
-66.913635 48.834221 4.719469 63
-49.726536 36.432297 3.733059 29
-49.701668 36.672977 3.740051 30
-49.579937 36.841820 3.741450 30
-49.349361 36.928154 3.736503 29
-49.131470 37.023022 3.732293 59
-49.059162 37.228889 3.736661 59
-48.935459 37.395531 3.738040 29
-48.518250 37.333099 3.722037 58
-48.312588 37.420631 3.718107 29
-48.194462 37.589657 3.719838 29
-48.200687 37.857937 3.729048 29
-62.035042 49.232193 4.569082 58
-63.292149 50.594921 4.656538 61
-63.118523 50.808716 4.658079 61
-60.498566 49.703396 4.534758 57
-59.701267 49.709091 4.509079 56
-59.552658 49.946281 4.512472 56
-59.563438 50.302933 4.525181 56
-59.442299 50.548065 4.529812 56
-59.096500 50.581280 4.519892 56
-43.324699 37.146240 3.546114 24
-43.195507 37.275299 3.546526 24
-48.122242 41.897457 3.865653 33
-42.574005 37.247482 3.525836 23
-42.518692 37.697376 3.540043 24
-42.467022 37.908714 3.545947 24
-42.402000 38.121792 3.551523 24
-47.420723 43.023216 3.883638 33
-47.326283 43.230663 3.888155 34
-47.229610 43.421864 3.892048 34
-53.990524 50.084194 4.341693 49
-53.418335 50.245300 4.329940 49
-53.084873 50.252110 4.319982 48
-52.697453 50.221596 4.307045 48
-52.450859 50.343002 4.303995 48
-52.201305 50.443279 4.300116 48
-51.982883 50.573357 4.298311 47
-51.764359 50.685352 4.295869 47
-42.737671 41.963554 3.701829 27
-42.710701 42.237808 3.711211 28
-42.488049 42.299950 3.706889 28
-49.980507 50.262840 4.226881 45
-49.702820 50.304127 4.220204 44
-49.400154 50.335114 4.212435 44
-39.673046 40.492561 3.555913 24
-39.143158 40.224525 3.530270 23
-39.148300 40.505386 3.541048 23
-49.352222 51.701454 4.262665 46
-49.360409 52.048676 4.276108 46
-38.855671 41.012566 3.551853 23
-49.423489 52.838108 4.308063 47
-49.454441 53.237041 4.324237 48
-49.443027 53.592331 4.337559 48
-39.697769 43.076241 3.655136 26
-49.532726 54.418629 4.371966 49
-45.979477 50.776943 4.130626 41
-37.916409 41.959156 3.561564 23
-49.577812 55.629951 4.420224 51
-45.857151 51.717129 4.163754 42
-45.680798 51.853336 4.164167 42
-49.660835 56.877163 4.471265 52
-35.443665 40.498611 3.435671 20
-35.488136 40.832306 3.450024 20
-44.292259 51.652493 4.117998 40
-43.204315 50.702213 4.050741 38
-42.911057 50.700947 4.042719 38
-42.625896 50.707523 4.035260 37
-34.293671 40.803528 3.416413 20
-34.816116 41.722195 3.467088 21
-33.923859 40.886147 3.409800 19
-33.786823 41.000610 3.410735 19
-33.599850 41.051899 3.407833 19
-41.040695 50.830196 3.997854 36
-40.807499 50.890652 3.994157 36
-40.542591 50.908997 3.987959 35
-40.316948 50.976814 3.984820 35
-34.028557 43.100555 3.501858 22
-33.984909 43.349289 3.510846 22
-39.292614 51.075058 3.962392 69
-33.114292 43.092300 3.478039 21
-38.553974 50.806408 3.932581 33
-32.901863 43.421772 3.486181 21
-37.885815 50.601311 3.907285 32
-37.525780 50.466888 3.892716 32
-37.287800 50.499680 3.888135 32
-36.601051 50.261395 3.861242 31
-30.349009 41.670025 3.350148 18
-36.071644 50.605007 3.862599 62
-26.113077 36.384483 3.026261 14
-26.098610 36.616539 3.035637 43
-25.853655 36.521553 3.025766 29
-25.698816 36.572338 3.024202 29
-25.109005 35.952084 2.984035 28
-24.988962 36.036022 2.984740 28
-25.791603 37.520969 3.066455 30
-25.768106 37.764927 3.076244 30
-29.839874 44.385746 3.452245 20
-34.271301 52.083969 3.882465 31
-34.023018 52.065643 3.875986 31
-33.797985 52.102654 3.872433 62
-33.518475 52.050354 3.863846 61
-24.200010 37.256001 3.018535 14
-8.416684 11.685583 1.564811 19
-8.383220 11.710364 1.565136 36
-8.339619 11.722419 1.564693 28
-8.314278 11.765273 1.565991 18
-30.927809 50.905640 3.757009 27
-26.970024 44.434551 3.390029 18
-30.485365 50.943607 3.749127 27
-30.291056 51.008118 3.747790 27
-30.125998 51.124134 3.749355 27
-30.084940 51.462967 3.763319 27
-29.842804 51.441952 3.757315 27
-29.477604 51.591980 3.756308 27
-29.025024 51.155533 3.727750 26
-28.772402 51.105274 3.720353 26
-28.336170 51.128605 3.712521 53
-28.155376 51.209751 3.712477 53
-28.135851 51.602539 3.729516 26
-27.926134 51.629616 3.726551 26
-22.833559 42.050491 3.199653 32
-22.663050 42.051708 3.196361 16
-27.295918 51.679913 3.716424 26
-27.086823 51.703609 3.713431 26
-22.119030 42.036766 3.185152 16
-21.984312 42.124851 3.186524 16
-26.444788 51.737282 3.702665 26
-25.359106 49.922947 3.600641 23
-24.967531 49.980251 3.595910 46
-24.765970 49.995075 3.592854 46
-24.572952 50.027225 3.590766 23
