# .PCD v.7 - Point Cloud Data file format
VERSION .7
FIELDS x y z intensity
SIZE 4 4 4 1
TYPE F F F U
COUNT 1 1 1 1
WIDTH 1521
HEIGHT 1
VIEWPOINT 0 0 0 1 0 0 0
POINTS 1521
DATA ascii
-16.230003 1.805442 -0.028383 2
-10.908617 7.042702 0.512310 57
-10.197038 7.087896 0.530150 5
-9.957238 7.678092 0.544397 57
-9.937858 7.706937 0.545303 100
-9.924303 7.802732 0.547018 58
-9.930606 7.874099 0.547879 58
-9.941687 7.954134 0.548742 67
-9.938778 8.012116 0.549651 67
-9.947905 8.090734 0.550549 42
-9.962695 8.179814 0.551453 42
-11.534381 11.072447 0.552507 14
-11.501690 11.105318 0.553841 14
-11.450927 11.106874 0.555194 14
-11.398252 11.104733 0.556545 14
-11.363351 11.129128 0.557821 14
-11.308809 11.123099 0.559170 14
-11.244671 11.099344 0.560514 14
-11.211672 11.131327 0.561859 14
-11.138228 11.089508 0.563189 14
-11.099471 11.110610 0.564531 14
-11.039803 11.092822 0.565856 14
-11.004798 11.120639 0.567203 14
-10.950041 11.111217 0.568527 14
-10.905636 11.121032 0.569862 14
-10.855700 11.120027 0.571188 14
-10.828922 11.115891 0.571846 14
-10.774516 11.143883 0.573731 14
-10.717347 11.132590 0.575104 14
-10.669462 11.134350 0.576426 14
-10.630550 11.153814 0.577775 14
-10.588030 11.165969 0.579114 14
-10.540217 11.167184 0.580434 14
-10.501192 11.186196 0.581786 14
-10.454947 11.195197 0.583187 14
-10.408944 11.199466 0.584512 14
-10.357856 11.192698 0.585810 14
-10.303490 11.178466 0.587088 14
-10.256285 11.173972 0.588319 14
-10.212508 11.176558 0.589567 14
-10.161553 11.173473 0.590929 14
-10.104417 11.151054 0.592168 14
-10.062187 11.161242 0.593498 14
-10.013798 11.152120 0.594703 14
-9.974829 11.169294 0.596055 14
-9.934205 11.182664 0.597397 14
-9.887222 11.181190 0.598689 14
-9.845016 11.190562 0.600018 14
-9.799689 11.192408 0.601321 14
-9.749781 11.183001 0.602579 14
-9.737932 11.209609 0.603329 14
-7.536967 6.068408 0.585227 57
-7.506800 6.054704 0.585868 3
-7.495562 6.085042 0.586664 3
-7.086864 5.810369 0.594094 3
-7.044216 5.748909 0.594359 3
-7.009705 5.709960 0.594746 3
-6.982111 5.693932 0.595299 3
-6.959684 5.692970 0.595943 50
-6.944381 5.716956 0.596779 50
-6.929543 5.742808 0.597633 3
-6.925839 5.769213 0.598167 3
-6.881536 5.730839 0.598861 3
-6.850190 5.700841 0.599308 3
-6.831254 5.706705 0.599966 97
-6.811882 5.714723 0.600674 97
-6.793476 5.722374 0.601347 100
-6.779293 5.751652 0.602246 100
-6.772674 5.803638 0.603288 3
-6.764602 5.851806 0.604313 3
-6.736382 5.826614 0.604753 3
-6.701983 5.786471 0.605137 3
-6.668370 5.743949 0.605460 20
-6.641358 5.720278 0.605892 20
-6.626017 5.738963 0.606662 100
-6.602858 5.732756 0.607265 100
-6.584851 5.745799 0.608027 100
-6.563758 5.747171 0.608693 100
-6.519155 5.739987 0.609940 7
-6.493258 5.808225 0.611856 57
-6.450937 5.721767 0.611738 3
-6.433241 5.736273 0.612523 3
-6.421374 5.776042 0.613545 3
-6.408073 6.102986 0.619356 3
-6.299750 5.796934 0.617676 3
-6.275214 5.785728 0.618260 3
-6.271002 5.868267 0.619761 3
-6.242619 5.833198 0.620072 3
-6.222227 5.837245 0.620781 3
-6.209418 5.880492 0.621905 3
-6.182425 5.844934 0.622167 3
-6.172986 5.907752 0.623512 3
-6.147301 5.884014 0.623932 3
-6.137685 5.954844 0.625418 3
-10.223454 -25.166014 0.841660 40
-10.290771 -25.050028 0.837502 40
-10.210002 -24.032869 0.822118 57
-10.392275 -24.284004 0.820844 37
-10.504771 -24.390247 0.819206 37
-10.680126 -24.375185 0.813494 57
-10.821288 -23.844755 0.799834 36
-10.928196 -23.921700 0.797888 36
-11.040537 -24.017593 0.796110 36
-11.168301 -24.171165 0.794872 36
-11.634619 -25.641558 0.806251 43
-11.467493 -24.631353 0.793746 43
-9.390004 -14.741118 0.684948 15
-9.441368 -14.725973 0.683146 15
-9.476546 -14.657025 0.680904 15
-9.502088 -14.649324 0.680008 15
-9.595139 -14.679463 0.677752 15
-9.646286 -14.663603 0.675958 15
-9.694824 -14.648369 0.674255 15
-9.745863 -14.632160 0.672464 15
-9.803002 -14.634801 0.670819 15
-9.853992 -14.618214 0.669030 15
-9.912474 -14.624230 0.667410 15
-9.963427 -14.607262 0.665622 15
-10.028450 -14.631783 0.664132 15
-10.087215 -14.637110 0.662502 15
-10.144767 -14.638425 0.660842 16
-10.212982 -14.669712 0.659385 16
-10.282814 -14.704470 0.657942 16
-10.335533 -14.698421 0.656308 16
-10.390995 -14.699704 0.654721 16
-10.440833 -14.677308 0.652899 16
-10.498910 -14.677250 0.651220 16
-10.564059 -14.695696 0.649653 16
-10.626575 -14.706383 0.648035 16
-10.680369 -14.685942 0.646145 16
-10.738740 -14.684947 0.644456 16
-10.797171 -14.683723 0.642764 16
-10.848703 -14.672115 0.641098 16
-10.878689 -14.673174 0.640261 16
-10.972181 -14.691865 0.637914 16
-11.040977 -14.707215 0.636218 16
-11.096291 -14.688955 0.634347 16
-11.168910 -14.719581 0.632805 16
-11.237182 -14.738810 0.631199 16
-11.304104 -14.754056 0.629569 16
-11.361783 -14.746942 0.627830 16
-11.419489 -14.739604 0.626091 16
-11.480412 -14.739378 0.624382 16
-11.548492 -14.762008 0.622855 16
-11.598967 -14.744121 0.621153 16
-11.665027 -14.754124 0.619480 16
-11.728766 -14.758376 0.617780 16
-11.781085 -14.730254 0.615868 16
-11.850789 -14.746732 0.614211 16
-11.920689 -14.762900 0.612547 16
-11.979723 -14.761855 0.610904 16
-12.052522 -14.776230 0.609138 16
-12.124662 -14.795108 0.607467 16
-12.189233 -14.804091 0.605845 16
-12.246956 -14.798414 0.604176 16
-12.314332 -14.805625 0.602455 16
-12.365903 -14.780268 0.600641 16
-12.414766 -14.814104 0.599861 16
-12.493929 -14.779049 0.597148 16
-12.573311 -14.801702 0.595366 16
-12.632154 -14.789685 0.593584 16
-12.703846 -14.802319 0.591855 16
-12.777751 -14.824846 0.590229 16
-12.866557 -14.868711 0.588548 16
-12.920216 -14.844961 0.586732 16
-9.220599 -7.719728 0.572001 5
-9.181630 -7.583922 0.570881 5
-9.173108 -7.508847 0.569917 9
-9.173158 -7.447207 0.568940 9
-9.178344 -7.398610 0.568035 17
-9.176031 -7.331182 0.567032 17
-9.175951 -7.271549 0.566096 23
-9.177487 -7.215481 0.565175 23
-9.182416 -7.168879 0.564315 18
-9.192331 -7.128529 0.563423 18
-9.190924 -7.069197 0.562533 20
-9.195238 -7.020304 0.561659 20
-9.201303 -6.974908 0.560794 19
-9.209153 -6.932988 0.559939 19
-9.223989 -6.903090 0.559091 21
-9.215300 -6.861609 0.558675 21
-9.233344 -6.810826 0.557424 24
-9.244442 -6.775835 0.556599 24
-9.261683 -6.751040 0.555774 24
-9.269135 -6.713382 0.555005 24
-9.279588 -6.680823 0.554239 27
-9.287807 -6.642470 0.553443 27
-9.311998 -6.629398 0.552626 27
-9.322045 -6.594398 0.551838 27
-9.342808 -6.576170 0.551034 27
-9.352528 -6.541153 0.550257 27
-9.369773 -6.517829 0.549468 27
-9.392449 -6.502789 0.548668 27
-9.418416 -6.492651 0.547861 30
-9.439884 -6.475784 0.547067 30
-9.453408 -6.447273 0.546301 30
-9.476970 -6.433590 0.545506 30
-9.507312 -6.429692 0.544689 30
-9.531966 -6.417454 0.543891 30
-9.555473 -6.405904 0.543134 27
-9.577758 -6.390215 0.542348 27
-9.606947 -6.384225 0.541535 27
-9.631487 -6.371608 0.540741 27
-9.663020 -6.368624 0.539918 27
-9.684669 -6.375175 0.539479 27
-9.714367 -6.346097 0.538322 24
-10.430216 -6.391393 0.521695 57
-10.461487 -6.383338 0.520844 23
-10.512221 -6.397979 0.519848 23
-10.555309 -6.403236 0.518905 24
-10.595161 -6.426999 0.518294 24
-10.650983 -6.423640 0.516937 30
-10.689140 -6.422176 0.516023 30
-10.724709 -6.417524 0.515127 31
-10.776257 -6.430641 0.514103 31
-10.817506 -6.434047 0.513188 33
-10.858624 -6.434753 0.512241 33
-10.891752 -6.426364 0.511359 29
-10.935685 -6.429633 0.510386 29
-10.982420 -6.435616 0.509385 30
-11.026549 -6.438418 0.508405 30
-11.084414 -6.455611 0.507301 31
-11.117819 -6.446244 0.506409 31
-11.167727 -6.454154 0.505369 32
-11.215004 -6.458899 0.504349 32
-11.259619 -6.460505 0.503351 33
-11.304319 -6.461877 0.502349 33
-11.343526 -6.457283 0.501397 34
-11.388375 -6.458207 0.500390 34
-11.440330 -6.466014 0.499313 30
-11.492415 -6.473536 0.498232 30
-11.543503 -6.481904 0.497186 31
-11.578815 -6.471955 0.496262 31
-11.638640 -6.488258 0.495124 31
-11.671326 -6.497815 0.494512 31
-11.743592 -6.498260 0.492896 33
-11.793524 -6.501325 0.491818 33
-11.835207 -6.498380 0.490850 34
-11.889345 -6.502506 0.489695 34
-11.945378 -6.510270 0.488545 28
-11.986967 -6.504033 0.487544 28
-12.038836 -6.507130 0.486433 36
-12.079069 -6.499075 0.485443 36
-12.148777 -6.517889 0.484136 45
-12.203931 -6.522810 0.482981 45
-12.242907 -6.512650 0.481999 38
-12.319405 -6.538352 0.480633 38
-13.090040 -6.598950 0.464650 9
-32.953041 -16.269560 0.158523 58
-15.968874 -0.188924 0.369879 57
-15.921442 -0.150258 0.370677 11
-15.917884 -0.110448 0.370710 11
-15.932165 -0.072662 0.370436 77
-15.924318 -0.034727 0.370551 77
-15.922338 0.003159 0.370565 22
-15.914227 0.041003 0.370689 22
-15.921997 0.077028 0.370538 22
-15.925605 0.116849 0.370461 22
-15.949089 0.155105 0.370040 33
-15.924455 0.192632 0.370462 33
-15.937717 0.228933 0.370224 22
-15.948812 0.267172 0.370026 22
-15.951776 0.305261 0.369973 22
-15.960603 0.343568 0.369819 22
-15.939319 0.380862 0.370193 22
-20.312206 2.633584 0.296534 57
-19.521040 2.964091 0.311486 15
-19.453815 3.002628 0.312800 15
-19.368898 3.036981 0.314421 15
-19.305414 3.075437 0.315674 15
-19.232071 3.111336 0.317099 15
-19.178167 3.151132 0.318192 15
-19.106609 3.186594 0.319590 15
-19.001612 3.188268 0.321474 15
-18.902925 3.241948 0.323426 15
-18.842869 3.278603 0.324630 15
-18.769123 3.311580 0.326071 15
-18.706966 3.346950 0.327315 15
-18.621449 3.376110 0.328959 15
-18.537834 3.405205 0.330571 15
-18.473549 3.438740 0.331855 15
-18.422737 3.475405 0.332912 15
-18.362169 3.509197 0.334136 15
-18.278351 3.536387 0.335757 15
-18.223450 3.570914 0.336888 15
-18.162685 3.603505 0.338119 15
-18.080671 3.629789 0.339712 15
-18.023643 3.662636 0.340883 15
-17.941561 3.687951 0.342479 14
-17.861380 3.713297 0.344043 14
-17.816360 3.746084 0.345004 14
-17.074455 4.081082 0.360154 29
-17.048767 4.119049 0.360822 29
-17.005964 4.150962 0.361776 43
-16.991377 4.192600 0.362264 43
-16.941858 4.313078 0.363825 29
-16.922951 4.353109 0.364394 29
-16.920776 4.399337 0.364691 29
-16.909065 4.442084 0.365147 29
-16.900940 4.486223 0.365547 29
-16.881449 4.526058 0.366137 29
-16.886059 4.575216 0.366335 43
-16.884886 4.622272 0.366631 43
-16.876091 4.666430 0.367054 43
-16.889410 4.719498 0.367120 43
-16.891380 4.768219 0.367375 14
-17.248442 5.460232 0.365022 57
-23.390385 10.135768 0.280672 57
-10.350198 7.178835 0.839178 5
-10.299913 7.215432 0.840915 5
-10.291007 7.256326 0.842671 5
-10.249376 7.251677 0.842661 5
-10.280483 7.352147 0.846759 5
-7.630861 6.095830 0.814365 3
-7.601733 6.056008 0.812890 3
-7.376844 5.767781 0.802460 33
-7.357684 5.775367 0.803125 3
-7.325834 5.753507 0.802573 3
-7.289111 5.718451 0.801465 3
-7.256237 5.692539 0.800741 3
-7.223571 5.666469 0.800011 10
-7.195042 5.653707 0.799861 10
-7.177358 5.666677 0.800786 10
-7.134722 5.860428 0.810972 33
-7.139176 5.939288 0.814755 3
-7.127252 5.968759 0.816413 3
-7.107427 5.975514 0.817101 3
-7.118401 6.077253 0.821902 3
-7.071924 6.008482 0.819371 3
-6.581500 6.046344 0.831241 3
-6.567997 6.082592 0.833369 3
-6.481712 6.049716 0.833676 33
-6.375419 5.733780 0.820167 3
-6.359299 5.755816 0.821661 3
-6.339754 5.758076 0.822238 10
-6.317511 5.752675 0.822494 10
-6.299655 5.762609 0.823426 42
-6.276457 5.757263 0.823716 42
-6.258745 5.773147 0.824954 42
-6.241727 5.792894 0.826376 42
-6.222254 5.800833 0.827261 63
-6.200831 5.798902 0.827696 63
-6.181199 5.800624 0.828276 52
-6.161659 5.808360 0.829164 52
-6.142079 5.816030 0.830053 45
-6.118960 5.810051 0.830340 45
-6.098303 5.811675 0.830956 45
-6.076285 5.805351 0.831204 45
-6.057676 5.812562 0.832060 45
-6.038013 5.819880 0.832952 45
-6.019329 5.826969 0.833810 52
-5.996764 5.816400 0.833871 52
-5.974899 5.809694 0.834114 45
-5.954175 5.816885 0.835043 45
-5.935600 5.831758 0.836313 52
-5.924390 5.833389 0.836703 52
-5.893887 5.823598 0.837040 49
-5.872442 5.818486 0.837373 49
-5.852901 5.827157 0.838365 52
-5.833569 5.837742 0.839454 52
-5.812409 5.834391 0.839880 49
-5.792547 5.832821 0.840365 49
-5.772941 5.833168 0.840945 52
-5.751302 5.833683 0.841595 52
-5.731462 5.849999 0.843013 52
-5.711015 5.852236 0.843726 52
-5.689300 5.842483 0.843861 56
-5.669495 5.840496 0.844344 56
-5.650496 5.846393 0.845214 56
-5.631204 5.860279 0.846509 56
-5.610173 5.856199 0.846931 59
-12.380121 -25.152468 1.690346 33
-9.330906 -7.035986 0.845453 33
-9.367614 -7.013646 0.844160 3
-9.416375 -6.983560 0.842441 3
-9.401199 -6.908208 0.839161 3
-9.462503 -6.954663 0.840815 3
-9.400755 -6.804487 0.834514 3
-9.392024 -6.738917 0.831642 2
-9.400268 -6.700339 0.829868 2
-9.409386 -6.663459 0.828169 2
-9.432570 -6.648314 0.827351 2
-9.443563 -6.614754 0.825798 2
-9.522048 -6.682627 0.828329 2
-9.637757 -6.604122 0.824248 2
-9.683289 -6.430271 0.816492 33
-9.710347 -6.420646 0.815961 15
-9.730922 -6.425496 0.816083 15
-9.771529 -6.410731 0.815285 15
-9.808099 -6.413605 0.815267 15
-9.832798 -6.400274 0.814607 15
-9.869465 -6.402834 0.814584 15
-9.896561 -6.392461 0.814052 15
-9.940600 -6.404239 0.814405 15
-9.978797 -6.410299 0.814541 16
-9.997319 -6.385981 0.813462 16
-10.044089 -6.400333 0.813931 17
-10.082386 -6.403424 0.813957 17
-10.118287 -6.403188 0.813855 18
-10.154247 -6.402779 0.813752 18
-10.184017 -6.394396 0.813336 15
-10.223831 -6.398329 0.813414 15
-10.267661 -6.409173 0.813774 16
-10.312737 -6.418885 0.814091 16
-10.352859 -6.422187 0.814158 14
-10.389238 -6.420673 0.814038 14
-10.429517 -6.423584 0.814100 10
-10.468593 -6.424763 0.814097 10
-10.525837 -6.447097 0.814938 11
-10.575515 -6.459987 0.815409 11
-10.596680 -6.439256 0.814555 20
-10.631391 -6.456869 0.815237 20
-10.684755 -6.450328 0.814941 12
-10.723017 -6.448761 0.814861 12
-10.765307 -6.451497 0.814957 17
-10.806355 -6.452523 0.814990 17
-10.841020 -6.448392 0.814825 18
-10.894255 -6.462384 0.815382 18
-10.935555 -6.462768 0.815406 13
-10.976928 -6.462942 0.815428 13
-11.007533 -6.451147 0.814981 14
-11.057170 -6.459729 0.815347 14
-11.113765 -6.475346 0.815997 20
-11.173281 -6.493556 0.816756 20
-11.209616 -6.486766 0.816531 15
-11.240456 -6.474016 0.816076 15
-11.293448 -6.484190 0.816535 16
-11.332682 -6.479709 0.816420 16
-11.385915 -6.489347 0.816870 11
-11.450494 -6.510108 0.817768 11
-11.475943 -6.490685 0.817078 17
-11.514026 -6.483915 0.816897 17
-11.570823 -6.497859 0.817539 18
-11.624657 -6.506134 0.817968 18
-11.691738 -6.529288 0.818989 19
-11.714517 -6.528945 0.819031 19
-11.778362 -6.520818 0.818892 19
-11.821188 -6.516831 0.818861 19
-11.886038 -6.535930 0.819748 20
-11.938880 -6.538498 0.819999 20
-11.984876 -6.536484 0.820068 14
-12.033859 -6.536963 0.820243 14
-12.082929 -6.537179 0.820414 21
-12.140894 -6.545274 0.820908 21
-12.193109 -6.547637 0.821181 22
-12.248381 -6.552407 0.821557 22
-12.285984 -6.540773 0.821285 15
-12.340298 -6.546259 0.821696 15
-12.376832 -6.535477 0.821462 23
-12.442575 -6.545837 0.822104 23
-12.499487 -6.547879 0.822422 16
-12.541821 -6.539055 0.822300 16
-12.600796 -6.544428 0.822757 16
-12.670872 -6.561234 0.823671 16
-12.728992 -6.567245 0.824158 8
-12.792570 -6.572843 0.824664 8
-12.830699 -6.558788 0.824372 8
-12.907135 -6.576649 0.825378 8
-13.002233 -6.609401 0.826997 9
-20.456316 2.655564 0.839184 33
-19.916964 2.826856 0.831745 28
-19.808336 2.862061 0.830283 28
-19.760960 2.906029 0.829924 28
-19.640936 2.935043 0.828235 28
-19.552748 2.967180 0.827108 27
-19.428751 2.993903 0.825350 27
-19.367332 3.033119 0.824751 26
-19.317543 3.074483 0.824373 26
-19.267637 3.115536 0.824000 26
-19.170788 3.145798 0.822758 26
-19.046600 3.169213 0.821007 25
-18.986460 3.181057 0.820169 25
-18.930637 3.244645 0.819990 24
-18.860847 3.279030 0.819267 24
-18.790985 3.312968 0.818547 24
-18.728823 3.348368 0.817976 24
-18.631657 3.374660 0.816747 23
-18.577122 3.411117 0.816328 23
-18.479891 3.436285 0.815102 22
-18.440697 3.475951 0.814984 22
-18.382057 3.510273 0.814500 22
-18.319481 3.543193 0.813945 22
-18.295427 3.586214 0.814134 22
-18.197981 3.608916 0.812916 22
-18.131351 3.639593 0.812294 21
-18.053125 3.666580 0.811451 21
-18.013311 3.704097 0.811355 21
-17.954193 3.735799 0.810889 21
-17.884161 3.761511 0.810179 20
-17.832600 3.794735 0.809868 20
-17.784792 3.828800 0.809634 20
-17.740728 3.863749 0.809479 20
-17.666010 3.888975 0.808723 19
-17.572189 3.907749 0.807591 19
-17.543200 3.946472 0.807745 19
-17.494370 3.954834 0.807142 19
-17.481060 4.022220 0.807990 19
-17.436525 4.055469 0.807852 19
-17.422268 4.098555 0.808328 18
-17.407860 4.141591 0.808808 18
-17.393303 4.184577 0.809294 18
-17.363737 4.270393 0.810282 18
-17.280830 4.289316 0.809396 18
-17.240141 4.320347 0.809335 18
-17.209908 4.357331 0.809533 18
-14.536942 12.852680 1.618538 8
-14.494370 12.888721 1.620354 8
-14.479781 12.963391 1.625359 8
-14.075006 12.781218 1.606102 8
-14.045190 12.833691 1.609383 8
-14.089044 12.992690 1.621373 100
-14.142080 13.166940 1.634604 100
-14.189581 13.330244 1.646987 100
-7.484954 5.757998 1.019447 15
-7.438766 5.731751 1.017411 31
-7.415705 5.732538 1.017519 31
-7.394911 5.738781 1.018067 31
-7.375105 5.744550 1.018581 31
-7.347931 5.731711 1.017618 42
-7.323514 5.728428 1.017426 42
-7.299147 5.725045 1.017232 39
-7.278411 5.730869 1.017779 39
-7.258372 5.738482 1.018475 36
-7.223949 5.710937 1.016377 36
-7.204676 5.720230 1.017220 31
-7.176397 5.705130 1.016122 31
-7.155765 5.710514 1.016666 31
-7.131737 5.706443 1.016460 31
-7.100714 5.679382 1.014418 28
-7.075544 5.671331 1.013906 28
-7.052427 5.668823 1.013843 34
-7.033597 5.675310 1.014497 34
-7.014100 5.679846 1.015001 49
-6.987858 5.667644 1.014179 49
-6.963619 5.661004 1.013808 42
-6.944084 5.671631 1.014834 42
-6.926350 5.687881 1.016317 5
-6.921556 5.710374 1.018217 5
-6.881717 5.685379 1.016481 2
-6.867817 5.710633 1.018698 2
-6.841750 5.693655 1.017524 2
-6.816579 5.682587 1.016839 2
-6.798862 5.692108 1.017802 12
-6.775106 5.688791 1.017761 12
-6.751827 5.683175 1.017530 17
-6.731956 5.688951 1.018221 17
-6.710854 5.686710 1.018261 30
-6.690522 5.694542 1.019142 30
-6.670612 5.700105 1.019834 22
-6.652213 5.707246 1.020647 22
-6.634308 5.716252 1.021617 15
-6.609655 5.704291 1.020914 15
-6.588688 5.705717 1.021297 42
-6.568740 5.710924 1.021990 42
-6.548774 5.716061 1.022685 52
-6.529283 5.723061 1.023536 52
-6.508790 5.726126 1.024076 52
-6.492120 5.744603 1.025869 52
-6.467321 5.730100 1.024999 52
-6.448219 5.738760 1.026010 52
-6.427699 5.741536 1.026551 55
-6.420847 5.757456 1.028003 55
-6.390088 5.766531 1.029247 52
-6.366430 5.755483 1.028683 52
-6.347316 5.759693 1.029348 57
-6.328030 5.767953 1.030366 57
-6.310546 5.779834 1.031668 57
-6.289742 5.786230 1.032566 57
-6.265881 5.772820 1.031836 57
-6.246098 5.778853 1.032699 57
-6.227458 5.790684 1.034041 57
-6.206450 5.790716 1.034426 57
-6.188727 5.802226 1.035736 60
-6.164745 5.786446 1.034838 60
-6.144519 5.790172 1.035542 60
-6.123979 5.797931 1.036604 60
-6.104410 5.805439 1.037632 60
-6.083433 5.805027 1.038016 60
-6.062814 5.800438 1.038041 60
-6.041224 5.795944 1.038100 60
-6.022622 5.803010 1.039094 60
-6.003601 5.814112 1.040451 60
-5.982661 5.813336 1.040833 60
-5.960120 5.808697 1.040925 60
-5.939228 5.807765 1.041306 60
-5.928646 5.813334 1.042022 60
-5.900758 5.821322 1.043340 60
-5.880960 5.828075 1.044377 60
-5.858451 5.815007 1.043775 62
-5.838647 5.821616 1.044812 62
-5.818300 5.824203 1.045521 60
-5.799456 5.830550 1.046524 60
-5.780577 5.836836 1.047529 60
-5.757758 5.827461 1.047284 60
-5.736824 5.833839 1.048361 60
-5.717310 5.843994 1.049735 60
-5.696462 5.842194 1.050115 57
-5.677064 5.844181 1.050791 57
-5.657660 5.846104 1.051468 60
-5.636845 5.844090 1.051847 60
-5.616975 5.851926 1.053060 57
-11.251410 -24.615416 2.576490 25
-11.601677 -24.232864 2.539290 15
-11.703991 -24.292093 2.543074 24
-11.792895 -24.267885 2.539957 24
-10.673897 -6.493844 1.116652 15
-10.689369 -6.443488 1.113644 27
-10.694643 -6.404432 1.111172 27
-10.712947 -6.380356 1.109997 29
-10.736465 -6.362188 1.109340 29
-10.748153 -6.333043 1.107696 42
-10.782226 -6.326586 1.108073 42
-10.808259 -6.311114 1.107679 3
-12.537986 -6.757530 1.182160 28
-12.587049 -6.756815 1.183585 28
-12.639168 -6.758507 1.185255 14
-12.699715 -6.762568 1.187328 14
-12.779887 -6.783404 1.190993 10
-12.862138 -6.807724 1.194936 10
-19.394482 3.349611 1.342955 8
-19.312735 3.382806 1.339513 8
-19.188225 3.405141 1.333733 8
-19.094767 3.434273 1.329656 8
-19.082666 3.483083 1.330053 8
-18.805695 3.566851 1.318053 15
-18.692726 3.588134 1.312917 7
-18.649225 3.627276 1.311625 7
-18.621037 3.670346 1.311192 7
-14.556089 12.852304 2.180907 6
-14.491181 12.857828 2.179024 6
-14.450917 12.896856 2.181385 6
-14.043988 12.710270 2.148135 6
-14.016682 12.765752 2.152718 6
-14.067453 12.933923 2.171344 100
-14.117159 13.102597 2.190006 100
-14.235579 13.368674 2.220851 67
-14.260455 13.505660 2.235519 67
-7.455953 5.754928 1.238981 11
-7.433567 5.757614 1.239029 11
-7.408201 5.752845 1.238210 29
-7.386125 5.753105 1.238006 29
-7.363338 5.751435 1.237583 36
-7.342497 5.757468 1.238063 36
-7.315141 5.746755 1.236585 29
-7.289319 5.739632 1.235540 29
-7.271378 5.752829 1.236891 33
-7.248850 5.757047 1.237188 33
-7.225935 5.757082 1.237012 36
-7.201667 5.753298 1.236398 36
-7.176768 5.747549 1.235564 40
-7.157348 5.756650 1.236481 40
-7.134874 5.754100 1.236048 42
-7.115419 5.763060 1.236966 42
-7.092639 5.762574 1.236787 36
-7.069592 5.757898 1.236130 36
-7.044017 5.745612 1.234591 45
-7.027120 5.761794 1.236392 45
-7.006342 5.766619 1.236871 45
-6.977674 5.750942 1.234954 45
-6.952852 5.746469 1.234360 49
-6.943033 5.753807 1.235187 49
-6.913856 5.763089 1.236201 49
-6.890118 5.758030 1.235569 49
-6.866259 5.748773 1.234456 29
-6.850256 5.768218 1.236712 29
-6.827045 5.760698 1.235819 49
-6.807041 5.770816 1.237000 49
-6.785735 5.772947 1.237255 49
-6.763317 5.771185 1.237063 49
-6.740836 5.765232 1.236388 49
-6.718581 5.767405 1.236676 49
-6.697340 5.769212 1.236930 51
-6.678180 5.774495 1.237596 51
-6.654268 5.762466 1.236242 49
-6.634642 5.769794 1.237168 49
-6.615496 5.778975 1.238319 49
-6.593775 5.778483 1.238346 49
-6.573075 5.781757 1.238824 54
-6.550400 5.777256 1.238398 54
-6.528260 5.774595 1.238197 54
-6.508073 5.779564 1.238900 54
-6.489758 5.792184 1.240508 54
-6.468113 5.791223 1.240533 54
-6.445115 5.784382 1.239876 51
-6.435462 5.788664 1.240455 51
-6.402310 5.788088 1.240637 53
-6.383391 5.798432 1.242024 53
-6.363704 5.800735 1.242467 53
-6.342151 5.799306 1.242488 53
-6.300357 5.802042 1.243215 140
-6.281694 5.813997 1.244836 55
-6.260178 5.812265 1.244856 55
-6.237905 5.806559 1.244418 53
-6.218377 5.814413 1.245583 53
-6.198313 5.814206 1.245796 53
-6.177248 5.814120 1.246044 53
-6.159111 5.829581 1.248133 53
-6.134144 5.813900 1.246574 53
-6.113121 5.813582 1.246821 55
-6.093831 5.822972 1.248221 55
-6.075170 5.830169 1.249357 53
-6.054791 5.833556 1.250066 53
-6.034450 5.830828 1.250046 55
-6.013436 5.830151 1.250293 55
-5.994298 5.841171 1.251931 55
-5.971650 5.836576 1.251749 55
-5.951842 5.843530 1.252925 53
-5.940318 5.843200 1.253083 53
-5.910875 5.841363 1.253381 55
-5.891010 5.848111 1.254559 55
-5.870570 5.850855 1.255271 53
-5.850121 5.853528 1.255984 53
-5.827877 5.842340 1.255059 53
-5.808728 5.846709 1.255970 53
-5.790041 5.854959 1.257349 53
-5.769259 5.863385 1.258802 53
-5.747059 5.859898 1.258848 51
-5.725917 5.856217 1.258856 51
-5.705236 5.856411 1.259335 51
-5.686414 5.864328 1.260719 51
-5.667747 5.874161 1.262342 51
-5.647218 5.876125 1.263057 51
-5.625560 5.866154 1.262356 51
-10.714418 -26.152563 3.659791 28
-10.749867 -26.096277 3.652671 28
-10.883488 -26.075516 3.648969 28
-11.431928 -25.581348 3.585659 27
-11.553206 -25.686516 3.597575 28
-11.627952 -25.606369 3.587607 28
-11.693217 -25.491394 3.573561 27
-12.256013 -26.189854 3.654755 29
-11.698312 -23.499315 3.336257 22
-12.289046 -24.943235 3.506616 26
-11.928523 -23.392717 3.323284 26
-12.029302 -23.433756 3.328079 22
-12.108688 -23.402060 3.324314 22
-12.172877 -23.320669 3.314713 22
-12.696772 -23.574381 3.345329 27
-12.879809 -23.305843 3.314408 23
-14.817860 -26.907499 3.743950 27
-16.401121 -25.349857 3.582487 31
-16.719967 -25.337366 3.585979 27
-11.358150 -6.854189 1.482950 27
-11.381990 -6.832324 1.482106 3
-11.454595 -6.862797 1.488367 3
-11.478464 -6.840596 1.487522 3
-11.589732 -6.910902 1.499282 3
-11.613769 -6.888230 1.498430 3
-14.578837 12.856579 2.748851 8
-14.504596 12.849464 2.743621 8
-14.465515 12.890041 2.746530 8
-14.100259 12.857585 2.721735 18
-14.071175 12.911507 2.727105 23
-14.116194 13.072938 2.750493 23
-14.142319 13.203860 2.768922 42
-7.326206 5.755558 1.457443 2
-7.284636 5.707914 1.449528 2
-7.256176 5.693319 1.446773 2
-7.231764 5.691922 1.446061 2
-7.213947 5.704880 1.447616 2
-7.192621 5.708506 1.447732 2
-7.168568 5.704620 1.446696 2
-7.145918 5.704358 1.446235 2
-7.121614 5.696205 1.444583 2
-7.105012 5.712543 1.446720 2
-7.081756 5.710165 1.445968 2
-7.062139 5.714829 1.446337 2
-7.039936 5.711941 1.445549 2
-7.014863 5.703684 1.443924 2
-6.994290 5.708451 1.444327 2
-6.973332 5.715348 1.445055 2
-6.955437 5.731568 1.447237 2
-6.931529 5.695611 1.441517 2
-6.904459 5.710451 1.443393 2
-6.883299 5.712935 1.443505 2
-6.866098 5.724476 1.445039 2
-6.843161 5.721148 1.444276 2
-6.823580 5.724998 1.444645 2
-6.798562 5.718010 1.443331 2
-6.778006 5.722002 1.443733 5
-6.758560 5.729716 1.444721 5
-6.739530 5.735178 1.445383 5
-6.715751 5.731632 1.444650 5
-6.695713 5.737231 1.445347 17
-6.684109 5.769161 1.450118 17
-6.684406 5.844940 1.461651 5
-6.669166 5.869515 1.465301 5
-6.647109 5.869216 1.465132 31
-6.625074 5.868834 1.464963 31
-6.603060 5.868371 1.464793 43
-6.581561 5.869741 1.464917 43
-6.562500 5.880620 1.466516 46
-6.537151 5.866489 1.464278 46
-6.514754 5.863778 1.463809 28
-11.166883 -25.919333 4.574129 18
-11.206326 -25.705168 4.541020 28
-11.316273 -25.748373 4.547847 28
-11.640328 -25.526571 4.514501 18
-11.647332 -25.190134 4.462738 27
-11.853674 -25.614910 4.529011 27
-11.372280 -23.483774 4.199088 23
-11.438552 -23.404833 4.187340 23
-11.974632 -24.694168 4.388437 18
-11.848150 -23.920576 4.269103 24
-11.790798 -23.118809 4.146088 22
-12.800220 -23.518768 4.218114 24
-12.838471 -23.360687 4.194782 24
-13.185517 -23.578768 4.232866 24
-13.153050 -22.463367 4.064990 21
-14.533092 12.861356 3.318084 11
-14.490462 12.897138 3.320317 7
-14.498574 13.002997 3.337543 7
-39.236855 51.913349 11.385541 54
-32.349277 51.998917 10.967705 11
-32.027916 52.000374 10.950669 63
-31.837246 52.097439 10.957277 63
-31.655325 52.189232 10.963582 63
-31.202389 52.194832 10.941211 63
-30.932606 52.108028 10.912492 63
-30.750654 52.196671 10.918799 63
-30.559275 52.289062 10.925434 63
-30.313314 52.245205 10.905789 63
-30.078173 52.221584 10.890338 63
-7.332869 5.812354 1.689924 11
-7.288524 5.757622 1.678519 2
-7.255488 5.734298 1.673193 2
-7.229198 5.725176 1.670679 8
-7.202310 5.714097 1.667805 8
-7.182330 5.721366 1.668499 8
-7.163674 5.732262 1.669909 8
-7.144634 5.739041 1.670570 8
-7.113985 5.716456 1.665543 8
-7.092687 5.719707 1.665521 8
-7.076285 5.733681 1.667614 8
-7.055955 5.736451 1.667559 10
-7.030809 5.728314 1.665386 10
-7.008263 5.727528 1.664647 17
-6.982253 5.719518 1.662504 17
-6.960023 5.722606 1.662515 10
-6.949022 5.726148 1.662897 10
-6.919986 5.735384 1.663907 10
-6.890390 5.711673 1.658843 10
-6.871420 5.717547 1.659502 10
-6.849680 5.718027 1.659116 10
-6.833576 5.733169 1.661579 10
-6.810247 5.731919 1.660867 10
-6.785132 5.720860 1.658313 12
-6.763460 5.721015 1.657925 12
-6.744459 5.726469 1.658585 12
-6.725615 5.739984 1.660764 12
-6.712538 5.770187 1.666169 4
-6.698157 5.792515 1.670096 4
-6.688372 5.831869 1.677290 2
-6.687688 5.909439 1.691784 2
-6.669590 5.924403 1.694317 31
-6.647364 5.924107 1.693948 31
-6.624661 5.921825 1.693215 38
-6.599041 5.908033 1.690298 38
-6.578389 5.913194 1.691016 34
-6.561548 5.933541 1.694649 34
-6.537031 5.923298 1.692455 34
-6.514930 5.922510 1.692082 34
-11.798759 -23.637199 5.107476 23
-12.310104 -24.792578 5.333082 26
-12.388711 -24.741348 5.324964 26
-12.655930 -25.003260 5.379157 11
-14.570343 12.884714 3.904382 15
-14.498726 12.881026 3.896531 7
-14.470958 12.937196 3.904224 7
-32.426460 52.005032 13.103907 15
-32.172134 52.135876 13.112720 63
-31.891407 52.059322 13.077545 63
-7.211359 6.032928 1.959087 2
-7.175806 5.995576 1.949544 2
-7.160377 6.015283 1.953223 2
-6.368513 6.118262 1.956062 2
-6.331608 6.048054 1.939831 2
-6.312035 6.059899 1.942309 18
-6.288547 6.052545 1.940432 18
-6.266938 6.048730 1.939388 18
-6.244311 6.045036 1.938379 18
-6.225008 6.058515 1.941297 18
-6.203132 6.064447 1.942508 18
-6.180532 6.060515 1.941499 18
-6.158662 6.060342 1.941362 18
-6.137865 6.059913 1.941188 18
-6.118012 6.071126 1.943676 18
-6.097856 6.074405 1.944378 18
-6.074717 6.066233 1.942490 18
-6.053516 6.069533 1.943228 18
-6.032766 6.082555 1.946197 18
-6.011807 6.087636 1.947376 18
-6.000107 6.089339 1.947784 18
-5.968034 6.078129 1.945309 15
-5.946793 6.081056 1.946049 15
-5.926626 6.091638 1.948548 15
-5.905338 6.094419 1.949290 15
-5.885587 6.108730 1.952673 15
-5.863799 6.099631 1.950738 15
-5.843060 6.098196 1.950563 10
-5.821397 6.106617 1.952665 10
-5.800375 6.120773 1.956093 7
-5.778986 6.123114 1.956839 7
-5.754982 6.102117 1.952286 7
-5.735779 6.113888 1.955201 7
-5.715891 6.119779 1.956793 5
-5.696681 6.143170 1.962403 5
-5.677123 6.164558 1.967577 5
-14.564994 12.849835 4.484453 50
-14.520082 12.882402 4.486004 10
-14.495627 12.943081 4.496150 10
-39.418579 51.950092 15.949269 51
-32.223091 52.089401 15.269187 62
-24.361797 53.051460 14.947559 63
-24.143810 53.025501 14.929288 63
-23.958708 53.089966 14.935718 63
-23.782654 53.150608 14.941833 63
-23.357553 53.090038 14.904915 50
-22.946518 53.124054 14.893353 50
-22.453560 52.290058 14.658243 63
-15.682315 52.445778 14.483363 50
-14.962559 50.655655 14.002876 50
-14.778492 50.650204 13.998948 63
-14.589317 50.664684 14.000367 63
-14.409701 50.680721 14.002487 63
-14.228020 50.684696 14.001578 63
-14.057961 50.701778 14.004400 63
-13.877052 50.708309 14.004498 63
-13.701151 50.689880 13.998220 63
-13.521713 50.702774 14.000336 63
-13.338548 50.692120 13.996379 63
-13.146104 50.678310 13.991712 63
-12.965682 50.681599 13.991795 63
-12.865479 50.676632 13.990117 63
-12.615598 50.696499 13.994689 63
-12.435351 50.697903 13.994767 63
-12.258438 50.721653 14.000933 63
-12.077738 50.717953 13.999993 63
-11.898176 50.721283 14.001082 63
-11.733560 50.768929 14.014057 63
-11.561828 50.762314 14.012807 63
-11.375360 50.780193 14.018272 63
-11.183755 50.755138 14.012546 63
-11.006649 50.774521 14.018721 63
-10.827735 50.777908 14.020823 63
-10.650530 50.714409 14.005290 63
-10.461907 50.538769 13.960174 63
-10.265719 50.363270 13.915321 63
-10.082318 50.302490 13.901039 63
1.424087 -1.430285 -0.022336 1
1.339326 -1.378324 0.001501 19
1.393834 -1.461128 -0.023198 1
1.367658 -1.486808 -0.023942 19
1.352160 -1.501594 -0.024381 1
1.341832 -1.511279 -0.024673 1
1.288570 -1.465442 -0.007288 1
1.296601 -1.484417 -0.012308 1
1.260085 -1.454732 -0.000746 1
1.171355 -1.530990 -0.003239 1
1.077028 -1.636024 -0.013200 1
1.093182 -1.709646 -0.031617 1
1.081142 -1.717765 -0.031949 1
1.075101 -1.721793 -0.032116 1
0.952700 -1.797141 -0.035475 19
0.850269 -1.742876 -0.012089 1
0.865972 -1.787139 -0.024227 1
0.816317 -1.708190 -0.000448 1
0.831855 -1.752484 -0.012590 1
0.817083 -1.738296 -0.007756 1
0.789711 -1.700074 0.004064 1
0.813650 -1.761744 -0.013085 1
0.782975 -1.746690 -0.006588 19
0.743065 -1.688578 0.011174 19
0.744166 -1.743794 -0.002405 1
0.741339 -1.753654 -0.004575 1
0.740091 -1.767024 -0.007750 1
0.698602 -1.709329 0.009971 1
0.692594 -1.712026 0.009808 1
0.656650 -1.727639 0.008839 19
0.677866 -1.794311 -0.009429 1
0.692611 -1.846879 -0.023684 1
0.649986 -1.834864 -0.017505 1
0.589687 -1.754407 0.007039 1
0.571476 -1.761179 0.006550 19
0.589753 -1.828662 -0.011795 1
0.559946 -1.867810 -0.019917 1
0.522061 -1.778490 0.005228 1
0.515812 -1.780571 0.005062 1
0.540240 -1.874371 -0.020444 1
0.500957 -1.886769 -0.021491 19
0.460150 -1.870565 -0.015253 1
0.434579 -1.805440 0.002898 1
0.428554 -1.807126 0.002738 1
0.421888 -1.808967 0.002561 1
0.434161 -1.877785 -0.015944 1
0.427895 -1.879468 -0.016110 1
0.416574 -1.862462 -0.011180 1
0.365125 -1.823584 0.001056 1
0.374922 -1.892815 -0.017514 1
0.351988 -1.826701 0.000708 1
0.345572 -1.828187 0.000538 1
0.354964 -1.897437 -0.018041 1
0.326936 -1.832370 0.000046 1
0.313737 -1.835213 -0.000302 1
0.300841 -1.837895 -0.000643 1
0.297614 -1.838552 -0.000728 1
0.281785 -1.841687 -0.001145 19
0.262368 -1.845342 -0.001656 1
0.265092 -1.895921 -0.015181 1
0.263636 -1.923662 -0.022541 1
0.250060 -1.886787 -0.012439 1
0.236745 -1.849844 -0.002330 1
0.191847 -1.856858 -0.003508 19
0.192653 -1.907490 -0.017083 1
0.152677 -1.862076 -0.004534 19
0.142214 -1.863329 -0.004808 19
0.126834 -1.865063 -0.005210 19
0.120285 -1.865763 -0.005381 1
0.132071 1.887106 0.004749 19
0.138943 1.886327 0.004924 1
0.145157 1.885600 0.005083 1
0.164439 1.883211 0.005575 1
0.170970 1.882357 0.005742 1
0.184348 1.880533 0.006082 19
0.190869 1.879609 0.006248 1
0.210087 1.876750 0.006737 19
0.281139 1.864411 0.008541 1
0.287926 1.863085 0.008713 1
0.302254 1.899707 -0.001177 1
0.300841 1.860491 0.009040 1
0.339150 1.852242 0.010008 19
0.345572 1.850777 0.010170 1
0.374404 1.843909 0.010897 19
0.535161 1.796615 0.014927 1
0.702509 1.835997 -0.006537 19
0.741642 1.788945 0.001600 19
0.729694 1.717505 0.019746 1
0.805656 1.679448 0.021609 19
0.940673 1.660211 0.011583 1
0.971515 1.695867 0.000046 1
1.503851 1.365075 -0.012957 19
1.962554 0.426126 -0.003564 19
1.966165 -0.385319 -0.005595 1
1.858918 -0.752902 -0.009328 19
1.787700 -0.732171 0.008563 1
1.756219 -0.727145 0.016048 1
1.750156 -0.731767 0.016915 8
1.751152 -0.739606 0.015885 8
1.755709 -0.748938 0.013907 9
1.753045 -0.755330 0.013821 9
1.741533 -0.757638 0.016107 10
1.728102 -0.759437 0.018862 10
1.730762 -0.768024 0.017355 12
1.736953 -0.778178 0.014899 12
1.739531 -0.786832 0.013389 10
1.724284 -0.787693 0.016618 10
1.719710 -0.793187 0.017003 9
1.730725 -0.801861 0.013640 9
1.723190 -0.809085 0.014462 10
1.721940 -0.816483 0.013893 10
1.711836 -0.819819 0.015694 11
1.707163 -0.825239 0.016077 11
1.704380 -0.831150 0.015990 12
1.710211 -0.841517 0.013524 12
1.703718 -0.846076 0.014380 9
1.693713 -0.848915 0.016186 9
1.690701 -0.855090 0.016092 11
1.685923 -0.860400 0.016472 11
1.689990 -0.869684 0.014482 12
1.693704 -0.879622 0.012480 12
1.678437 -0.879685 0.015710 6
1.671852 -0.884049 0.016564 6
1.694391 -1.081337 -0.014439 1
1.690567 -1.087511 -0.014553 1
1.639329 -1.165923 -0.016083 1
1.635211 -1.171903 -0.016205 1
1.626911 -1.183822 -0.016450 19
1.565278 -1.149942 0.000687 1
1.618529 -1.195682 -0.016698 1
1.527073 -1.156566 0.006932 1
1.560681 -1.189549 -0.004713 1
1.608493 -1.521319 0.013762 1
1.576038 -1.556278 0.012832 1
1.570833 -1.561751 0.012683 1
1.610907 -1.621677 -0.002641 15
1.538101 -1.595348 0.011749 15
1.560243 -1.628537 0.003233 1
1.529669 -1.603782 0.011509 1
1.520910 -1.612450 0.011260 1
1.515234 -1.618018 0.011099 1
1.492339 -1.640088 0.010450 15
1.462253 -1.665518 0.010056 1
1.456686 -1.670613 0.009899 1
1.444911 -1.681278 0.009566 15
1.479582 -1.781104 -0.012302 1
1.409142 -1.712775 0.008560 1
1.397377 -1.722850 0.008229 15
1.360749 -1.753342 0.007203 15
1.399425 -1.812596 -0.008154 1
1.342508 -1.768051 0.006694 1
1.391171 -1.854198 -0.014777 1
1.317848 -1.787451 0.006006 1
1.342762 -1.832428 -0.005170 1
1.319596 -1.815710 0.000576 1
1.292924 -1.806508 0.005312 1
1.316890 -1.852064 -0.005890 1
1.260679 -1.830369 0.004416 15
1.254567 -1.834794 0.004247 1
1.248117 -1.839430 0.004068 1
1.228670 -1.853202 0.003529 1
1.221830 -1.857974 0.003340 1
1.208753 -1.866994 0.002979 15
1.202191 -1.871470 0.002797 1
1.189020 -1.880352 0.002434 1
1.182412 -1.884759 0.002252 1
1.150144 -1.905803 0.001363 1
1.123266 -1.922745 0.000624 1
1.116510 -1.926922 0.000439 1
1.109739 -1.931076 0.000253 1
1.096155 -1.939311 -0.000120 1
1.089341 -1.943393 -0.000307 1
1.082513 -1.947451 -0.000494 1
1.055405 -1.963248 -0.001235 1
1.048508 -1.967187 -0.001424 1
1.041943 -1.970908 -0.001603 1
1.034673 -1.974994 -0.001802 1
1.027735 -1.978861 -0.001991 1
1.021131 -1.982513 -0.002171 1
1.014516 -1.986142 -0.002352 1
1.007539 -1.989939 -0.002542 1
1.000549 -1.993711 -0.002732 1
0.993546 -1.997459 -0.002923 1
0.986530 -2.001183 -0.003114 1
0.972459 -2.008556 -0.003497 1
0.951611 -2.019252 -0.004064 15
0.944519 -2.022828 -0.004256 1
0.937415 -2.026381 -0.004449 1
0.930298 -2.029908 -0.004642 1
0.916028 -2.036887 -0.005029 1
0.912453 -2.038617 -0.005126 1
0.902068 -2.043597 -0.005407 1
0.894892 -2.047000 -0.005602 1
0.887704 -2.050379 -0.005796 1
0.866068 -2.060364 -0.006381 15
0.858833 -2.063642 -0.006577 1
0.851587 -2.066895 -0.006773 1
0.844330 -2.070122 -0.006969 1
0.837061 -2.073324 -0.007165 1
0.830145 -2.076342 -0.007351 1
0.815919 -2.082466 -0.007735 1
0.808241 -2.085723 -0.007942 1
0.800918 -2.088799 -0.008139 1
0.793584 -2.091849 -0.008337 1
0.778885 -2.097872 -0.008732 15
0.771889 -2.100698 -0.008920 1
0.764145 -2.103793 -0.009128 1
0.749363 -2.109611 -0.009526 15
0.741957 -2.112481 -0.009724 1
0.738250 -2.113906 -0.009824 1
0.727486 -2.118003 -0.010113 1
0.720051 -2.120797 -0.010312 1
0.712979 -2.123426 -0.010502 1
0.705525 -2.126169 -0.010702 1
0.698435 -2.128751 -0.010892 1
0.690588 -2.131577 -0.011102 1
0.683106 -2.134242 -0.011302 1
0.675614 -2.136880 -0.011502 1
0.668489 -2.139363 -0.011693 1
0.660980 -2.141950 -0.011894 1
0.653461 -2.144512 -0.012095 1
0.645934 -2.147047 -0.012296 1
0.638398 -2.149555 -0.012497 1
0.630853 -2.152038 -0.012699 1
0.623300 -2.154494 -0.012900 1
0.616342 -2.158778 -0.013541 1
0.608765 -2.161184 -0.013743 1
0.601180 -2.163563 -0.013945 1
0.593967 -2.165798 -0.014138 1
0.586366 -2.168125 -0.014340 1
0.578756 -2.170425 -0.014543 1
0.571139 -2.172699 -0.014746 1
0.563514 -2.174947 -0.014948 1
0.559698 -2.176060 -0.015050 1
0.548240 -2.179361 -0.015355 1
0.533702 -2.183456 -0.015741 1
0.525657 -2.185678 -0.015955 1
0.517986 -2.187766 -0.016158 1
0.510693 -2.189726 -0.016352 1
0.503393 -2.191661 -0.016545 1
0.495201 -2.191786 -0.016307 1
0.487510 -2.193768 -0.016511 1
0.479427 -2.195820 -0.016726 1
0.471336 -2.197843 -0.016940 1
0.464010 -2.199647 -0.017134 1
0.433097 -2.206978 -0.017952 15
0.425353 -2.208743 -0.018156 1
0.417991 -2.210395 -0.018351 1
0.410623 -2.212022 -0.018546 1
0.402473 -2.213793 -0.018761 1
0.394706 -2.215451 -0.018966 1
0.375262 -2.219477 -0.019479 15
0.363969 -2.221735 -0.019776 1
0.356174 -2.223258 -0.019982 1
0.348764 -2.224681 -0.020177 1
0.340568 -2.226224 -0.020393 1
0.332757 -2.227666 -0.020598 1
0.317837 -2.190740 -0.011886 1
0.317513 -2.230399 -0.020999 1
0.309688 -2.231761 -0.021205 1
0.301858 -2.233095 -0.021411 1
0.294024 -2.234401 -0.021617 1
0.286185 -2.235681 -0.021823 1
0.278342 -2.236933 -0.022029 1
0.270494 -2.238157 -0.022235 1
0.256990 -2.200780 -0.013484 1
0.255572 -2.240408 -0.022626 1
0.239849 -2.242671 -0.023038 1
0.226468 -2.205169 -0.014285 1
0.224111 -2.244824 -0.023450 1
0.216236 -2.245859 -0.023657 1
0.208752 -2.246817 -0.023852 1
0.192020 -2.182122 -0.008813 1
0.192196 -2.248846 -0.024285 1
0.187858 -2.249358 -0.024399 1
0.177205 -2.250578 -0.024677 1
0.161318 -2.181747 -0.008706 1
0.161413 -2.252293 -0.025090 1
0.153513 -2.253109 -0.025296 1
0.145609 -2.253897 -0.025502 1
0.133416 -2.215917 -0.016717 1
0.129399 -2.255428 -0.025925 1
0.136517 2.277492 -0.013874 1
0.144028 2.276772 -0.013682 1
0.191649 2.273590 -0.012910 15
0.199146 2.272688 -0.012719 1
0.222804 2.269676 -0.012115 15
0.230682 2.268617 -0.011914 1
0.233323 2.228853 -0.002949 1
0.246822 2.266360 -0.011503 1
0.254688 2.265217 -0.011303 1
0.301802 2.257783 -0.010105 15
0.325297 2.253696 -0.009509 1
0.332728 2.252351 -0.009320 1
0.402506 2.238468 -0.007554 1
0.448566 2.226046 -0.005946 1
0.479042 2.218593 -0.005179 1
0.486741 2.216639 -0.004985 1
0.494433 2.214659 -0.004791 1
0.502118 2.212651 -0.004598 1
0.525130 2.206469 -0.004020 1
0.570954 2.193382 -0.002870 1
0.616495 2.179338 -0.001730 1
0.624056 2.176905 -0.001541 1
0.639152 2.171959 -0.001164 15
0.646687 2.169447 -0.000976 1
0.650451 2.168181 -0.000882 1
0.661731 2.164343 -0.000600 1
0.669239 2.161752 -0.000413 1
0.684229 2.156492 -0.000040 15
0.691336 2.153956 0.000137 1
0.773733 2.124698 0.001739 15
0.781102 2.121716 0.001922 1
0.795810 2.115675 0.002286 1
0.803148 2.112616 0.002468 1
0.817791 2.106421 0.002830 15
0.825096 2.103285 0.003010 1
0.828745 2.101708 0.003101 1
0.838946 2.097257 0.003352 1
0.846220 2.094048 0.003532 1
0.883137 2.077286 0.004442 1
0.904353 2.067291 0.004964 15
0.911521 2.063853 0.005140 1
0.960650 2.039454 0.006346 15
0.967721 2.035820 0.006519 1
0.974779 2.032161 0.006692 1
1.079067 1.974351 0.009235 1
1.085910 1.970304 0.009401 1
1.099213 1.962343 0.009724 15
1.125627 1.943866 0.010808 15
1.132364 1.939656 0.010971 1
1.145792 1.931167 0.011296 1
1.158828 1.922799 0.011610 1
1.172138 1.914125 0.011932 1
1.205146 1.892036 0.012727 15
1.244239 1.864772 0.013665 15
1.346529 1.789900 0.015662 15
1.609710 1.539590 0.022257 15
2.326064 -0.023936 0.007418 15
2.232497 -0.546496 0.009933 15
2.165801 -0.698376 0.013213 15
2.172771 -0.708773 0.011116 5
2.157064 -0.712814 0.013850 5
2.145083 -0.717963 0.015777 9
2.120327 -0.717974 0.020538 9
2.130907 -0.729588 0.017630 10
2.122740 -0.735414 0.018754 10
2.136808 -0.748773 0.015032 10
2.139698 -0.758410 0.013732 10
2.112953 -0.757762 0.018893 14
2.104214 -0.758991 0.020464 14
2.107670 -0.772649 0.018718 14
2.117682 -0.785297 0.015793 14
2.118570 -0.794293 0.014892 9
2.104717 -0.797891 0.017225 9
2.094679 -0.802390 0.018754 9
2.078993 -0.805142 0.021492 9
2.107259 -0.824484 0.014521 9
2.091383 -0.827569 0.017253 9
2.086616 -0.834424 0.017562 10
2.081828 -0.841256 0.017870 10
2.089917 -0.852734 0.015349 8
2.103257 -0.866835 0.011606 8
2.122128 -0.882856 0.006651 1
2.193119 -0.966843 -0.014237 1
1.905856 -1.110187 0.022521 15
1.970715 -1.193649 0.001475 1
1.796771 -1.284301 0.019247 15
1.824437 -1.413337 -0.002879 1
1.895920 -2.049641 -0.008760 1
1.820625 -1.985401 0.008550 1
1.640947 -2.141963 0.003498 1
1.633422 -2.147945 0.003288 1
1.626255 -2.153604 0.003088 1
1.526720 -2.228342 0.000320 11
1.494909 -2.250783 -0.000560 11
1.455204 -2.277864 -0.001657 1
1.431559 -2.293515 -0.002309 11
1.423910 -2.298503 -0.002520 1
1.391931 -2.318971 -0.003400 1
1.436313 -2.407264 -0.021571 1
1.375632 -2.329165 -0.003847 1
1.359263 -2.339246 -0.004297 1
1.342824 -2.349212 -0.004748 1
1.334578 -2.354152 -0.004973 1
1.326315 -2.359063 -0.005200 1
1.293511 -2.378179 -0.006097 1
1.252035 -2.401493 -0.007230 11
1.244029 -2.405885 -0.007448 1
1.235586 -2.410479 -0.007679 1
1.227127 -2.415045 -0.007909 1
1.193134 -2.433009 -0.008834 1
1.184597 -2.437425 -0.009067 1
1.167905 -2.445952 -0.009520 11
1.159323 -2.450280 -0.009753 1
1.150726 -2.454579 -0.009987 1
1.073127 -2.491707 -0.012089 1
1.064386 -2.495704 -0.012325 1
1.046861 -2.503607 -0.012798 11
1.038079 -2.507513 -0.013036 1
1.012091 -2.518855 -0.013737 11
0.983429 -2.475520 -0.004438 1
0.994406 -2.526392 -0.014213 1
0.985545 -2.530114 -0.014452 1
0.976670 -2.533805 -0.014691 1
0.958882 -2.541095 -0.015170 11
0.935583 -2.508098 -0.008050 1
0.923155 -2.555300 -0.016130 11
0.888426 -2.492860 -0.003121 1
0.909707 -2.560498 -0.016491 1
0.896682 -2.565456 -0.016840 1
0.887684 -2.568836 -0.017082 1
0.870105 -2.575338 -0.017553 11
0.861525 -2.578462 -0.017783 1
0.807100 -2.597535 -0.019239 1
0.797991 -2.600603 -0.019482 1
0.788872 -2.603638 -0.019726 1
0.770601 -2.609615 -0.020214 1
0.752288 -2.615463 -0.020702 1
0.743117 -2.618339 -0.020947 1
0.734395 -2.621042 -0.021179 1
0.725205 -2.623856 -0.021424 1
0.673998 -2.553010 -0.006528 1
0.679107 -2.637442 -0.022650 1
0.651801 -2.645079 -0.023376 11
0.642527 -2.647604 -0.023622 1
0.633708 -2.649973 -0.023856 1
0.624882 -2.652313 -0.024090 1
0.602507 -2.605361 -0.014620 1
0.596493 -2.659626 -0.024843 11
0.586702 -2.662074 -0.025102 1
0.568963 -2.666411 -0.025572 1
0.533375 -2.602168 -0.012580 1
0.513230 -2.679233 -0.027045 1
0.503368 -2.681375 -0.027306 1
0.470439 -2.688254 -0.028175 11
0.456772 -2.690986 -0.028535 1
0.391741 -2.603301 -0.010898 11
0.400554 -2.701471 -0.030015 1
0.391084 -2.703119 -0.030264 1
0.343654 -2.710860 -0.031510 1
0.325597 -2.713584 -0.031983 1
0.283255 -2.620434 -0.013746 11
0.277994 -2.720180 -0.033230 11
0.259727 -2.651255 -0.019779 1
0.222531 -2.655689 -0.020752 1
0.210117 -2.629405 -0.015659 1
0.192526 -2.729908 -0.035464 1
0.189375 2.654242 -0.002362 1
0.198596 2.653297 -0.002127 1
0.217488 2.651258 -0.001644 11
0.241139 2.549499 0.017788 11
0.263041 2.645776 -0.000481 1
0.587502 2.611578 0.002468 11
0.582509 2.556003 0.012882 1
0.643226 2.568099 0.009138 1
0.798903 2.622981 -0.005783 1
0.852934 2.604235 -0.004437 1
0.969561 2.559397 -0.001541 11
0.996177 2.548301 -0.000882 1
1.005023 2.544541 -0.000663 1
1.018268 2.538842 -0.000336 11
1.030603 2.533461 -0.000031 1
1.045409 2.449115 0.013873 11
1.084034 2.509313 0.001286 1
1.177756 2.463570 0.003588 11
1.168111 2.424263 0.010870 1
2.874348 0.049926 0.002928 11
2.874600 0.008727 0.002827 11
2.874417 -0.021658 0.002743 1
2.865788 -0.216618 0.002009 11
2.865017 -0.226372 0.001964 1
2.864170 -0.236637 0.001915 1
2.857236 -0.308402 0.001548 1
2.794534 -0.671524 -0.001023 1
2.730771 -0.666816 0.009558 1
2.701564 -0.670076 0.014140 10
2.689478 -0.677885 0.015716 10
2.673668 -0.684174 0.017963 12
2.682690 -0.696692 0.015873 12
2.684147 -0.706825 0.015120 11
2.667623 -0.707669 0.017745 11
2.665728 -0.722534 0.017276 11
2.668862 -0.733642 0.016182 11
2.670051 -0.744260 0.015422 12
2.667531 -0.753364 0.015333 12
2.657386 -0.760330 0.016579 18
2.656574 -0.770408 0.016150 18
2.648145 -0.778307 0.017057 9
2.643480 -0.787261 0.017295 9
2.646350 -0.798427 0.016194 8
2.637841 -0.806231 0.017099 8
2.619875 -0.811127 0.019676 2
2.743290 -0.859285 -0.002838 2
1.330629 -3.167933 -0.022450 1
0.981468 -3.300517 -0.031819 10
0.738511 -3.368495 -0.038274 1
0.549230 -3.408573 -0.043269 1
0.537293 -3.410734 -0.043583 1
0.442733 -3.426336 -0.046067 10
0.407318 -3.431493 -0.046996 1
0.250692 -3.449860 -0.051091 10
1.017232 3.311616 -0.013584 10
0.996959 3.214092 0.001286 1
0.997434 3.197232 0.003757 1
1.009554 3.178478 0.006212 11
1.020599 3.174667 0.006488 11
1.032954 3.174546 0.006181 11
1.042649 3.166928 0.007037 11
1.050406 3.155757 0.008460 11
1.062734 3.155519 0.008152 11
1.075073 3.155232 0.007844 11
1.090894 3.164165 0.006086 11
1.094340 3.141766 0.009246 13
1.109335 3.146693 0.008081 13
1.125975 3.157301 0.006035 11
1.134786 3.147553 0.007176 11
1.145723 3.143305 0.007448 12
1.155912 3.137179 0.008008 12
1.167745 3.136746 0.007686 11
1.177697 3.128497 0.008548 11
1.191574 3.131422 0.007662 11
1.207760 3.139772 0.005911 11
1.210260 3.115188 0.009354 11
1.222625 3.114322 0.009046 11
1.235776 3.115228 0.008449 11
1.247383 3.112444 0.008428 11
1.262935 3.118691 0.006969 11
1.270734 3.121789 0.006239 11
1.284310 3.111547 0.007189 11
1.299968 3.117618 0.005732 11
1.319758 3.132637 0.002840 3
1.326259 3.116691 0.004844 3
1.337627 3.111528 0.005124 3
1.350939 3.111958 0.004530 3
1.355869 3.094410 0.006803 2
1.370004 3.096547 0.005921 2
1.384485 3.100665 0.004741 1
1.405559 3.116949 0.001573 1
1.431952 3.143806 -0.003308 1
1.442874 3.138522 -0.003040 1
1.517721 3.101024 -0.001204 1
1.780853 2.950320 0.005199 10
1.811008 2.931038 0.005928 1
1.783609 2.878005 0.014471 1
1.796405 2.864920 0.015393 1
1.808546 2.861660 0.015072 1
1.821791 2.859995 0.014471 3
1.836155 2.859914 0.013590 3
1.847199 2.854856 0.013549 7
1.861591 2.854654 0.012669 7
1.869249 2.844613 0.013466 7
1.874597 2.831302 0.014821 7
1.891250 2.834200 0.013381 8
1.901088 2.827314 0.013617 8
1.913200 2.823619 0.013295 8
1.923001 2.816656 0.013530 8
1.930459 2.806448 0.014322 8
1.951365 2.815791 0.011757 8
1.958310 2.805855 0.012536 8
1.970888 2.801564 0.012224 8
1.973522 2.784864 0.014126 10
1.980813 2.774520 0.014913 10
1.990442 2.767321 0.015143 10
2.007237 2.769549 0.013705 10
2.026481 2.774840 0.011712 8
2.033693 2.764344 0.012497 8
2.037949 2.751073 0.013824 7
2.042726 2.747378 0.013938 7
2.075880 2.759208 0.010131 5
2.087918 2.754781 0.009804 5
2.095005 2.744114 0.010585 2
