# .PCD v.7 - Point Cloud Data file format
VERSION .7
FIELDS x y z intensity
SIZE 4 4 4 1
TYPE F F F U
COUNT 1 1 1 1
WIDTH 1475
HEIGHT 1
VIEWPOINT 0 0 0 1 0 0 0
POINTS 1475
DATA ascii
29.950773 -13.138415 1.073230 7
29.714058 -13.175427 1.071997 7
29.488667 -13.215270 1.070816 7
29.263386 -13.253688 1.069640 7
29.023342 -13.284800 1.068409 7
28.805754 -13.323288 1.067276 7
28.554892 -13.346938 1.066010 6
28.330172 -13.379554 1.064858 6
28.109299 -13.412275 1.063726 6
27.895954 -13.446676 1.062630 6
27.670158 -13.468369 1.061499 6
27.470335 -13.499619 1.060479 6
27.255230 -13.535179 1.059379 6
27.063002 -13.567121 1.058398 6
26.872358 -13.604562 1.057418 6
26.665703 -13.627769 1.056387 6
26.469425 -13.666172 1.055382 5
26.299578 -13.703252 1.054509 5
26.115850 -13.750772 1.053554 5
26.085794 -13.855488 1.053242 5
63.665119 -31.293242 1.204344 63
63.281471 -31.379263 1.202386 63
63.732742 -31.868652 1.203765 63
62.710049 -31.664778 1.199237 63
62.552162 -31.866323 1.198186 63
62.233318 -32.003654 1.196476 63
96.104378 -49.998989 1.329310 63
95.700600 -50.224186 1.327106 63
95.098839 -50.368095 1.324101 63
88.494904 -47.390045 1.297458 63
95.828575 -51.601406 1.325812 63
95.724159 -51.958817 1.324850 63
88.415855 -52.238991 1.291006 63
88.233047 -52.552303 1.289821 63
87.479240 -52.516048 1.286456 63
87.032539 -52.673512 1.284268 63
87.155548 -53.161678 1.284289 63
87.155624 -53.580231 1.283841 63
87.252525 -54.036972 1.283794 63
86.774200 -54.151878 1.281537 63
74.221611 -51.452244 1.228831 63
73.629089 -51.440643 1.226282 63
73.409470 -51.675335 1.225153 63
29.616470 -22.579786 1.059311 9
28.790960 -22.333282 1.055967 18
28.693411 -22.424616 1.055488 27
29.456387 -23.120291 1.058248 19
29.405787 -23.240654 1.057954 19
29.513695 -23.482481 1.058252 30
29.480583 -23.625010 1.058022 10
29.544088 -23.837912 1.058157 10
29.483646 -23.962015 1.057830 10
27.621342 -22.923183 1.050677 9
28.965805 -24.084955 1.055609 9
25.861855 -22.222509 1.043787 16
26.190857 -22.628679 1.044937 8
26.488863 -23.015398 1.045972 59
26.310869 -23.036131 1.045238 25
26.243296 -23.142220 1.044917 8
28.043842 -24.722214 1.051534 9
26.038063 -23.299038 1.044023 25
25.766502 -23.241812 1.042953 8
25.810221 -23.436497 1.043056 8
25.998877 -23.750250 1.043697 8
25.715843 -23.673370 1.042596 8
24.420544 -22.761204 1.037753 7
24.316776 -22.830324 1.037321 7
24.463873 -23.116344 1.037816 7
29.051781 -27.503828 1.054626 12
28.859015 -27.526049 1.053870 12
23.627331 -23.180447 1.034533 7
25.242149 -24.919640 1.040422 17
24.199318 -24.167095 1.036549 8
24.107473 -24.240555 1.036186 16
23.122513 -23.529966 1.032534 21
23.071493 -23.634584 1.032326 22
25.543085 -26.030113 1.041409 9
22.801861 -23.699442 1.031300 7
22.665333 -23.900820 1.030773 29
23.176941 -24.531227 1.032647 15
24.448267 -25.900536 1.037318 8
24.348190 -25.971601 1.036946 8
25.613962 -27.362923 1.041601 9
22.479744 -24.701588 1.030073 15
22.455528 -24.835657 1.029989 22
22.366537 -24.915276 1.029670 22
22.342749 -25.059208 1.029593 7
25.836580 -28.886267 1.042483 10
25.666664 -28.919937 1.041879 10
25.625242 -29.073343 1.041750 10
49.239784 -54.509346 1.128953 63
49.011406 -54.644405 1.128182 63
50.163136 -59.403278 1.133350 63
49.937786 -59.561069 1.132649 63
49.069443 -58.988659 1.129566 63
49.490971 -59.880081 1.131277 63
48.241184 -58.857590 1.126783 63
48.608540 -59.692913 1.128306 63
47.778679 -59.119247 1.125371 63
47.645557 -59.374912 1.125042 63
48.045578 -60.262871 1.126708 63
48.005569 -60.636402 1.126740 63
47.582291 -60.531460 1.125337 63
47.124222 -60.423031 1.123827 63
43.135086 -59.651142 1.111044 63
43.088612 -59.994331 1.111109 63
43.247654 -60.632462 1.111974 63
42.447781 -59.983646 1.109186 63
42.300861 -60.239044 1.108912 63
42.216358 -60.536533 1.108854 63
41.044411 -59.383533 1.104658 63
40.856968 -59.556019 1.104226 63
40.820824 -59.958645 1.104396 63
41.085133 -60.759853 1.105714 63
40.318512 -60.108910 1.103056 63
40.160671 -60.324730 1.102760 63
41.078865 -62.066410 1.106633 63
40.473095 -61.656178 1.104622 63
40.159874 -61.635780 1.103728 63
39.873814 -61.697716 1.102978 63
39.485447 -61.586105 1.101817 63
32.943642 -61.937096 1.085328 63
32.459782 -61.582405 1.083820 63
32.246967 -61.675446 1.083418 63
31.818089 -61.407230 1.082139 63
32.229515 -62.670837 1.084430 63
32.034538 -62.801525 1.084124 63
31.106236 -61.590801 1.080705 63
31.065819 -62.072716 1.081140 63
8.227657 -23.287437 0.987673 6
8.197917 -23.428583 0.987797 3
7.967804 -23.137602 0.986993 3
7.952992 -23.512197 0.987450 3
8.118299 -24.548540 0.989108 33
4.704980 -16.754961 0.972733 6
4.647264 -16.779430 0.972665 13
4.588799 -16.786623 0.972573 20
4.542901 -16.831703 0.972556 3
7.811878 -24.967840 0.989143 15
6.594520 -22.207138 0.983333 22
7.541602 -24.779636 0.988436 15
7.463041 -24.823948 0.988369 11
6.095358 -21.592484 0.981668 7
6.038015 -21.657890 0.981668 100
5.996140 -21.764200 0.981752 44
6.060189 -22.373373 0.982713 100
6.342479 -23.356907 0.984546 40
5.934491 -22.492907 0.982695 86
6.124296 -23.232857 0.984042 21
6.062846 -23.293526 0.984040 37
6.003926 -23.374256 0.984072 50
5.353419 -21.797083 0.980840 27
5.299023 -21.862881 0.980860 100
5.210518 -21.842875 0.980708 30
5.687150 -23.472475 0.983774 25
5.089341 -21.964693 0.980724 50
6.602700 -26.730925 0.989859 12
6.466431 -26.620281 0.989514 29
5.248650 -23.197409 0.982783 9
4.930228 -22.476526 0.981287 100
4.805429 -22.344351 0.980930 23
4.797259 -22.565163 0.981256 5
4.646683 -22.612091 0.981147 22
4.541023 -22.535656 0.980905 49
4.338220 -22.133108 0.980046 42
3.974619 -21.177158 0.978146 40
4.272675 -22.457090 0.980477 99
3.830424 -21.206848 0.978032 38
4.097646 -22.411882 0.980216 34
5.442841 -27.481138 0.989640 8
4.061538 -22.862488 0.980890 85
3.922944 -22.655890 0.980420 39
3.801507 -22.506517 0.980060 13
4.941358 -27.071043 0.988480 8
5.038412 -27.810825 0.989760 31
3.296140 -21.469275 0.977910 36
3.209887 -21.429501 0.977766 46
4.085150 -25.210331 0.984681 31
3.637901 -23.767712 0.981941 18
3.574591 -23.853313 0.982026 33
3.374223 -23.370932 0.981069 86
3.256545 -23.222183 0.980728 19
3.180830 -23.248188 0.980709 63
3.044021 -23.365753 0.980797 31
3.703758 -26.726793 0.986860 12
2.776995 -23.264824 0.980436 33
2.710884 -23.336155 0.980509 27
2.639296 -23.363403 0.980507 2
3.567875 -28.313828 0.989418 22
3.432492 -28.133074 0.989028 4
2.538785 -25.437706 0.983950 24
1.990887 -22.915224 0.979368 34
1.919360 -22.956585 0.979402 15
1.844144 -22.978012 0.979402 18
2.523943 -27.402903 0.987297 41
2.364273 -27.016165 0.986562 12
1.126338 -20.048861 0.974054 1
1.000690 -20.073128 0.974045 61
0.919289 -20.008879 0.973904 47
1.728094 -26.419821 0.985291 18
0.730409 -20.085447 0.973975 29
0.661076 -20.075054 0.973936 21
0.424756 -18.859943 0.971754 28
0.360370 -18.852436 0.971725 12
0.303731 -18.904207 0.971803 51
0.273425 -19.669916 0.973139 48
0.214424 -19.729378 0.973233 63
0.296638 -21.052750 0.975573 60
0.016511 -19.140112 0.972169 58
0.162011 -21.051634 0.975555 22
0.075146 -20.964302 0.975393 22
-0.051517 -20.370115 0.974334 14
-0.166640 -21.361515 0.976087 34
-0.233758 -21.371468 0.976105 14
-0.316093 -21.241980 0.975878 33
-0.378104 -21.355392 0.976083 50
-0.542151 -20.140472 0.973932 14
-0.521054 -21.402382 0.976178 10
-0.477580 -23.067465 0.979143 15
-0.779280 -19.644007 0.973073 3
-0.709060 -21.827961 0.976963 4
-0.978767 -19.575890 0.972986 10
-1.008958 -20.250450 0.974200 32
-1.076971 -20.165733 0.974064 9
-1.015521 -23.037968 0.979194 27
-1.087935 -23.149178 0.979413 20
-1.168447 -23.168360 0.979471 44
-1.194695 -24.550186 0.981958 6
-1.276558 -24.428787 0.981768 3
-1.496683 -22.217991 0.977879 2
-1.642133 -22.152937 0.977821 2
-1.695338 -23.981941 0.981131 11
-1.786808 -22.442905 0.978406 9
-2.011410 -22.939962 0.979411 2
-2.286273 -21.025919 0.976126 1
-2.469513 -27.395779 0.987686 4
-2.557575 -27.206022 0.987401 12
-2.644120 -27.007977 0.987102 11
-2.798602 -26.155275 0.985677 3
-2.841373 -20.930197 0.976336 19
-2.982067 -22.565594 0.979377 64
-3.315388 -26.037401 0.985863 3
-3.170949 -21.835054 0.978223 4
-3.193337 -21.048447 0.976836 5
-3.259967 -20.992262 0.976794 3
-3.274128 -20.153591 0.975310 1
-3.347770 -19.330433 0.973910 21
-3.531315 -20.877008 0.976841 17
-3.467529 -19.220901 0.973831 4
-3.529375 -19.195738 0.973848 15
-3.644369 -19.816175 0.975068 14
-3.794244 -20.698338 0.976789 17
-4.939387 -29.959053 0.994428 5
-5.034082 -29.937212 0.994496 5
-4.985837 -26.787537 0.988888 3
-5.410137 -29.577059 0.994302 4
-5.606440 -29.569059 0.994529 9
-4.383535 -19.398045 0.975181 1
-4.491640 -19.210110 0.974992 19
-6.040237 -29.058352 0.994203 4
-4.756774 -19.689528 0.976182 1
-4.878475 -19.614487 0.976222 71
-4.938983 -19.576670 0.976242 43
-6.648549 -28.534019 0.994162 9
-7.106272 -30.009666 0.997382 5
-6.986799 -28.218567 0.994141 13
-5.492434 -19.700298 0.977291 4
-7.248441 -28.560301 0.995138 13
-6.147376 -22.376989 0.982884 2
-6.252298 -22.535778 0.983324 7
-6.340003 -22.583546 0.983550 20
-6.884293 -24.836269 0.988253 6
-6.960857 -24.787750 0.988302 3
-7.050438 -24.801590 0.988479 9
-7.133420 -24.783817 0.988594 16
-6.494565 -21.480103 0.981970 6
-6.583392 -21.542366 0.982231 4
-7.677736 -26.031609 0.991634 18
-7.748965 -25.961971 0.991649 30
-8.505297 -28.348343 0.996972 4
-7.063863 -21.668076 0.983327 20
-7.161996 -21.755074 0.983656 4
-7.286275 -21.942471 0.984201 38
-7.558137 -22.715294 0.985984 42
-7.145243 -20.801767 0.982081 42
-9.865929 -30.438490 1.003010 5
-7.316777 -20.362537 0.981726 28
-7.706351 -21.499825 0.984338 13
-9.742147 -28.435720 0.999571 9
-9.176394 -26.097309 0.994689 7
-7.733575 -20.539288 0.982885 50
-7.814222 -20.561329 0.983094 40
-8.139628 -21.140047 0.984708 2
-8.199195 -21.084097 0.984754 2
-9.753009 -25.211964 0.994593 7
-9.883065 -25.325533 0.995066 33
-13.097309 -34.458565 1.016346 8
-10.187840 -25.127422 0.995486 7
-10.399666 -25.456612 0.996484 3
-10.478346 -25.408253 0.996603 7
-10.018174 -23.840284 0.993171 3
-10.100495 -23.832417 0.993362 6
-10.662607 -25.148003 0.996675 7
-9.216249 -20.890158 0.986879 6
-9.326192 -20.986284 0.987295 13
-7.716928 -16.433922 0.976666 1
-7.707514 -16.245327 0.976372 1
-7.692603 -16.045765 0.976050 1
-7.709262 -15.932413 0.975932 1
-7.558390 -15.240230 0.974563 1
-7.784256 -15.365737 0.975340 1
-8.371196 -16.508766 0.978498 1
-7.860502 -15.127071 0.975222 1
-7.974446 -15.122645 0.975532 60
-8.016460 -15.091722 0.975609 27
-8.731088 -16.325205 0.979261 1
-8.481879 -15.613178 0.977618 1
-8.499155 -15.522249 0.977551 1
-8.651947 -15.725432 0.978256 1
-8.661706 -15.611156 0.978139 1
-8.581171 -15.296035 0.977502 1
-8.740635 -15.508712 0.978243 1
-8.750370 -15.398195 0.978134 1
-8.714890 -15.193803 0.977773 1
-8.684967 -15.004271 0.977449 1
-8.766757 -15.049303 0.977753 1
-8.793995 -14.987220 0.977760 1
-8.902623 -15.085509 0.978213 1
-8.954128 -15.060116 0.978342 1
-8.911285 -14.858053 0.977968 1
-9.139519 -15.191068 0.979076 1
-9.146090 -15.075665 0.978961 1
-9.283891 -15.229870 0.979577 1
-9.193240 -14.939124 0.978953 1
-9.380443 -15.179961 0.979828 1
-9.563829 -15.409037 0.980678 1
-9.765765 -15.668808 0.981624 1
-9.647734 -15.319271 0.980850 1
-9.719785 -15.339604 0.981108 1
-9.769722 -15.312570 0.981243 1
-9.867631 -15.373051 0.981633 1
-10.031843 -15.552052 0.982372 1
-10.131198 -15.611279 0.982767 1
-10.278786 -15.629281 0.983284 56
-10.341070 -15.626062 0.983492 48
-10.419944 -15.645390 0.983781 20
-16.298899 -25.451105 1.013939 9
-20.360348 -32.153221 1.034704 8
-20.378977 -31.937654 1.034556 8
-28.687828 -45.560352 1.076957 38
-16.681940 -25.330387 1.015159 4
-31.271431 -49.088696 1.089463 51
-19.445822 -29.445189 1.028869 7
-21.253557 -32.146370 1.037849 8
-15.828912 -23.211760 1.010128 4
-16.989096 -24.887533 1.015842 4
-30.921049 -46.716805 1.086014 45
-30.826572 -46.217625 1.085225 43
-31.004398 -46.165535 1.085830 43
-19.731857 -28.409044 1.028970 6
-19.797144 -28.290274 1.029109 6
-19.969147 -28.344957 1.029793 40
-19.668690 -27.694963 1.028130 19
-21.267185 -29.888870 1.035922 7
-20.573030 -28.432381 1.032130 21
-20.639286 -28.324434 1.032295 14
-20.285669 -27.606651 1.030389 6
-21.517467 -29.186558 1.036315 7
-20.718113 -27.832567 1.032219 6
-19.373394 -25.722183 1.025457 5
-19.954189 -26.350172 1.028168 5
-19.373991 -25.004259 1.024945 5
-20.446157 -25.750086 1.029696 5
-20.438660 -25.560827 1.029545 11
-20.526623 -25.499506 1.029860 28
-20.709246 -25.385433 1.030530 5
-21.272011 -25.581541 1.032943 18
-21.590763 -25.809116 1.034382 12
-21.637314 -25.690508 1.034511 6
-23.399652 -27.712793 1.042891 22
-24.937603 -29.427401 1.050181 8
-25.049240 -29.362677 1.050616 8
-23.058439 -26.385746 1.040810 20
-21.889637 -24.808430 1.035138 17
-21.810236 -24.546095 1.034685 34
-21.915518 -24.504257 1.035117 11
-24.709406 -27.610077 1.048383 8
-26.160818 -28.522495 1.055012 8
-24.091274 -25.990385 1.045100 7
-28.214832 -30.443758 1.064649 10
-28.076963 -30.084118 1.063928 10
-23.877842 -24.896194 1.043824 19
-27.460279 -28.611876 1.060774 9
-24.975197 -25.745007 1.048942 7
-28.121119 -28.546761 1.063729 9
-23.394789 -23.409056 1.041311 5
-24.790243 -24.703299 1.047889 6
-24.348812 -23.922390 1.045748 6
-23.625704 -22.866419 1.042285 11
-23.729086 -22.825754 1.042758 11
-23.754068 -22.698950 1.042862 17
-26.546249 -25.319788 1.056051 77
-15.223966 -14.020105 1.002515 3
-15.084641 -13.704735 1.001848 1
-15.157656 -13.686726 1.002191 1
-14.919857 -13.362568 1.001066 1
-14.960714 -13.319656 1.001260 1
-14.930792 -13.205758 1.001120 1
-15.044132 -13.231153 1.001659 1
-15.086677 -13.185546 1.001864 1
-14.950143 -12.891171 1.001231 1
-14.919602 -12.776324 1.001095 1
-14.958516 -12.733417 1.001288 1
-15.073741 -12.754909 1.001843 1
-15.379992 -12.862180 1.003316 1
-15.122806 -12.549057 1.002114 1
-15.160964 -12.505477 1.002309 1
-15.498546 -12.635078 1.003941 15
-15.858826 -12.612292 1.005732 1
-16.216145 -12.827077 1.007452 1
-16.442430 -12.930076 1.008552 1
-16.131102 -12.590702 1.007101 1
-16.636955 -12.919797 1.009532 1
-16.617207 -12.823448 1.009466 1
-17.066128 -13.094995 1.011634 1
-40.547440 -31.257019 1.123543 29
-37.342270 -28.544121 1.108368 20
-36.664173 -27.629354 1.105316 37
-36.931820 -27.641542 1.106685 19
-37.155193 -27.425854 1.107947 38
-37.938309 -27.828121 1.111787 21
-45.189003 -32.769901 1.146705 43
-42.080059 -30.258718 1.131957 31
-43.835674 -31.094219 1.140635 37
-39.478157 -27.566875 1.119989 46
-45.457153 -31.574734 1.148854 42
-44.298813 -30.551184 1.143429 37
-41.728722 -28.551090 1.131212 28
-41.677071 -27.904688 1.131408 55
-41.767353 -27.763794 1.131998 27
-41.311512 -27.258423 1.129952 26
-41.509567 -27.191727 1.131067 26
-41.874756 -27.233833 1.132996 27
-43.406532 -28.034304 1.140581 30
-43.059040 -27.400789 1.139246 59
-43.811928 -27.678789 1.143081 31
-45.632027 -28.625521 1.152113 37
-48.963348 -30.504166 1.168517 49
-48.729862 -30.130671 1.167593 48
-44.891163 -27.531961 1.149094 33
-54.125011 -32.988678 1.194351 63
-54.338791 -32.868916 1.195642 63
-54.014759 -32.423466 1.194308 63
-61.076218 -36.405975 1.229118 63
-54.184578 -32.030968 1.195647 63
-54.364864 -31.891281 1.196790 63
-55.135239 -32.096024 1.200835 63
-60.986713 -35.242481 1.229860 63
-61.046871 -35.002453 1.230459 63
-61.095654 -34.756474 1.231007 63
-61.320950 -34.611084 1.232430 63
-73.546013 -38.298111 1.296703 63
-29.302271 -13.365362 1.078887 5
-29.505814 -13.341938 1.080111 5
-29.420692 -13.189061 1.079866 5
-29.605808 -13.156053 1.081002 5
-29.607660 -13.042050 1.081205 5
-29.638435 -12.940856 1.081558 5
-29.742409 -12.871020 1.082288 5
-29.684141 -12.732031 1.082188 5
-29.473984 -12.530222 1.081307 5
-29.828037 -12.564532 1.083331 5
-20.672747 -7.864815 1.037888 1
-20.715326 -7.806411 1.038261 1
-20.452751 -7.638410 1.037031 1
-20.494589 -7.580644 1.037402 1
-20.365274 -7.466287 1.036863 1
-20.458342 -7.430283 1.037498 1
-20.409826 -7.337918 1.037402 1
-20.838184 -7.407843 1.039833 1
-20.515244 -7.226361 1.038277 1
-20.476042 -7.141564 1.038224 1
-20.497295 -7.077034 1.038495 1
-20.484756 -6.933924 1.038737 1
-20.557657 -6.889482 1.039279 1
-20.769951 -6.881037 1.040587 1
-20.790293 -6.815483 1.040860 1
-20.580826 -6.679924 1.039900 1
-20.614811 -6.622889 1.040240 1
-21.109695 -6.699172 1.043075 1
-36.564423 -11.154408 1.126763 8
-36.597984 -10.909011 1.127556 25
-36.605343 -10.780581 1.127913 8
-13.837982 -4.314386 1.004391 0
-13.301682 -4.122676 1.001579 0
-12.907563 -3.971530 0.999538 0
-12.600398 -3.850720 0.997956 1
-12.242743 -3.716945 0.996097 0
-11.966045 -3.605067 0.994681 0
-11.784680 -3.523424 0.993775 0
-11.653730 -3.454048 0.993148 0
-11.600057 -3.404906 0.992945 1
-11.530616 -3.352365 0.992654 0
-11.492435 -3.306179 0.992541 0
-11.461436 -3.263800 0.992462 0
-11.438049 -3.223485 0.992426 0
-11.430089 -3.186944 0.992475 0
-11.409913 -3.149481 0.992453 0
-11.397766 -3.112275 0.992479 0
-11.389741 -3.074397 0.992534 0
-11.365571 -3.034878 0.992494 0
-11.368632 -3.001346 0.992607 0
-11.375491 -2.968632 0.992742 0
-11.343044 -2.927891 0.992656 0
-11.369256 -2.899199 0.992901 0
-11.363662 -2.865798 0.992963 0
-11.362193 -2.831582 0.993053 0
-11.372388 -2.799637 0.993210 0
-11.406069 -2.772038 0.993501 0
-11.400322 -2.737038 0.993568 0
-11.386277 -2.702328 0.993584 0
-11.415730 -2.673705 0.993854 0
-11.402016 -2.635796 0.993883 0
-11.450709 -2.611918 0.994260 0
-11.389114 -2.567858 0.994009 0
-11.402357 -2.536349 0.994189 0
-11.395997 -2.500010 0.994262 0
-11.397405 -2.464955 0.994380 0
-11.425877 -2.437352 0.994645 0
-11.442396 -2.407832 0.994842 0
-11.447655 -2.371566 0.994991 0
-11.460238 -2.339685 0.995172 0
-11.484603 -2.309349 0.995422 0
-11.477149 -2.274659 0.995488 0
-11.528861 -2.249367 0.995896 0
-11.540822 -2.218758 0.996071 0
-11.548919 -2.185932 0.996231 0
-11.580932 -2.154218 0.996537 0
-11.556824 -2.119241 0.996502 0
-11.588428 -2.088977 0.996803 0
-11.647958 -2.059827 0.997277 0
-11.655331 -2.028243 0.997431 0
-11.670899 -1.994051 0.997646 0
-11.729977 -1.965705 0.998116 0
-11.745165 -1.932854 0.998326 0
-11.784145 -1.902064 0.998679 0
-11.807089 -1.869632 0.998937 0
-11.897690 -1.842683 0.999604 0
-11.836567 -1.804767 0.999353 0
-24.162933 -2.714229 1.073992 2
-23.187336 -2.565280 1.068360 2
-22.779633 -2.309662 1.066708 2
-22.628275 -2.228001 1.066050 2
-22.632166 -2.159589 1.066327 2
-22.635830 -2.091164 1.066603 2
-22.642963 -1.943472 1.067200 2
-22.646059 -1.871409 1.067491 2
-22.648767 -1.802940 1.067767 2
29.938295 4.368969 1.321991 5
29.984541 4.262014 1.321863 5
30.014635 4.152251 1.321547 5
30.039516 4.047309 1.321205 5
30.053062 3.934830 1.320700 5
30.268671 3.628465 1.321313 5
30.435219 3.536946 1.322628 5
25.166296 2.314333 1.257803 3
25.094370 2.209544 1.256442 3
25.100962 2.119220 1.256029 3
25.048162 2.017460 1.254904 3
5.305823 -0.276952 1.024650 0
5.389209 -0.395954 1.024967 0
5.463209 -0.417245 1.025681 0
5.497171 -0.440835 1.025941 0
5.562971 -0.462302 1.026565 0
5.453064 -0.495250 1.025187 0
5.163605 -0.542009 1.021752 0
5.081404 -0.572317 1.020695 0
4.979043 -0.602019 1.019419 0
4.788845 -0.638376 1.017137 0
4.722111 -0.663309 1.016281 2
4.583497 -0.693705 1.014601 1
4.464732 -0.722209 1.013152 1
4.373822 -0.748689 1.012022 2
4.282807 -0.774530 1.010895 2
4.195688 -0.799591 1.009816 3
4.120464 -0.823656 1.008874 4
3.913211 -0.850964 1.006452 10
3.877780 -0.872509 1.005965 29
3.826275 -0.894149 1.005299 46
3.778691 -0.915356 1.004680 65
3.751026 -0.935937 1.004286 14
3.667296 -0.956947 1.003268 15
3.607488 -0.977188 1.002519 13
3.535609 -0.997060 1.001639 10
3.471660 -1.016424 1.000850 11
3.419644 -1.035376 1.000196 12
3.363563 -1.053940 0.999499 11
3.311418 -1.072151 0.998848 11
3.255225 -1.089028 0.998157 14
3.206962 -1.106574 0.997553 16
3.174638 -1.124105 0.997127 17
3.114285 -1.139858 0.996397 13
3.081850 -1.156848 0.995974 9
3.049359 -1.173613 0.995551 7
3.008818 -1.189882 0.995041 8
2.988210 -1.206617 0.994752 5
2.975540 -1.223537 0.994551 12
2.958817 -1.240194 0.994306 17
2.962014 -1.257693 0.994281 26
2.925204 -1.273164 0.993819 31
2.936272 -1.291012 0.993881 43
2.915432 -1.305359 0.993602 54
2.906422 -1.322024 0.993447 54
2.889374 -1.338110 0.993205 54
2.880254 -1.354627 0.993050 52
2.875067 -1.371373 0.992939 51
2.873811 -1.388388 0.992871 59
2.868509 -1.405083 0.992761 56
2.871193 -1.421553 0.992740 56
2.849837 -1.436842 0.992457 56
2.856245 -1.455329 0.992472 59
2.858679 -1.472648 0.992448 56
2.857070 -1.489605 0.992381 59
2.851422 -1.506158 0.992271 56
2.841827 -1.521418 0.992121 59
2.848002 -1.539168 0.992140 56
2.854112 -1.556967 0.992158 61
2.848235 -1.573454 0.992049 58
2.846274 -1.590374 0.991982 58
2.844254 -1.607287 0.991915 62
2.858052 -1.626173 0.992018 65
2.859874 -1.643636 0.991994 67
2.861634 -1.661119 0.991969 66
2.863330 -1.678622 0.991945 66
2.864964 -1.696145 0.991920 69
2.866535 -1.713687 0.991895 67
2.876082 -1.731553 0.991958 67
2.873569 -1.748570 0.991891 67
2.890766 -1.768603 0.992035 69
2.880220 -1.784432 0.991883 78
2.881473 -1.802095 0.991858 78
2.894502 -1.821716 0.991959 78
2.895620 -1.839456 0.991934 79
2.900761 -1.857032 0.991954 79
2.901751 -1.874821 0.991928 79
2.906461 -1.894184 0.991941 78
2.911251 -1.912736 0.991958 81
2.916130 -1.930474 0.991977 81
2.924714 -1.949855 0.992034 79
2.933222 -1.969307 0.992091 68
2.941654 -1.988830 0.992148 45
2.938243 -2.006073 0.992081 35
2.942611 -2.024898 0.992096 35
2.950824 -2.044577 0.992153 35
2.947218 -2.061852 0.992085 54
2.967204 -2.083275 0.992268 76
2.959555 -2.099756 0.992159 81
2.967664 -2.118788 0.992218 80
2.979213 -2.140500 0.992311 81
2.983070 -2.159657 0.992326 81
2.986854 -2.178855 0.992340 81
2.994458 -2.199012 0.992395 81
3.006080 -2.219295 0.992493 81
3.017197 -2.241419 0.992585 81
3.016787 -2.259884 0.992558 81
3.028167 -2.280404 0.992656 101
3.031267 -2.300797 0.992665 101
3.042257 -2.322353 0.992759 101
3.045419 -2.341973 0.992772 101
3.052372 -2.362659 0.992825 81
3.055854 -2.380603 0.992844 81
3.073986 -2.405446 0.993014 81
3.080438 -2.427236 0.993063 101
3.095000 -2.449478 0.993199 75
3.109217 -2.472723 0.993331 69
3.127176 -2.497193 0.993503 68
3.148866 -2.522926 0.993714 64
3.166603 -2.547695 0.993885 60
3.199557 -2.577195 0.994215 53
3.224988 -2.603710 0.994468 43
3.246195 -2.630154 0.994676 14
122.884178 -44.123909 2.239612 45
122.766968 -44.571430 2.238296 45
122.704582 -45.063061 2.237566 45
122.896652 -45.621841 2.239506 45
114.024551 -46.121090 2.147388 45
113.561142 -46.405914 2.142669 45
113.613953 -46.893097 2.143340 45
113.906761 -47.454727 2.146520 45
107.755623 -47.229317 2.083406 45
107.740906 -47.674744 2.083488 45
107.338493 -47.954967 2.079547 45
107.174011 -48.336338 2.078102 45
101.698502 -46.393848 2.021295 45
106.658119 -49.016541 2.073314 45
106.194031 -49.263588 2.068793 45
105.781784 -49.508873 2.064811 45
63.492558 -31.049114 1.623933 39
105.821404 -50.867916 2.066320 45
63.674473 -31.675224 1.626307 39
63.472996 -31.859966 1.624460 39
88.990143 -46.231388 1.893703 45
95.584335 -50.338951 1.963818 45
95.212051 -50.577549 1.960447 45
95.287483 -51.044609 1.961792 45
88.284248 -47.842773 1.888768 45
95.520714 -52.028454 1.965404 45
88.170074 -52.226807 1.894418 45
88.212952 -52.668434 1.895603 45
88.551765 -53.282928 1.899944 45
87.155304 -52.892654 1.885898 45
86.928856 -53.177238 1.884268 45
86.945961 -53.605400 1.885241 45
87.978218 -54.640404 1.897030 45
86.823586 -54.373352 1.885575 45
86.858353 -54.796001 1.886748 45
73.840302 -50.614021 1.756129 55
74.185242 -51.181973 1.760653 55
73.686729 -52.017033 1.758121 55
29.497906 -22.403240 1.280872 8
29.383461 -22.485958 1.280041 8
28.916838 -22.317619 1.275374 7
28.879353 -22.603184 1.275784 23
28.754265 -22.683968 1.274873 23
28.733913 -22.830540 1.275087 46
28.647837 -22.930708 1.274590 15
29.531898 -23.729473 1.284704 16
28.326946 -23.176702 1.272420 7
28.246204 -23.280056 1.272001 7
27.446356 -23.162428 1.264603 7
27.489340 -23.364412 1.265586 90
27.442965 -23.491480 1.265566 15
25.747643 -22.343554 1.247267 13
25.685120 -22.457354 1.247076 39
25.635357 -22.573540 1.247008 13
25.613430 -22.711878 1.247256 6
25.682524 -22.914984 1.248500 59
25.968838 -23.300579 1.252203 96
25.918978 -23.420599 1.252167 6
27.794348 -25.096718 1.273699 8
25.696775 -23.561939 1.250738 6
25.644392 -23.664045 1.250635 6
25.821276 -23.971670 1.253172 7
24.602682 -23.122873 1.239989 6
24.162411 -23.224237 1.236646 6
23.642996 -23.093208 1.231856 11
28.718847 -27.649685 1.290300 9
28.826262 -27.922354 1.292176 9
23.435387 -23.374571 1.231161 5
28.452007 -27.972540 1.289284 9
25.309132 -25.361361 1.253869 7
23.168283 -23.770435 1.230457 12
23.147879 -23.912001 1.230831 12
23.291906 -24.205059 1.233118 12
22.564243 -23.696314 1.225297 46
22.350185 -23.656645 1.223426 16
23.050148 -24.635492 1.232867 6
22.903748 -24.662203 1.231812 6
22.822323 -24.741892 1.231488 6
26.105587 -28.067932 1.270805 8
25.448029 -27.620283 1.263820 8
26.522955 -28.855732 1.277296 8
26.325773 -28.856998 1.275764 8
22.205551 -24.974535 1.227618 6
22.158623 -25.095585 1.227762 6
24.862459 -28.166523 1.261561 8
25.586155 -29.093191 1.271059 8
25.291748 -28.978432 1.268321 8
25.324841 -29.208509 1.269569 8
49.197948 -54.579334 1.560755 40
49.159393 -54.914371 1.561945 41
49.124607 -55.255611 1.563201 41
49.362343 -59.036270 1.582265 43
48.987865 -59.019936 1.579500 43
48.771957 -59.182495 1.578727 43
48.699627 -59.510487 1.579777 43
48.855244 -60.105461 1.583733 43
48.409615 -60.002872 1.580094 43
47.442535 -59.281857 1.569805 42
48.151279 -60.536877 1.580879 43
48.420639 -61.282169 1.586408 44
47.522427 -60.630180 1.576969 43
47.525314 -61.058781 1.579112 43
43.497993 -60.252235 1.547905 41
43.163052 -60.221516 1.545550 41
42.996475 -60.453617 1.545683 41
43.029072 -60.930061 1.548410 41
42.247139 -60.276398 1.539895 40
42.153500 -60.605282 1.541046 40
40.909489 -59.351028 1.526383 39
40.748085 -59.558598 1.526472 39
40.590446 -59.772228 1.526629 39
40.301006 -59.803658 1.524978 39
40.482586 -60.470814 1.529748 40
40.149849 -60.442570 1.527521 39
39.875401 -60.494492 1.526106 39
40.950687 -62.476280 1.543664 41
40.072475 -61.669453 1.533812 40
40.019306 -62.046555 1.535586 40
39.848320 -62.231785 1.535584 40
39.517620 -62.205376 1.533441 40
32.712730 -61.707466 1.492113 37
32.461212 -61.758686 1.491107 37
32.606018 -62.513023 1.496478 38
31.954479 -61.851097 1.489046 37
31.525843 -61.553963 1.485015 37
31.990259 -62.901161 1.495708 38
31.410503 -62.352055 1.489369 37
31.517517 -63.063042 1.494328 38
31.224684 -63.011677 1.492545 38
8.203331 -23.306629 1.130541 20
8.021941 -24.619383 1.138498 6
4.633574 -16.793354 1.072412 12
4.569250 -16.794258 1.072163 13
4.523299 -16.839279 1.072285 19
7.692510 -24.998362 1.139757 18
6.476346 -22.180771 1.115989 4
6.403155 -22.222851 1.115998 42
6.340781 -22.281843 1.116166 7
6.215845 -22.180323 1.115009 2
6.284018 -22.805447 1.119542 10
6.202291 -22.819256 1.119343 52
6.147083 -22.903982 1.119731 35
6.085536 -22.960903 1.119907 7
6.029716 -23.058037 1.120384 26
5.950030 -23.078405 1.120251 21
5.907907 -23.203979 1.120980 44
5.564445 -22.476984 1.114765 64
5.250529 -21.794439 1.108962 36
5.170429 -21.809528 1.108803 63
5.140421 -21.959364 1.109754 22
5.321518 -22.725782 1.115710 20
5.226742 -22.706934 1.115276 70
5.139738 -22.697834 1.114939 55
5.023174 -22.597109 1.113868 23
4.844978 -22.289022 1.111147 47
4.964441 -22.935328 1.116080 37
4.917151 -23.025784 1.116580 32
4.616122 -22.327818 1.110738 35
4.538188 -22.339310 1.110593 23
4.412500 -22.206167 1.109284 20
4.372872 -22.343393 1.110151 78
4.646192 -23.822472 1.121486 36
4.148132 -22.405113 1.109975 35
4.063624 -22.391811 1.109653 47
4.764201 -25.165697 1.131445 27
4.046947 -22.899086 1.113260 30
3.877959 -22.580465 1.110530 30
3.821361 -22.670380 1.111037 14
4.411052 -25.199791 1.130794 20
4.328637 -25.229761 1.130810 86
3.182401 -21.411140 1.100361 26
3.928402 -24.692234 1.125960 8
3.823699 -24.623465 1.125220 8
3.569359 -23.936262 1.119637 73
3.455818 -23.815521 1.118505 21
3.741359 -25.383938 1.130592 2
3.671647 -25.470070 1.131075 84
3.355697 -24.479733 1.123155 11
3.297446 -24.603655 1.123945 8
3.156411 -24.356417 1.121845 15
2.788690 -23.057053 1.111562 57
2.699204 -23.014959 1.111079 66
2.712827 -23.461824 1.114400 15
2.704795 -23.818947 1.117022 20
3.119550 -26.228651 1.135583 3
3.027907 -26.251169 1.135587 6
3.411362 -28.678799 1.154231 3
3.319616 -28.696590 1.154208 3
2.200027 -23.290766 1.112235 2
2.101894 -23.195162 1.111367 7
2.419918 -25.389709 1.128188 23
1.915486 -23.046040 1.109968 16
1.840639 -23.071396 1.110045 16
1.777769 -23.167469 1.110670 7
2.263568 -27.113203 1.140815 3
2.222519 -27.411573 1.142991 23
2.140881 -27.493332 1.143497 30
0.944328 -20.283728 1.087992 26
0.867030 -20.226633 1.087470 12
1.859405 -27.507534 1.143262 16
1.096512 -22.804392 1.107082 20
1.918739 -29.296930 1.156769 3
1.817874 -29.294580 1.156645 3
0.306334 -19.048553 1.078011 54
0.246847 -19.084280 1.078225 15
0.268712 -19.794878 1.083602 30
0.205960 -19.826519 1.083788 43
0.008552 -19.212933 1.078997 36
0.078928 -20.472662 1.088571 78
-0.130837 -19.107151 1.078098 27
-0.067250 -20.383219 1.087796 22
-0.155552 -20.174847 1.086164 36
-0.214665 -20.264807 1.086812 19
-0.183711 -21.370520 1.095209 73
-0.256122 -21.360794 1.095100 63
-0.433326 -20.075151 1.085266 22
-0.495140 -20.140318 1.085736 14
-0.388386 -22.503014 1.103715 21
-0.462812 -22.516487 1.103793 29
-0.527301 -22.621231 1.104570 21
-0.595482 -22.738003 1.105441 36
-0.675204 -22.678894 1.104975 6
-0.686751 -23.725395 1.112934 7
-0.990414 -19.600054 1.081505 11
-1.056289 -19.583490 1.081373 39
-1.100965 -20.082258 1.085168 21
-1.104967 -23.205311 1.108954 60
-1.182852 -23.196308 1.108891 11
-1.430084 -20.106939 1.085381 1
-1.665232 -22.088730 1.100552 28
-1.776025 -25.682266 1.128000 2
-1.866436 -25.678921 1.128014 2
-1.959904 -21.839355 1.098774 2
-2.025279 -21.815380 1.098625 2
-2.494992 -27.286570 1.140655 3
-2.657113 -23.429712 1.111380 2
-2.837136 -26.529522 1.135165 21
-2.894006 -23.577631 1.112727 9
-2.857791 -20.828856 1.091752 31
-3.006028 -22.515841 1.104755 80
-3.076279 -21.090572 1.093982 39
-3.145484 -21.010620 1.093455 31
-3.203210 -20.923079 1.092859 7
-3.287992 -21.158260 1.094753 9
-3.360970 -21.193550 1.095115 13
-3.300917 -19.305241 1.080685 21
-3.355800 -19.180925 1.079816 31
-3.425417 -19.255836 1.080483 58
-3.494200 -19.274408 1.080724 36
-3.585897 -18.897264 1.078002 3
-3.651594 -18.927467 1.078334 12
-3.716759 -18.949463 1.078606 19
-3.774232 -18.923771 1.078506 3
-4.095149 -20.724337 1.092680 1
-4.459629 -23.408628 1.113620 16
-4.815550 -25.171715 1.127589 8
-4.722993 -23.656130 1.115977 4
-4.968142 -24.988197 1.126497 27
-4.341150 -19.398937 1.083135 24
-4.413077 -19.450142 1.083666 56
-5.152319 -24.460276 1.122892 47
-4.511152 -19.235170 1.082252 24
-4.573037 -19.214413 1.082228 57
-4.631364 -19.169693 1.082019 40
-4.847631 -19.740084 1.086781 4
-4.915417 -19.745838 1.086979 35
-4.946790 -19.522243 1.085379 27
-6.616200 -28.786037 1.158632 3
-6.659509 -28.454281 1.156262 3
-7.383394 -32.059669 1.184961 4
-5.788380 -21.186630 1.099906 1
-6.194838 -22.521967 1.110916 2
-6.971811 -26.062452 1.139298 9
-7.056420 -26.008778 1.139139 60
-6.202265 -21.084030 1.100302 3
-6.413154 -21.730373 1.105687 21
-7.924602 -28.331938 1.158812 7
-7.241025 -24.780083 1.130618 5
-8.212683 -28.747641 1.162742 3
-7.777571 -25.987452 1.141139 46
-6.856878 -21.680134 1.106680 4
-7.021723 -21.731243 1.107585 21
-7.072952 -21.628139 1.107002 12
-7.171034 -21.715082 1.107961 19
-9.894844 -32.153610 1.193069 10
-7.308168 -21.680332 1.108173 4
-7.662485 -22.728962 1.117001 100
-7.709252 -22.584330 1.116116 35
-7.561489 -21.733711 1.109441 19
-7.914289 -22.744635 1.118001 35
-8.031585 -22.874231 1.119358 7
-7.376141 -20.237547 1.097982 3
-11.192661 -33.486614 1.207303 5
-9.882180 -28.473999 1.166438 7
-7.632669 -20.134737 1.098203 1
-11.119884 -31.575001 1.193333 60
-8.336551 -21.982534 1.114110 6
-8.366365 -21.818773 1.113060 29
-8.268420 -21.246256 1.108602 2
-9.520805 -24.991083 1.140184 6
-11.447122 -30.766914 1.188879 9
-13.220436 -35.927856 1.232604 7
-10.178054 -25.880596 1.149158 3
-9.870678 -24.667801 1.139337 5
-8.812082 -21.251249 1.110869 2
-8.528014 -20.186121 1.102190 20
-10.005301 -23.996580 1.135210 13
-9.370350 -21.938858 1.118086 18
-9.526885 -22.159231 1.120310 4
-11.384708 -26.514698 1.158839 23
-9.128954 -19.778368 1.102047 16
-9.152801 -19.645084 1.101244 5
-7.967420 -16.247971 1.072398 1
-8.095368 -16.408216 1.074104 1
-7.978155 -15.959783 1.070488 1
-7.880371 -15.567986 1.067353 1
-7.928579 -15.548406 1.067456 1
-8.026504 -15.642263 1.068575 1
-8.146673 -15.787312 1.070151 1
-8.170282 -15.699393 1.069678 1
-8.623121 -16.624022 1.078170 1
-8.619702 -16.473288 1.077144 1
-8.155972 -15.253272 1.066618 1
-8.240664 -15.177009 1.066550 48
-8.431507 -15.205597 1.067746 1
-9.141730 -16.627008 1.080898 1
-9.221318 -16.656454 1.081520 1
-9.264026 -16.605774 1.081420 1
-8.845131 -15.574096 1.072397 1
-8.813572 -15.376662 1.070938 1
-8.863643 -15.352791 1.071060 1
-8.913629 -15.328745 1.071182 1
-9.645337 -16.703136 1.084162 1
-9.735337 -16.748138 1.084960 1
-9.781301 -16.703125 1.084932 1
-9.854738 -16.720161 1.085460 1
-9.928452 -16.723402 1.085905 1
-10.003182 -16.734838 1.086411 1
-10.063470 -16.717480 1.086652 1
-10.094292 -16.643066 1.086361 1
-10.091350 -16.504822 1.085471 1
-9.615095 -15.476396 1.076172 1
-9.681749 -15.486391 1.076633 1
-9.798937 -15.578015 1.077909 1
-9.899133 -15.642202 1.078915 1
-9.939925 -15.601876 1.078912 1
-10.000400 -15.591602 1.079218 1
-10.060900 -15.581084 1.079524 1
-10.156513 -15.633188 1.080436 1
-10.304305 -15.650977 1.081467 49
-10.375189 -15.656617 1.081947 42
-10.468198 -15.700052 1.082799 33
-10.544971 -15.720304 1.083410 6
-16.304651 -25.228569 1.177660 3
-16.468891 -25.312513 1.179225 10
-16.652416 -25.426466 1.181099 3
-31.355387 -49.152493 1.418483 23
-16.379345 -24.412983 1.173290 3
-21.264549 -32.128757 1.251182 7
-15.843616 -23.201584 1.162599 3
-19.732876 -29.213747 1.223852 5
-15.888457 -22.922920 1.161273 9
-19.745207 -28.599098 1.220365 5
-19.943203 -28.264973 1.219808 26
-19.567112 -27.492290 1.212795 4
-21.000034 -29.435808 1.233822 6
-18.991632 -26.241137 1.201684 8
-19.095287 -26.204838 1.202210 4
-20.135836 -27.548044 1.217106 5
-21.753487 -29.688158 1.240560 6
-21.880802 -29.658461 1.241305 6
-20.662434 -27.713995 1.221791 5
-21.925884 -29.299898 1.239648 6
-19.356899 -25.301146 1.199083 4
-22.185413 -29.061035 1.240231 6
-22.297255 -29.009832 1.240774 18
-22.350000 -28.877445 1.240448 37
-25.276110 -32.639095 1.282339 8
-25.250534 -32.374519 1.280733 8
-20.096710 -25.255939 1.204308 4
-20.510580 -25.630556 1.209400 13
-22.804070 -28.479788 1.241724 6
-23.582619 -28.886040 1.249767 6
-21.581156 -26.120413 1.220101 15
-19.983604 -23.743668 1.195559 3
-23.419592 -27.700411 1.242427 18
-23.492859 -27.610569 1.242547 18
-21.274969 -24.697107 1.210474 21
-22.957729 -26.581432 1.233174 5
-23.041080 -26.492111 1.233389 16
-24.953783 -28.610899 1.259086 6
-22.009163 -24.732733 1.216490 4
-20.935303 -23.309723 1.200919 3
-24.915319 -27.616264 1.253932 19
-25.018499 -27.548197 1.254446 6
-26.969370 -29.604485 1.280181 7
-28.382980 -30.790102 1.297395 8
-26.699642 -28.695431 1.273677 7
-28.365793 -30.365852 1.295271 8
-27.952456 -29.693707 1.288719 8
-25.651649 -26.969019 1.256963 6
-27.481781 -28.791382 1.280640 15
-27.874439 -29.022478 1.284993 16
-24.059326 -24.727036 1.233372 5
-24.347059 -24.868793 1.236446 5
-24.399969 -24.758642 1.236403 5
-25.239138 -25.467827 1.246708 23
-28.275480 -28.469580 1.285932 23
-28.421865 -28.439901 1.287060 16
-25.564842 -25.304737 1.248790 5
-24.436241 -23.980747 1.233305 5
-24.492182 -23.869854 1.233314 5
-30.654022 -29.927156 1.312804 9
-23.919277 -22.979078 1.224530 4
-23.853050 -22.768019 1.223060 9
-23.914602 -22.677546 1.223223 4
-26.684938 -25.245653 1.258322 18
-24.426184 -22.875774 1.228562 14
-24.508081 -22.802923 1.228991 33
-24.462833 -22.457476 1.227188 4
-15.743737 -14.045016 1.115348 4
-15.580085 -13.711149 1.112551 1
-15.574458 -13.617415 1.112133 1
-15.559519 -13.515743 1.111602 1
-15.555840 -13.425131 1.111219 1
-15.572414 -13.353527 1.111096 1
-15.555990 -13.252482 1.110561 1
-15.618174 -13.231197 1.111052 1
-15.615905 -13.143689 1.110703 1
-15.727058 -13.157023 1.111779 1
-15.528878 -12.897917 1.108990 1
-15.579300 -12.858505 1.109315 1
-15.677996 -12.860773 1.110242 1
-15.731375 -12.823385 1.110606 1
-15.778575 -12.780576 1.110896 1
-15.927665 -12.740757 1.112158 9
-16.043007 -12.671332 1.113009 1
-16.203987 -12.721429 1.114709 1
-16.644129 -12.998462 1.119834 1
-16.732422 -12.985095 1.120632 1
-36.433449 -28.786589 1.361526 10
-36.663017 -28.762671 1.363651 10
-37.723885 -29.214979 1.375336 22
-37.225304 -28.424564 1.368004 10
-37.270885 -27.668272 1.366128 10
-38.410542 -28.142006 1.378745 22
-38.514633 -28.021877 1.379422 11
-41.254002 -29.846731 1.411807 12
-45.391304 -32.652473 1.460870 19
-38.918404 -27.336388 1.381500 22
-39.027664 -27.210136 1.382251 11
-39.418705 -27.301003 1.386421 33
-48.297153 -33.296040 1.491704 24
-45.795963 -31.337021 1.461333 18
-41.589493 -28.221247 1.410731 24
-45.144047 -30.442354 1.452430 16
-45.354282 -30.353510 1.454340 17
-45.411678 -30.160975 1.454444 16
-41.892178 -27.617025 1.412291 12
-41.524445 -27.173021 1.407455 11
-41.518532 -26.971226 1.406911 11
-43.764961 -28.227867 1.432938 12
-43.154285 -27.625889 1.425256 12
-43.905418 -27.914869 1.433662 12
-47.602131 -30.063177 1.476705 19
-46.360901 -29.055489 1.461614 17
-46.366993 -28.843094 1.461213 17
-46.327995 -28.603527 1.460292 16
-48.830173 -29.934265 1.489181 21
-49.142273 -29.900166 1.492368 22
-54.386787 -32.862095 1.553304 31
-54.860680 -32.897987 1.558344 31
-60.895878 -36.257797 1.628388 36
-55.539375 -32.799713 1.565287 31
-54.271324 -31.800795 1.550007 30
-61.054398 -35.518070 1.628646 36
-61.344021 -35.409988 1.631513 36
-61.487965 -35.216583 1.632691 36
-61.624336 -35.018631 1.633790 36
-61.690414 -34.780762 1.634081 36
-73.430359 -38.192322 1.765622 45
-73.541893 -37.933586 1.766486 45
-114.525742 -56.639725 2.236940 45
-114.949066 -56.359230 2.241267 45
-193.136032 -78.642235 3.130150 45
-21.025021 -7.464285 1.157940 1
-21.278757 -7.475305 1.160869 1
-21.289778 -7.404200 1.161021 1
-21.311943 -7.336827 1.161303 1
-21.303425 -7.259536 1.161236 1
-21.318539 -7.186311 1.161445 1
-21.351387 -7.122448 1.161858 1
-21.361111 -7.051293 1.162009 1
-21.366751 -6.978969 1.162116 1
-21.355787 -6.905406 1.162033 1
-101.225510 -30.812960 2.078477 45
-36.965668 -11.385703 1.341274 7
-36.894146 -11.232131 1.340550 7
-36.795082 -11.071414 1.339513 7
-36.803028 -10.942219 1.339710 7
-36.818192 -10.815258 1.339995 7
-12.456036 -3.922205 1.060155 0
-12.273212 -3.832875 1.058089 0
-12.387225 -3.825154 1.059437 0
-12.412412 -3.792996 1.059766 0
-12.406552 -3.752569 1.059739 0
-12.539933 -3.748301 1.061316 0
-12.227716 -3.629424 1.057765 0
-12.159180 -3.574201 1.057019 0
-12.106817 -3.486149 1.056507 0
-12.022026 -3.428424 1.055577 0
-11.952524 -3.375006 1.054824 0
-11.874983 -3.320288 1.053978 0
-11.804978 -3.267928 1.053220 0
-11.762042 -3.222246 1.052776 0
-11.746240 -3.182957 1.052646 0
-11.714651 -3.140394 1.052335 0
-11.702438 -3.102274 1.052248 0
-11.693992 -3.065092 1.052207 0
-11.677571 -3.026369 1.052074 0
-11.664918 -2.988584 1.051987 0
-11.663884 -2.953266 1.052035 0
-11.658798 -2.917209 1.052037 0
-11.657505 -2.881967 1.052085 0
-11.643976 -2.846211 1.051988 0
-11.654535 -2.811581 1.052180 0
-11.648923 -2.775722 1.052181 0
-11.654991 -2.742030 1.052319 0
-11.653062 -2.706940 1.052366 0
-11.666775 -2.674584 1.052596 0
-11.747440 -2.653390 1.053608 0
-11.717557 -2.613530 1.053334 0
-11.734634 -2.583200 1.053604 0
-11.759787 -2.552312 1.053974 0
-11.749260 -2.515808 1.053929 0
-11.738598 -2.479397 1.053883 0
-11.711722 -2.442457 1.053645 0
-11.712910 -2.406287 1.053744 0
-11.741457 -2.375683 1.054161 0
-11.738201 -2.340595 1.054207 0
-11.766317 -2.311441 1.054618 0
-11.770763 -2.277343 1.054758 0
-11.794935 -2.245712 1.055130 0
-11.819213 -2.212214 1.055510 0
-11.847147 -2.180741 1.055930 0
-11.858888 -2.148990 1.056157 0
-11.882834 -2.115051 1.056539 0
-11.902503 -2.082253 1.056867 0
-11.933818 -2.052303 1.057330 0
-12.072669 -2.031205 1.059070 0
-12.123909 -2.000667 1.059778 1
-12.199118 -1.970233 1.060778 1
-12.290013 -1.942483 1.061961 1
-12.305124 -1.907588 1.062249 0
-106.656105 -9.666189 2.182647 45
-106.570000 -9.291674 2.182755 45
-87.373291 -7.488375 1.955500 50
-87.595879 -7.189801 1.959144 50
-23.835176 -2.517297 1.200225 2
-23.501007 -2.418994 1.196486 2
-23.477812 -2.342213 1.196456 2
-23.366495 -2.260510 1.195376 2
-23.330753 -2.183741 1.195199 2
-23.322699 -2.108664 1.195357 2
-23.314203 -2.037378 1.195499 2
-23.313625 -1.962794 1.195751 2
-23.324776 -1.888716 1.196148 2
-23.335806 -1.810847 1.196559 2
-23.354424 -1.736904 1.197052 2
-23.384552 -1.670665 1.197660 2
-23.442764 -1.593780 1.198651 2
-23.524693 -1.517032 1.199933 2
-23.602125 -1.450923 1.201124 2
-23.607492 -1.375581 1.201476 2
-23.424675 -1.294030 1.199565 2
-143.037247 -1.322275 2.654599 45
5.404568 -0.265779 1.069067 0
5.403177 -0.292021 1.068893 0
5.498050 -0.361891 1.070099 0
5.500303 -0.388068 1.069992 0
5.562262 -0.409424 1.070921 0
5.550292 -0.462091 1.070437 0
5.435984 -0.548773 1.068055 0
4.773608 -0.663106 1.056284 0
4.706906 -0.690093 1.055024 0
4.493225 -0.744894 1.051146 0
4.410266 -0.771942 1.049615 1
4.315129 -0.796593 1.047890 1
4.231926 -0.821315 1.046369 1
4.152627 -0.845339 1.044917 1
4.045224 -0.868449 1.042996 1
3.965747 -0.891276 1.041550 2
3.890185 -0.913475 1.040174 3
3.822540 -0.935028 1.038936 3
3.742819 -0.956241 1.037496 3
3.695016 -0.976652 1.036602 4
3.619145 -0.996845 1.035234 3
3.559202 -1.016497 1.034139 4
3.487192 -1.035696 1.032843 4
3.443118 -1.053620 1.032027 4
3.374991 -1.071024 1.030806 5
3.322793 -1.089111 1.029853 5
3.274534 -1.106899 1.028969 6
3.234213 -1.124512 1.028221 6
3.181840 -1.141562 1.027273 7
3.129411 -1.158248 1.026326 7
3.084925 -1.174813 1.025515 8
3.068396 -1.191135 1.025179 15
3.007819 -1.206591 1.024101 9
2.963181 -1.222279 1.023293 15
2.946426 -1.239758 1.022953 28
2.925656 -1.256066 1.022549 110
2.912820 -1.272642 1.022280 128
2.899976 -1.288275 1.022014 134
2.891026 -1.304912 1.021813 136
2.882019 -1.321490 1.021611 146
2.872956 -1.338009 1.021410 156
2.863837 -1.354468 1.021209 160
2.870619 -1.372020 1.021275 160
2.865374 -1.388717 1.021141 164
2.856085 -1.405065 1.020940 162
2.858768 -1.421496 1.020943 164
2.853280 -1.438957 1.020806 164
2.855773 -1.456253 1.020805 165
2.854222 -1.473200 1.020738 165
2.848712 -1.488909 1.020608 167
2.855006 -1.506629 1.020673 165
2.849301 -1.523160 1.020540 165
2.855469 -1.540937 1.020605 167
2.857598 -1.558323 1.020604 167
2.859664 -1.575730 1.020602 169
2.861667 -1.593158 1.020601 170
2.863711 -1.609758 1.020603 170
2.865593 -1.627227 1.020602 170
2.871379 -1.645225 1.020666 170
2.865091 -1.662552 1.020530 170
2.870861 -1.679755 1.020598 170
2.872491 -1.697304 1.020596 170
2.881976 -1.716001 1.020726 170
2.883475 -1.733616 1.020724 170
2.880956 -1.750658 1.020657 172
2.890237 -1.769508 1.020786 172
2.891543 -1.787193 1.020784 170
2.896871 -1.804675 1.020851 172
2.902137 -1.822201 1.020917 172
2.899165 -1.840163 1.020847 173
2.908247 -1.858425 1.020978 172
2.917111 -1.877614 1.021106 173
2.925749 -1.897735 1.021230 160
2.930526 -1.916354 1.021292 160
2.931301 -1.934288 1.021290 162
2.932173 -1.951378 1.021291 174
2.936748 -1.970100 1.021353 153
2.973139 -2.013156 1.021929 26
2.953966 -2.027322 1.021603 15
2.966201 -2.066870 1.021786 141
2.966614 -2.084170 1.021787 126
2.974782 -2.103187 1.021915 160
2.974685 -2.122278 1.021909 160
2.978612 -2.141393 1.021969 160
2.990462 -2.161463 1.022162 160
2.994037 -2.181559 1.022219 160
3.009415 -2.203582 1.022472 159
3.009143 -2.221994 1.022468 159
3.016788 -2.241436 1.022595 160
3.031909 -2.263739 1.022847 159
3.043276 -2.284308 1.023037 160
3.054113 -2.306731 1.023221 147
3.061208 -2.327366 1.023344 144
3.076192 -2.349207 1.023597 147
3.083119 -2.369998 1.023720 147
3.089962 -2.390853 1.023842 145
3.092864 -2.410719 1.023900 145
3.099297 -2.432579 1.024018 144
3.106138 -2.452722 1.024143 145
3.112648 -2.473819 1.024265 145
3.126759 -2.497193 1.024513 140
3.148709 -2.522026 1.024890 137
3.166449 -2.546789 1.025200 129
3.184079 -2.571695 1.025510 105
3.208977 -2.599972 1.025942 36
3.237840 -2.628713 1.026440 29
122.420410 -43.991077 2.999949 63
122.345230 -44.427155 2.999494 63
122.441772 -44.973179 3.001998 63
114.216415 -46.198437 2.874193 63
113.827232 -46.513172 2.868805 63
113.473877 -46.863598 2.864093 63
107.693199 -46.755554 2.773379 63
107.819725 -47.281498 2.776786 63
107.411018 -47.559662 2.771206 63
107.196472 -47.919193 2.768898 63
101.543221 -45.898422 2.675395 63
107.053307 -48.762169 2.769150 63
106.894409 -49.123531 2.767782 63
105.951469 -49.158024 2.753338 63
105.687981 -49.491863 2.750320 63
106.529976 -50.761978 2.767330 63
106.129181 -51.058640 2.762160 63
95.572853 -50.335529 2.599206 63
95.357376 -50.654018 2.597203 63
88.535820 -47.575165 2.482659 63
95.406197 -51.538712 2.601444 63
88.357521 -52.335503 2.500432 63
88.309769 -52.726109 2.501542 63
87.949951 -52.958759 2.497376 63
87.311859 -53.006832 2.488302 63
86.990646 -53.215702 2.484630 63
88.101402 -54.269535 2.505857 63
87.547340 -54.364697 2.498296 63
86.359375 -54.075748 2.479693 63
74.921143 -52.073593 2.306209 63
29.719055 -22.392826 1.505190 8
29.707582 -22.538317 1.505869 8
29.315334 -22.432146 1.499799 7
29.384417 -22.965168 1.503906 8
29.159931 -22.978676 1.500897 8
29.507555 -23.546156 1.509118 8
28.494059 -22.982809 1.491805 7
28.423958 -23.256519 1.492558 31
28.395157 -23.390476 1.493013 23
28.291895 -23.469711 1.492120 15
27.540308 -23.072859 1.479447 7
27.364063 -23.101320 1.477261 7
27.111464 -23.070862 1.473676 21
28.640097 -24.397503 1.502804 24
28.523432 -24.477505 1.501776 16
25.898529 -22.615555 1.454497 19
25.763056 -22.666080 1.453039 19
26.020765 -23.024702 1.458864 27
27.510057 -24.352856 1.487519 7
25.914154 -23.249800 1.458994 20
28.259718 -25.464867 1.505001 8
28.254877 -25.635971 1.506132 8
24.382210 -22.638575 1.434745 18
24.270643 -22.855461 1.434840 6
24.148268 -22.908518 1.433644 18
24.148159 -23.064106 1.434765 6
24.037519 -23.126770 1.433803 6
26.145845 -25.086376 1.475026 7
23.405409 -23.356781 1.427486 12
23.447069 -23.551380 1.429476 42
23.416037 -23.682657 1.430082 12
23.396299 -23.824680 1.430918 12
23.699234 -24.259243 1.438021 12
23.402092 -24.152224 1.433510 31
22.764072 -23.729841 1.422345 11
22.658213 -23.791721 1.421524 41
27.121721 -28.283337 1.511596 8
21.921341 -23.730236 1.412034 11
25.892027 -28.060801 1.494913 25
25.786028 -28.146818 1.494344 25
25.713993 -28.266075 1.494461 8
25.672729 -28.416111 1.495207 8
25.669754 -28.973392 1.499813 8
25.617582 -29.125969 1.500484 8
49.239578 -58.534084 2.026768 58
50.026672 -59.808895 2.046998 61
49.884266 -60.041172 2.047537 61
48.897121 -59.347958 2.030382 59
48.658901 -59.465034 2.028850 59
48.178291 -59.341061 2.022478 58
47.662418 -59.130112 2.014939 57
48.450417 -60.492092 2.036076 60
47.750385 -60.062641 2.024553 58
48.537243 -61.423080 2.045696 61
47.692268 -60.836147 2.031182 59
47.274734 -60.735298 2.025802 59
46.731415 -60.498547 2.017822 58
43.319031 -59.596321 1.973805 53
43.399357 -60.125267 1.979807 54
43.137001 -60.210228 1.977998 54
43.037075 -60.487114 1.979731 54
42.603298 -60.343456 1.973973 53
42.331371 -60.412247 1.971954 53
42.115788 -60.577541 1.971473 53
41.036430 -59.524986 1.950294 51
40.742332 -59.552109 1.947686 50
40.671574 -59.885532 1.950364 51
40.321014 -59.832840 1.946431 50
40.426994 -60.416325 1.953388 51
40.113003 -60.413971 1.950350 51
40.874577 -61.937592 1.973225 54
40.489056 -61.817162 1.968326 53
40.199081 -61.853367 1.965959 53
39.913914 -61.894882 1.963708 53
39.836582 -62.238945 1.966556 53
32.644474 -61.589397 1.896626 46
32.480221 -61.793446 1.897569 46
31.932465 -61.317394 1.887829 45
32.036533 -61.974350 1.896028 46
32.107357 -62.630569 1.903967 47
31.287680 -61.648380 1.886419 45
31.074980 -61.737354 1.885754 45
