# .PCD v.7 - Point Cloud Data file format
VERSION .7
FIELDS x y z intensity
SIZE 4 4 4 1
TYPE F F F U
COUNT 1 1 1 1
WIDTH 1436
HEIGHT 1
VIEWPOINT 0 0 0 1 0 0 0
POINTS 1436
DATA ascii
-101.222603 57.880356 10.892179 63
-100.326141 57.823822 10.824875 63
-99.479507 57.789806 10.762373 63
-97.665237 57.181599 10.602197 63
-96.442856 56.908501 10.501147 63
-95.955925 57.064461 10.474167 63
-96.070129 57.579124 10.508146 63
-95.557915 57.694759 10.477550 63
-95.121902 58.323895 10.478598 63
-91.876534 56.760487 10.169210 63
-23.636440 14.645308 3.190942 42
-90.105972 56.949440 10.054358 63
-89.819214 57.198830 10.047266 63
-94.791504 58.266045 14.945944 63
-94.179573 58.334190 14.886281 63
-92.106071 57.504353 14.606869 63
-89.797340 56.893974 14.319220 63
-89.447456 57.080063 14.296431 63
-89.114120 57.296883 14.277815 63
-88.364868 57.263065 14.197161 63
-87.646782 57.222622 14.119415 63
-86.946480 57.167400 14.042544 63
-86.250977 57.152977 13.969428 63
-85.553375 57.110779 13.894130 63
-84.932640 57.094376 13.828888 63
-84.529366 57.264091 13.800538 63
-84.482513 57.655319 13.826115 63
-84.463493 58.046051 13.854647 63
-84.439240 58.456207 13.884306 63
-84.409882 58.864613 13.913458 63
-84.408302 59.272869 13.945567 63
-84.381157 59.708225 13.977380 63
-84.352592 60.122841 14.007558 63
-84.328568 60.542625 14.038759 63
-84.286583 60.951283 14.067410 63
-77.950943 56.744118 13.091606 50
-77.388618 56.737907 13.034806 51
-76.789085 56.700027 12.971851 51
-76.251045 56.703865 12.918576 52
-75.761391 56.740501 12.872941 52
-75.228455 56.720776 12.818503 52
-74.737419 56.729488 12.770688 53
-73.392204 56.116074 12.587052 54
-71.435593 56.568939 12.433842 55
-70.762016 56.425358 12.356279 56
-70.694069 56.767715 12.378992 55
-70.689682 57.143467 12.410830 55
-70.244797 57.178898 12.371091 55
-16.557724 13.173935 3.414342 25
-16.593103 13.286087 3.427493 25
-16.620531 13.401164 3.440170 25
-16.571012 13.447124 3.439512 23
-16.683079 13.627289 3.465989 24
-16.698830 13.730499 3.476604 27
-16.193415 13.380749 3.398044 8
-16.137264 13.414815 3.395817 14
-16.092945 13.459144 3.395639 20
-63.453384 56.032253 11.628484 61
-60.829655 54.055359 11.206878 63
-60.036053 54.061531 11.134297 62
-59.613720 54.046379 11.094171 61
-59.186382 54.023537 11.052999 2
-58.765717 54.003773 11.012836 2
-58.357452 53.992588 10.974708 100
-57.938438 53.968300 10.934510 100
-57.538158 53.940239 10.895766 100
-57.135159 53.925236 10.858101 100
-56.809975 53.982487 10.834286 58
-55.878815 53.466621 10.702656 56
-55.389061 53.354671 10.648490 56
-55.056728 53.375576 10.620955 55
-54.687542 53.376106 10.588334 55
-54.386311 53.442036 10.568032 100
-54.135563 53.557182 10.556971 100
-53.931992 53.719246 10.554639 100
-53.542019 53.690594 10.517853 54
-13.655750 13.192633 3.151603 4
-52.936844 54.549454 10.548533 54
-52.562481 54.510700 10.512658 100
-13.482664 13.523467 3.169218 5
-50.102955 53.724792 10.226797 50
-47.809551 53.358486 9.999668 47
-47.621014 53.512257 9.999724 47
-47.018944 53.575665 9.957097 47
-46.712955 53.570774 9.931821 46
-46.400871 53.575222 9.907101 46
-46.025562 53.502171 9.869481 45
-46.400356 54.326134 9.983947 47
-46.112518 54.358715 9.964363 47
-33.181328 40.367027 7.497228 31
-43.109570 53.244068 9.613230 42
-42.790504 53.232059 9.587391 42
-42.495800 53.230141 9.564590 41
-42.259705 53.302223 9.554169 41
-42.382366 54.226803 9.661352 43
-42.162617 54.323269 9.655050 42
-39.953209 53.229294 9.373792 39
-39.698566 53.281387 9.360746 39
-39.397869 53.267818 9.337355 38
-39.083931 53.213940 9.308743 38
-38.738770 53.093754 9.270773 38
-38.183167 52.689102 9.186826 36
-36.647449 52.774155 9.087661 35
-36.450878 52.871830 9.084809 35
-35.701866 52.917618 9.038445 34
-35.468479 53.355770 9.071491 70
-35.426289 53.674206 9.104277 71
-35.167931 53.673294 9.086891 71
-34.903679 53.661137 9.067944 100
-34.648281 53.661255 9.051058 70
-34.378731 53.636597 9.030540 69
-34.129292 53.622005 9.012565 69
-33.869057 53.608524 8.994099 68
-33.623619 53.617657 8.979249 68
-32.492168 52.140820 8.738580 62
-32.179829 52.021866 8.705048 31
-31.963123 52.062096 8.695850 62
-31.992147 52.522934 8.750366 62
-31.605413 52.270367 8.697123 31
-31.320520 52.168880 8.667666 31
-31.049282 52.109066 8.643932 31
-30.813913 52.110153 8.629517 31
-30.584707 52.120609 8.616648 31
-30.214542 52.276108 8.612108 31
-30.038939 52.381413 8.613732 31
-29.866724 52.493092 8.616388 31
-29.418718 52.544495 8.595788 62
-29.236526 52.636551 8.595833 62
-28.989443 52.582703 8.575102 31
-28.748640 52.560619 8.558539 62
-28.513769 52.548061 8.543525 62
-28.290127 52.533428 8.528994 62
-28.057869 52.522442 8.514482 62
-27.815228 52.511433 8.499472 31
-27.596321 52.501045 8.485956 62
-27.368994 52.471989 8.469840 62
-27.136354 52.475727 8.457399 62
-26.904032 52.478455 8.444950 62
-26.672441 52.457977 8.429874 62
-26.448116 52.450840 8.416867 62
-26.228056 52.427765 8.402272 31
-25.996077 52.400810 8.386655 62
-25.771252 52.387260 8.373107 62
-25.543507 52.365562 8.358513 62
-25.327698 52.368172 8.347547 62
-25.209925 52.586864 8.367721 31
-25.181444 53.008175 8.416966 31
-25.169094 53.447624 8.469306 31
-25.157572 53.920670 8.525822 31
-25.040178 54.131931 8.545448 62
-24.812130 54.139683 8.534996 62
-24.593620 54.142525 8.524515 62
-24.376913 54.148148 8.514546 31
-24.157387 54.145584 8.503532 62
-23.932091 54.127480 8.490434 62
-23.711702 54.119461 8.478887 62
-23.488657 54.103203 8.466293 62
-23.274855 54.108124 8.456810 62
-23.060308 54.082714 8.443665 62
-22.844154 54.078564 8.433129 62
-22.622530 54.058773 8.420508 62
-22.401300 54.038082 8.407882 62
-22.188948 54.038731 8.398365 62
-21.968439 54.016281 8.385724 31
-21.765923 54.011776 8.376177 62
-21.570890 54.054577 8.372877 62
-21.352652 54.033340 8.360737 31
-20.843874 53.782848 8.307848 31
-20.578518 53.590969 8.272800 31
-20.342178 53.476521 8.248661 31
-20.115822 53.416721 8.231807 31
-19.691490 53.402592 8.212647 31
-19.314003 53.461880 8.204872 62
-19.121355 53.525162 8.205156 62
-18.942541 53.599873 8.207500 62
-18.777443 53.686153 8.211906 62
-18.598280 53.792858 8.218413 31
-18.429974 53.870491 8.221769 62
-18.232256 53.885990 8.216292 31
-17.814425 53.805653 8.190748 62
-17.732323 54.206734 8.238299 31
-17.439241 54.589947 8.276185 62
-17.231192 54.571213 8.266515 62
-17.016249 54.561947 8.257889 62
-16.815178 54.564522 8.251327 62
-16.618397 54.544662 8.242148 62
-16.414627 54.534267 8.234015 62
-16.210087 54.519272 8.225354 62
-15.997486 54.509792 8.217216 62
-15.805832 54.502323 8.210096 62
-15.614381 54.494167 8.202971 62
-15.415725 54.495380 8.196888 31
-14.807508 53.669464 8.072859 31
-14.612232 53.667744 8.066756 31
-14.334987 53.277184 8.008614 62
-14.146800 53.296913 8.005621 31
-11.796640 43.887554 6.733639 19
-13.711111 53.071274 7.964238 31
-13.501049 53.028843 7.952909 31
-13.119555 52.982162 7.936460 31
-12.932895 52.997543 7.933433 31
-12.752934 52.998722 7.928835 62
-12.577470 53.067196 7.933083 62
-12.400879 53.131191 7.936804 31
-12.234682 53.249069 7.947805 31
-12.064032 53.346951 7.956200 31
-11.897250 53.467655 7.967711 31
-11.719608 53.533249 7.971932 31
-11.529548 53.531906 7.967301 31
-11.331950 53.486935 7.956941 31
-11.144350 53.495914 7.953861 31
-10.952114 53.476868 7.947132 62
-10.771917 53.471222 7.942478 62
-10.588638 53.445393 7.935217 31
-10.400249 53.443897 7.931075 62
-10.210742 53.433891 7.925887 62
-10.022614 53.431042 7.921733 62
-9.834017 53.423595 7.917054 62
-9.645572 53.415474 7.912370 62
-9.455032 53.390972 7.905599 62
-9.268045 53.389347 7.901945 62
-9.081162 53.387054 7.898285 62
-8.893343 53.376236 7.893579 62
-8.705687 53.364746 7.888868 62
-8.525864 53.339634 7.882593 62
-8.340498 53.342579 7.879953 62
-8.154727 53.340927 7.876787 62
-7.968592 53.334679 7.873096 62
-7.773871 53.332729 7.869917 62
-7.175791 49.492268 7.360426 29
-7.012288 49.485657 7.357247 29
-6.900388 50.075203 7.432633 60
-6.709671 49.894802 7.406545 59
-6.518426 49.693932 7.377851 58
-6.341096 49.630573 7.367365 58
-6.211131 50.008366 7.415155 60
-6.057250 50.232407 7.442642 60
-6.931109 63.371998 9.169977 36
-6.323307 58.271805 8.496579 31
-6.146400 58.607121 8.538601 31
-5.840260 57.106049 8.339203 31
-5.639994 57.055962 8.330748 31
-12.788205 175.277863 23.867321 63
-4.381443 42.296597 6.387832 13
-4.602738 52.194622 7.685596 62
-4.411982 51.957954 7.653197 62
-4.239526 52.093018 7.669694 31
-4.308046 58.112080 8.458682 31
-3.898514 57.825897 8.418785 31
-3.630999 55.271198 8.082580 31
-3.241142 54.841496 8.024467 62
-3.049903 54.694992 8.004507 62
-2.864101 54.809532 8.018869 31
-4.336759 179.644485 24.390059 63
-3.713174 179.723175 24.398718 63
-2.433580 75.990448 10.794827 56
-2.466308 180.532394 24.502306 63
-1.209772 180.960083 24.556929 63
-0.576898 181.479965 24.624769 63
0.058158 181.866745 24.675428 63
-0.891302 74.806541 10.638444 54
-0.626174 75.202911 10.690609 55
-0.388483 74.190689 10.558191 53
-0.122711 74.585251 10.610340 54
0.147297 74.578064 10.609952 54
0.401111 74.467239 10.596057 54
0.635595 74.193481 10.560863 53
0.933057 75.254044 10.700823 55
1.190521 75.195984 10.694182 55
0.283035 49.796696 7.363072 29
0.827973 57.358540 8.356039 31
0.625746 49.811584 7.366676 29
1.126857 49.750786 7.361665 29
1.952786 56.627949 8.267261 62
2.142258 56.415504 8.240911 31
2.300038 55.938232 8.179767 31
2.489134 55.887478 8.174732 31
2.576879 52.496937 7.732441 31
3.107866 56.419441 8.250002 31
3.003092 53.258541 7.836154 31
3.174431 53.126465 7.820724 31
3.325186 52.800491 7.779842 31
3.522081 53.019367 7.810646 31
3.714589 53.098515 7.823248 31
6.565437 64.745926 9.378768 38
6.835034 63.516087 9.223077 73
6.971371 62.915833 9.147300 72
7.104782 62.323242 9.072564 70
7.221176 61.716400 8.995782 68
7.362545 61.157177 8.925697 66
7.506907 60.709068 8.870172 32
7.615250 60.057110 8.787666 31
7.728878 59.463821 8.712949 31
7.857014 58.979961 8.652761 31
7.979860 58.484200 8.591021 31
8.091781 57.945332 8.523577 31
8.311394 56.958900 8.400655 62
8.425196 56.486099 8.342038 62
8.535076 56.009293 8.282906 31
8.646293 55.555763 8.226888 62
8.753698 55.098244 8.170354 62
8.860389 54.652306 8.115378 31
8.956917 54.171322 8.055740 31
9.070495 53.787384 8.009066 31
9.180698 53.399426 7.961874 31
9.567142 53.413403 7.973216 31
9.756669 53.444595 7.982015 31
9.960969 53.496235 7.993889 31
10.185390 53.632114 8.017155 93
10.402758 53.732311 8.035748 4
10.606276 53.769894 8.046045 93
10.812071 53.814411 8.057371 62
11.010037 53.864246 8.069238 62
11.216764 53.907207 8.080550 62
11.433202 53.947029 8.091825 31
11.625677 53.967670 8.100046 31
11.818708 53.950665 8.103571 31
12.034203 53.980373 8.113789 31
12.223368 53.983513 8.119921 31
12.442744 54.060036 8.136368 31
12.649149 54.085953 8.146078 31
12.866567 54.149284 8.160956 31
13.080289 54.196476 8.173758 31
13.296706 54.250446 8.187586 31
13.495529 54.275780 8.197301 31
13.838353 54.034637 8.178329 62
14.060272 54.100719 8.194200 93
14.275893 54.143135 8.206959 93
14.494349 54.192272 8.220745 93
14.705227 54.247223 8.235075 93
14.911592 54.253040 8.243158 62
15.143630 54.337383 8.262092 93
15.364223 54.383026 8.275846 93
15.589053 54.439087 8.291143 93
15.813237 54.490463 8.305916 93
16.026110 54.536541 8.319684 62
16.252678 54.589890 8.334957 93
16.485340 54.627838 8.348634 93
16.718267 54.694279 8.365956 62
16.938543 54.751823 8.381760 62
17.159510 54.778996 8.393900 62
17.374176 54.816120 8.407104 62
17.601347 54.826950 8.417641 62
17.855005 54.937092 8.441633 62
18.100006 55.020088 8.462003 93
19.258623 57.534492 8.820509 64
19.492617 57.586250 8.836735 65
19.721478 57.592548 8.847232 65
19.803169 57.216927 8.804564 64
19.886837 56.852509 8.763448 63
19.963852 56.477131 8.720787 62
20.044392 56.116638 8.680195 62
20.118231 55.745224 8.638058 62
20.239120 55.495197 8.612947 93
20.527544 55.655853 8.645599 62
20.773226 55.708931 8.663284 93
21.024157 55.771931 8.682508 93
21.268066 55.815582 8.699142 62
21.507883 55.847260 8.714221 31
21.740185 55.885704 8.729853 31
21.992010 55.966850 8.751660 31
22.228703 55.984608 8.765166 31
22.497969 56.047874 8.785831 32
22.747030 56.088882 8.802926 32
23.009932 56.183769 8.827271 32
23.789606 56.354576 8.886705 33
24.032236 56.394608 8.903800 33
24.538525 56.462425 8.937862 68
24.778076 56.440002 8.947623 34
25.010878 56.402306 8.955317 34
25.276844 56.479958 8.978541 69
25.514605 56.473454 8.990384 34
26.072676 57.082088 9.092195 36
26.369419 57.208488 9.123094 36
26.655586 57.286102 9.147755 36
26.922733 57.323578 9.166748 37
27.206141 57.414291 9.192984 37
27.498508 57.495087 9.218638 37
28.039537 57.564991 9.257063 38
28.290779 57.584183 9.273488 38
28.625778 57.733189 9.309889 39
28.859888 57.692337 9.318530 39
29.157387 57.742519 9.341490 39
29.466854 57.834949 9.370145 39
29.821459 58.028473 9.413223 40
30.075005 58.014065 9.426446 40
23.597891 45.731030 7.627856 62
30.993793 58.213047 9.503980 41
31.323036 58.320702 9.536147 42
31.934618 58.468784 9.590240 42
32.256905 58.554760 9.619801 43
33.285652 59.816605 9.826818 45
32.968235 58.850403 9.697406 44
33.294750 58.457047 9.673306 88
33.601772 58.505756 9.698192 44
34.037544 58.758400 9.754332 45
34.332047 58.780254 9.775600 45
34.703999 58.944588 9.817931 45
35.983017 60.482212 10.072729 49
36.052471 59.257832 9.940726 47
36.255882 59.124832 9.939387 47
36.618752 59.232559 9.975414 48
37.013672 59.384655 10.018592 48
37.321571 59.403023 10.041279 48
39.426609 61.614281 10.426854 53
39.488319 61.274067 10.393764 53
39.545967 60.930851 10.360166 53
39.625828 60.600189 10.329568 100
39.694759 60.256721 10.296929 100
39.766388 59.919975 10.265317 100
39.972095 59.774010 10.263868 51
40.524559 60.110573 10.339078 52
40.963570 60.283314 10.388708 53
42.910286 60.746784 10.577817 56
43.274433 60.795509 10.609459 56
43.617825 60.814014 10.636491 56
44.015034 60.900097 10.674736 57
44.224152 60.739296 10.673162 57
46.067055 62.699188 11.016047 61
45.985882 61.714825 10.906672 60
46.427490 61.835922 10.952462 60
46.739075 61.790554 10.971210 61
47.143097 61.858006 11.008806 61
47.508789 61.853165 11.036107 62
47.919754 61.922691 11.074687 62
48.295914 61.968246 11.108238 63
48.724133 62.051987 11.149838 63
49.209526 62.200443 11.202625 63
49.660801 62.303761 11.248259 63
50.118553 62.410728 11.294888 62
50.639511 62.587654 11.353716 62
51.198559 62.803802 11.419642 61
51.622089 62.857841 11.458568 61
52.057079 62.921638 11.499509 61
52.482689 62.971226 11.538396 61
53.094364 62.769737 11.567195 60
53.612068 62.913857 11.623319 60
54.101986 63.044296 11.675952 60
54.598717 63.178032 11.729579 59
55.137318 63.331383 11.788678 59
55.621193 63.420479 11.837080 59
56.130684 63.533123 11.890031 58
56.660633 63.663250 11.946513 58
57.151394 63.747116 11.995351 57
59.117905 65.382790 12.318362 55
59.208340 65.028664 12.291459 55
59.280540 64.657539 12.261515 56
59.361938 64.298088 12.233604 56
59.776798 64.282524 12.267095 56
60.328533 64.403534 12.325425 55
60.959991 64.600441 12.397930 55
61.417255 64.638916 12.440586 54
10.485675 13.402015 3.206212 2
62.731831 65.057747 12.593052 53
63.374081 65.243355 12.665939 53
63.711842 65.125847 12.684062 53
64.978127 65.907288 12.867348 51
10.060618 12.405755 3.075710 59
10.054266 12.320179 3.067216 54
10.082217 12.267334 3.064798 54
10.124474 12.227942 3.064911 59
10.178262 12.199162 3.067047 49
10.240769 12.178186 3.070698 47
10.335550 12.186299 3.079911 23
10.539433 12.292352 3.107832 49
10.572964 12.243361 3.106414 52
10.616192 12.207030 3.107038 47
10.676123 12.181489 3.110168 40
10.756886 12.174009 3.116833 30
97.015411 86.212662 17.584534 63
97.246407 85.810005 17.570223 63
97.533272 85.455574 17.565502 63
97.987564 84.647026 17.536865 63
98.309959 84.323082 17.538689 63
98.600700 83.972649 17.535458 63
98.998528 83.739410 17.552559 63
99.149727 83.304039 17.529303 63
99.406044 82.925735 17.521011 63
99.628784 82.491661 17.504992 63
100.042160 82.210320 17.520216 63
100.316177 81.846466 17.515434 63
100.595139 81.486595 17.511654 63
100.861954 81.146149 17.508533 63
101.168091 80.778549 17.507095 63
101.427559 80.403656 17.500778 63
101.726692 80.059204 17.500999 63
101.988762 79.715012 17.497856 63
102.272911 79.358917 17.496050 63
105.382912 81.111961 17.941475 63
14.302624 12.350698 3.470308 3
14.423779 12.350404 3.482345 3
14.379714 12.239763 3.469304 3
14.461548 12.211778 3.475312 3
14.497405 12.152172 3.474292 3
14.569259 12.116830 3.478789 3
14.648617 11.919170 3.471708 245
14.693382 11.865481 3.472188 246
14.734644 11.809455 3.472166 240
14.772380 11.751126 3.471641 238
14.823293 11.701206 3.473119 199
14.867356 11.646815 3.473594 87
14.895950 11.586743 3.472091 222
14.949743 11.538355 3.474066 199
14.976408 11.473011 3.472035 236
15.012968 11.413841 3.471505 237
15.056100 11.358673 3.471975 245
15.095656 11.301279 3.471943 245
15.135019 11.243734 3.471911 188
15.184421 11.192130 3.473377 50
49.955597 14.728100 7.604088 31
-85.395576 11.357303 11.473573 59
-85.449135 11.660091 11.487334 59
-85.570419 11.957574 11.509423 59
-85.558861 12.253106 11.515245 59
-85.440102 12.534013 11.507655 59
-155.640213 60.623852 21.888433 63
-154.082092 60.631329 21.708656 63
-150.555756 59.848331 21.259668 63
-149.656204 60.089592 21.168900 63
-148.712646 60.307449 21.072035 63
-148.426987 60.787922 21.065390 63
-143.667923 59.423168 20.443886 63
-143.004654 59.726849 20.384630 63
-137.739548 58.091488 19.690578 63
-133.591171 57.432156 19.179445 63
-131.723022 57.680408 18.980789 63
-130.870331 57.844856 18.893347 63
-130.826447 58.363949 18.918514 63
-126.419296 56.923450 18.334845 63
-125.655479 57.100262 18.258825 63
-125.079552 57.358322 18.209051 63
-123.829773 57.301811 18.064713 63
-122.617867 57.254040 17.925367 63
-121.501152 57.242424 17.799109 63
-120.210373 57.140308 17.648008 63
-118.139130 57.154636 17.416960 63
-117.085999 57.142426 17.298574 63
-114.662758 56.424156 16.983576 63
-114.269073 56.718510 16.958210 63
-113.363785 56.755043 16.859905 63
-113.167999 57.143631 16.862852 63
-113.006218 57.549538 16.870859 63
-110.351280 56.674931 16.521147 63
-108.179451 56.028927 16.239708 63
-107.740097 56.270775 16.207031 63
-107.261742 56.489883 16.168756 63
-106.443306 56.525688 16.081278 63
-105.500023 56.488983 15.975500 63
-104.501656 56.392628 15.859903 63
-103.408310 56.260536 15.731710 63
-102.950050 56.469181 15.695813 63
-102.859489 56.879089 15.713690 63
-102.826180 57.321934 15.740193 63
-102.808289 57.774956 15.769238 63
-102.453773 58.038544 15.749030 63
-101.692307 58.067795 15.668878 63
-84.766968 57.870426 19.864208 45
-84.761330 58.293419 19.910721 45
-84.737183 58.727024 19.955864 45
-84.711494 59.139992 19.998682 45
-84.697388 59.541317 20.042137 45
-84.687920 59.947750 20.087074 45
-84.663086 60.366909 20.131380 45
-78.437950 56.323917 18.737404 45
-77.904083 56.322659 18.657816 45
-77.304352 56.289772 18.564974 45
-76.692947 56.264088 18.471458 45
-76.155685 56.248699 18.390316 45
-75.587677 56.226704 18.304058 45
-75.001671 56.207066 18.215647 45
-73.704216 55.601463 17.953663 45
-73.141464 55.567013 17.867311 45
-72.760269 55.668652 17.823912 45
-72.088448 55.916744 17.756247 90
-71.830620 56.129646 17.744762 90
-71.163376 55.996609 17.632360 45
-70.997597 56.636707 17.686916 45
-70.716400 56.827484 17.670200 45
-70.188965 56.795959 17.591089 45
-69.683830 56.778927 17.517147 45
-68.287819 55.999573 17.222050 45
-66.198784 55.394463 16.851479 45
-65.845985 55.499493 16.815315 45
-65.610786 55.665001 16.803471 45
-65.276413 55.763477 16.769430 45
-16.171312 13.458579 4.530821 73
-16.140137 13.523611 4.534904 18
-60.860405 53.770515 15.902472 90
-60.453621 53.775726 15.847486 90
-60.102791 53.828968 15.806598 45
-59.656624 53.792839 15.741181 45
-59.249557 53.770878 15.683104 45
-58.839813 53.762077 15.626566 45
-58.312485 53.658939 15.541845 45
-57.933891 53.654350 15.490402 90
-57.529617 53.641319 15.434554 90
-57.126125 53.626110 15.378689 45
-56.661072 53.548820 15.306455 45
-55.957813 53.219002 15.168717 45
-55.142838 53.136921 15.050096 45
-54.811127 53.193451 15.014279 45
-54.628185 53.377674 15.015567 45
-54.387138 53.485348 14.998936 45
-54.147831 53.612274 14.985334 45
-53.613194 53.438545 14.892134 45
-53.428444 53.986877 14.944478 45
-53.340961 54.268108 14.972508 90
-52.967873 54.233913 14.920112 90
-52.607941 54.229454 14.873715 90
-52.237877 54.211704 14.824327 90
-51.873932 54.197758 14.776414 90
-50.751465 53.385242 14.520123 90
-50.611778 53.584309 14.530912 45
-50.095177 53.392071 14.439016 45
-50.576962 54.664875 14.681081 45
-48.338951 52.918999 14.153882 45
-48.157032 53.080624 14.154986 45
-47.860264 53.111843 14.123309 45
-47.682850 53.277714 14.125888 45
-47.476490 53.410339 14.120267 45
-46.976078 53.183086 14.026669 45
-46.642422 53.163841 13.983770 45
-46.310516 53.162624 13.943892 45
-45.985809 53.148991 13.903204 45
-45.688538 53.147179 13.867668 45
-45.327324 53.085106 13.815775 45
-45.014656 53.078705 13.778030 45
-44.697582 53.064682 13.738784 45
-44.388577 53.058224 13.701760 45
-44.067787 53.034966 13.660997 45
-43.761696 53.008942 13.621665 45
-43.486370 53.037853 13.594301 45
-43.179630 53.025433 13.557232 45
-42.878345 53.017689 13.521643 45
-42.568527 53.015568 13.486090 45
-42.272652 52.991589 13.448938 45
-41.977882 52.985668 13.414807 45
-41.681263 52.975201 13.379919 45
-41.385208 52.963303 13.345019 45
-41.077904 52.934277 13.306378 45
-40.787762 52.925770 13.272949 45
-40.495811 52.912724 13.238763 45
-40.209095 52.904598 13.206059 45
-39.929661 52.885307 13.172554 45
-39.669418 52.909470 13.148039 45
-39.439350 52.973892 13.133219 45
-38.895840 52.580307 13.013091 45
-38.092484 52.229980 12.872193 90
-37.807095 52.185394 12.834887 90
-37.540390 52.203529 12.809597 3
-37.307529 52.249821 12.792472 3
-37.088100 52.314568 12.779820 3
-36.897514 52.401566 12.773844 3
-36.708500 52.529320 12.774661 3
-36.543640 52.654106 12.777636 90
-36.358406 52.768013 12.776909 90
-36.136028 52.825481 12.763475 90
-35.832352 52.738010 12.718619 3
-35.753395 53.033237 12.758255 90
-35.725922 53.411171 12.816569 90
-35.531815 53.512207 12.813574 3
-35.270824 53.487251 12.783632 90
-35.011665 53.483543 12.757455 90
-34.741680 53.481060 12.730557 90
-34.482231 53.452587 12.700589 90
-34.231575 53.436363 12.673603 90
-33.969189 53.440296 12.648919 3
-33.206402 52.574863 12.433531 90
-33.010715 52.678982 12.431993 90
-32.855930 52.830978 12.442378 45
-32.529503 52.672764 12.385434 45
-31.810423 52.292515 12.255157 45
-31.581736 52.311363 12.237094 45
-30.728601 52.042095 12.114020 44
-30.578028 52.171555 12.122073 44
-30.397537 52.289894 12.125693 44
-30.213711 52.359852 12.121020 44
-30.062136 52.509953 12.132829 44
-29.883682 52.611233 12.134159 44
-29.765932 52.803997 12.156404 44
-29.374365 52.527473 12.075450 43
-29.142656 52.525581 12.055061 43
-28.914843 52.507549 12.032393 43
-28.691145 52.539768 12.018751 42
-28.440680 52.474422 11.986339 42
-28.212299 52.472073 11.966668 42
-27.968304 52.437195 11.940254 41
-27.805859 52.562840 11.948261 41
-27.527723 52.433666 11.903094 41
-27.286911 52.399273 11.877405 41
-27.100101 52.473289 11.874914 41
-26.899389 52.518330 11.866428 40
-26.649387 52.459858 11.836226 40
-26.102379 52.258484 11.757851 100
-25.890390 52.249290 11.739578 100
-25.664822 52.232700 11.719077 100
-25.480593 52.304459 11.717288 78
-25.447254 52.708279 11.785135 79
-25.438231 53.147804 11.861197 81
-25.417347 53.591934 11.937283 83
-25.381195 54.033455 12.011892 3
-25.159193 54.006481 11.990592 3
-24.950136 54.007458 11.975278 3
-24.758438 54.098633 11.977226 84
-24.984364 55.172745 12.182908 44
-24.779533 55.216610 12.175843 44
-22.978861 53.995270 11.832856 40
-22.771872 54.013496 11.821991 40
-22.561472 53.994366 11.804357 40
-22.359095 54.021992 11.795726 40
-22.153467 54.012280 11.780328 39
-21.905607 53.917034 11.746956 39
-22.103584 55.042828 11.961638 41
-21.907677 55.094425 11.958235 41
-21.266027 53.923485 11.706765 38
-20.995501 53.754051 11.659124 38
-20.689421 53.479763 11.590490 37
-20.202824 53.268024 11.522149 73
-20.004721 53.257706 11.508190 73
-19.811966 53.261524 11.497223 36
-19.587290 53.229851 11.478034 36
-18.931288 53.082943 11.412888 35
-18.590040 53.242264 11.422387 70
-18.556921 53.776062 11.517848 36
-18.351288 53.766174 11.504601 36
-17.979574 53.871883 11.503579 72
-17.973965 54.493137 11.617011 100
-17.786144 54.512077 11.610479 100
-17.579103 54.499149 11.597205 100
-17.364084 54.491894 11.584685 100
-17.166956 54.474693 11.571388 100
-16.962889 54.466965 11.559596 100
-16.755917 54.447105 11.545547 100
-16.546131 54.451744 11.536002 100
-16.356226 54.454330 11.527181 100
-16.148041 54.424553 11.511615 100
-15.935878 54.415424 11.499801 100
-15.733812 54.366405 11.481215 100
-15.318564 53.515549 11.304397 100
-15.010680 53.066441 11.207062 65
-14.794291 52.934013 11.172706 64
-14.578231 52.837284 11.145102 64
-14.424360 52.995682 11.167737 32
-14.266829 53.142162 11.188119 32
-14.036416 52.978180 11.147747 32
-13.847239 53.029797 11.149375 32
-13.656225 52.988472 11.133735 32
-13.274811 52.988316 11.118200 31
-13.089662 53.012169 11.115299 31
-12.894578 53.033432 11.111648 31
-12.734386 53.131008 11.123733 31
-12.572104 53.220394 11.134313 32
-12.397124 53.295692 11.141891 32
-12.049408 53.511890 11.169787 64
-11.872726 53.533516 11.167597 32
-11.482649 53.477810 11.143703 32
-11.292898 53.475956 11.136999 32
-11.103276 53.473419 11.130289 31
-10.909895 53.502750 11.129576 63
-10.716019 53.415920 11.107101 31
-10.530779 53.434574 11.104876 31
-10.349100 53.416191 11.095893 31
-10.160297 53.410259 11.089156 31
-9.972828 53.411419 11.083914 31
-9.786610 53.419682 11.080167 31
-9.593067 53.376740 11.066663 31
-9.414850 53.438114 11.073406 31
-9.218500 53.370457 11.055391 31
-9.028497 53.344898 11.045622 30
-8.837225 53.306965 11.033597 30
-8.463983 53.295300 11.022283 91
-8.276369 53.278717 11.014743 91
-8.100380 53.279903 11.010950 91
-7.925344 53.288307 11.008653 4
-7.745492 53.336189 11.013848 61
-7.676140 54.418747 11.217804 32
-7.627186 55.771107 11.473505 72
-7.566110 57.096401 11.723948 78
-7.502243 58.488407 11.987131 42
-7.432707 59.923672 12.258554 45
-7.361593 61.453060 12.547969 45
-7.285561 63.049206 12.850122 45
-16.179756 173.783310 34.055965 45
-15.042247 174.417038 34.158791 45
-14.460384 174.802734 34.223663 45
-13.859360 174.943451 34.242023 45
-13.271245 175.293808 34.300861 45
-12.084476 175.925797 34.406479 45
-10.285091 176.780106 34.549767 45
-9.684422 177.126175 34.609989 45
-9.111646 177.453247 34.667221 45
-8.508352 177.846359 34.737152 45
-7.900949 178.194214 34.798817 45
-7.288719 178.457504 34.844715 45
-6.674095 178.695114 34.886093 45
-6.061855 179.103439 34.960442 45
-5.444210 179.376083 35.009281 45
-4.825716 179.709457 35.070095 45
-3.581092 180.283295 35.175167 45
-2.328779 180.942764 35.298149 45
-0.433985 181.821198 35.464478 45
0.202974 182.215652 35.540123 45
1.451997 182.923782 35.677143 45
3.391834 183.970337 35.882824 45
4.039602 184.198090 35.929100 45
0.651051 56.836998 11.624245 37
1.201127 56.186935 11.504875 36
1.404885 53.474331 10.990170 30
1.814745 56.810184 11.629778 38
1.745286 53.077312 10.918334 29
1.910103 52.832924 10.873796 29
2.250421 52.534512 10.821424 28
2.472960 53.016750 10.916230 29
2.650233 53.052685 10.925636 29
2.852143 53.152859 10.947737 29
6.175873 64.732239 13.206949 45
6.361358 64.419106 13.151776 45
6.636581 63.224529 12.932131 45
6.762294 62.623821 12.821577 90
6.911663 62.062656 12.719211 90
7.042982 61.479485 12.612382 90
7.178621 60.950531 12.516037 90
7.294839 60.388042 12.412983 45
7.426366 59.878143 12.320387 45
7.544328 59.306004 12.215816 45
7.668950 58.859474 12.135229 44
7.775726 58.263859 12.026175 42
7.899289 57.788227 11.940328 41
8.127666 56.730347 11.748408 79
8.238311 56.238876 11.659576 77
8.338250 55.760700 11.573019 75
8.444617 55.280663 11.486439 72
8.548508 54.804409 11.400610 70
8.645232 54.356926 11.320048 69
8.753029 53.930641 11.243952 67
8.867948 53.506222 11.168580 65
9.027275 53.352779 11.145602 97
9.223259 53.419857 11.165285 97
9.431492 53.451523 11.178923 98
9.634320 53.499737 11.195573 99
9.836763 53.543339 11.211469 99
10.050547 53.676376 11.244586 67
10.263047 53.756676 11.267945 33
10.462754 53.778755 11.280080 34
10.675553 53.853592 11.302676 34
10.875124 53.870308 11.314050 34
11.082488 53.916798 11.331398 69
11.289379 53.958672 11.347991 34
11.475862 53.956383 11.355637 35
11.707456 54.051434 11.383398 35
11.903811 54.045265 11.391001 35
12.121432 54.118145 11.414292 35
12.248950 53.852406 11.371059 35
12.638459 53.897251 11.397499 35
13.029075 53.833107 11.404387 71
13.358110 54.282810 11.503102 73
13.499290 54.074375 11.471803 100
13.728155 54.167126 11.500266 73
13.954166 54.280529 11.532491 37
14.171100 54.326256 11.551973 37
14.389818 54.341965 11.566185 37
15.048527 54.482540 11.626803 38
15.253778 54.511929 11.643296 38
15.477286 54.563667 11.664972 38
15.678010 54.543575 11.672455 38
15.926014 54.664410 11.708301 39
16.157503 54.732029 11.733685 39
16.605448 54.845329 11.779986 80
16.825970 54.873009 11.797882 81
17.067820 54.959106 11.827710 40
17.333153 55.077824 11.864952 41
17.755318 55.063747 11.887999 3
18.896547 57.608917 12.415473 45
19.141003 57.661034 12.439997 3
19.366474 57.690109 12.459332 90
19.521400 57.472038 12.430089 90
19.600327 57.088627 12.366578 90
19.668516 56.712795 12.303859 90
19.751297 56.351639 12.244830 90
19.827477 55.979626 12.183568 90
19.915251 55.614895 12.124503 89
20.105410 55.563961 12.128159 89
20.428324 55.810455 12.193644 45
20.655230 55.844955 12.215174 45
20.907310 55.910851 12.244106 45
23.570498 57.778351 12.762010 45
23.440041 56.448292 12.520224 45
23.694807 56.491337 12.546813 45
23.978430 56.593826 12.586052 45
24.935673 57.102539 12.747623 45
27.136148 57.626484 13.013273 45
27.397295 57.646763 13.038233 45
27.892838 57.654358 13.080740 45
28.151646 57.664398 13.104183 45
28.453581 57.753002 13.144721 45
28.793867 57.909344 13.200118 45
29.098570 57.972298 13.236855 45
29.347340 57.930466 13.251275 45
29.707773 58.135784 13.317094 45
29.989838 58.172485 13.347903 45
30.294125 58.222836 13.383101 45
30.594707 58.310421 13.424351 45
30.886734 58.356800 13.458097 45
31.177299 58.421238 13.494863 45
31.478706 58.478542 13.531557 45
31.788872 58.548008 13.571210 45
32.098000 58.589764 13.606333 45
32.442047 58.733185 13.661619 45
32.779327 58.861473 13.713920 45
33.134102 58.537117 13.693605 45
33.516037 58.686066 13.753913 45
33.831699 58.768642 13.797255 45
34.160500 58.846790 13.841261 45
34.473537 58.896736 13.879316 45
34.831184 58.991894 13.929167 45
35.154453 59.051945 13.970162 45
35.478592 59.110443 14.011144 45
35.797699 59.180573 14.053661 45
36.512997 59.385040 14.157067 45
36.830017 59.420734 14.194283 45
37.440601 59.471668 14.263553 45
39.168140 61.577835 14.773794 90
39.250504 61.222378 14.725575 90
39.322575 60.877571 14.678173 45
39.403950 60.549141 14.634482 45
39.457409 60.205559 14.585679 90
39.607635 59.980358 14.565710 45
39.933212 59.981506 14.599762 45
40.018044 59.665543 14.559039 45
40.366699 59.739754 14.607294 45
43.206921 62.316109 15.310171 45
43.479671 62.237064 15.327127 45
42.792332 60.872185 15.041967 45
43.107872 60.856991 15.073745 45
43.585358 61.053314 15.155849 45
44.544102 61.479290 15.326068 45
46.791115 63.044800 15.813302 45
47.190792 63.105515 15.867125 45
47.652737 63.241051 15.939422 45
47.195908 62.227596 15.735071 45
47.397427 62.040421 15.729702 45
47.856377 62.169609 15.801233 45
48.319328 62.299377 15.873483 45
48.671135 62.290264 15.912440 45
49.340256 62.660236 16.044525 45
49.712158 62.667690 16.088617 45
50.110088 62.703342 16.140083 45
50.541992 62.775909 16.201139 45
51.002548 62.900257 16.273346 45
51.493317 63.033752 16.350615 45
51.998547 63.179424 16.431551 45
52.451126 63.260155 16.496954 45
52.616653 63.010891 16.480356 45
53.093987 63.114296 16.552372 45
53.604118 63.250320 16.633224 45
54.040043 63.277279 16.689596 45
54.587391 63.445778 16.779997 45
55.040901 63.528202 16.846846 45
55.602234 63.702541 16.940147 45
56.061405 63.761127 17.004642 45
56.639549 63.943890 17.101580 45
57.007271 63.896786 17.140207 45
58.859642 65.420258 17.584528 45
58.941086 65.056625 17.543419 45
59.028885 64.701729 17.504526 45
59.164062 64.397949 17.478909 45
62.169136 65.230644 17.974272 45
62.733410 65.367126 18.065107 45
10.026380 12.427855 4.062728 42
10.052050 12.372437 4.058655 56
10.077479 12.316981 4.054581 60
10.122778 12.280277 4.055660 52
10.176612 12.251417 4.058945 42
10.244850 12.235641 4.065907 34
10.432974 12.333159 4.103787 27
10.539502 12.350669 4.120303 70
10.552902 12.283274 4.113276 59
10.609903 12.255286 4.117282 51
10.675673 12.234880 4.123492 44
10.773864 12.242792 4.137787 17
96.462234 86.747589 25.364962 45
96.708145 86.357323 25.348545 45
96.982361 85.992004 25.339472 45
97.350952 85.707466 25.353909 45
97.658760 85.370575 25.353638 45
97.823990 84.913612 25.318836 45
98.126068 84.572464 25.317822 45
98.523842 84.310547 25.340298 45
98.687271 83.854431 25.306223 45
98.967461 83.495255 25.300781 45
99.259468 83.175095 25.302103 45
99.540298 82.816444 25.297382 45
99.790253 82.462318 25.289150 45
100.113533 82.108528 25.291594 45
100.368973 81.729927 25.281717 45
100.644676 81.367500 25.276972 45
100.968765 81.042770 25.283958 45
101.245148 80.680702 25.279932 45
101.526497 80.322472 25.277367 45
101.806602 79.963249 25.274796 45
102.091743 79.607780 25.273684 45
15.084281 11.673641 4.696829 2
49.888409 14.838115 10.796954 32
-48.668835 14.084003 9.974845 21
-48.730839 14.268929 9.996528 21
-156.236572 59.696861 31.750015 45
-153.087189 59.133892 31.168266 45
-152.882446 59.661179 31.172340 45
-150.197327 59.184345 30.677250 45
-149.594025 59.543530 30.601252 45
-148.844040 59.840717 30.495865 45
-148.808197 60.422520 30.534317 45
-138.415115 57.328903 28.527420 45
-136.605484 57.133095 28.205032 45
-135.530960 57.233582 28.030909 45
-132.984665 56.701065 27.557772 45
-131.263428 57.039143 27.294403 45
-131.213028 57.527588 27.325613 45
-128.581696 56.877953 26.829887 45
-126.122444 56.311554 26.370211 45
-124.757767 56.192680 26.131510 45
-124.324730 56.538464 26.087898 45
-123.328682 56.598492 25.926453 45
-122.091057 56.540031 25.714952 45
-120.833954 56.463642 25.498974 45
-119.696266 56.434437 25.307207 45
-118.649033 56.440159 25.133774 45
-117.606758 56.440952 24.961025 45
-114.209137 56.241779 24.381958 45
-113.546577 56.400784 24.287025 45
-113.502975 56.865761 24.321638 45
-110.846725 56.011860 23.808420 45
-108.782829 55.438278 23.418049 45
-108.157906 55.588001 23.329544 45
-107.777573 55.860718 23.292570 45
-106.985527 55.916451 23.168650 45
-105.995361 55.839119 23.000347 45
-104.914795 55.753029 22.816792 45
-103.970581 55.708881 22.659578 45
-103.301132 55.806583 22.560547 45
-103.187943 56.203373 22.580166 45
-103.179413 56.635422 22.620293 45
-103.155869 57.083786 22.659817 45
-103.065216 57.496220 22.685333 45
-102.527657 57.657810 22.614969 45
-101.405678 57.484272 22.418449 45
-100.610252 57.489216 22.291956 45
-96.486015 57.342564 21.622744 45
-95.752121 57.327854 21.505491 45
-95.729187 57.760853 21.546326 45
-95.395630 58.005989 21.519228 45
-92.114731 56.437153 20.842251 45
-91.435577 56.451271 20.737499 45
-90.780769 56.475906 20.637886 45
-90.369743 56.649548 20.592171 45
-90.048225 56.877857 20.566385 45
-89.358551 56.869549 20.458567 45
-94.500214 58.013256 30.709713 63
-92.320160 57.106651 30.074284 63
-90.566307 56.469147 29.577208 63
-89.973244 56.527035 29.450651 63
-89.589211 56.692448 29.388384 63
-89.364258 56.957870 29.377863 63
-88.804489 57.028458 29.261803 63
-88.054367 56.993084 29.086664 63
-87.360664 56.967678 28.926170 63
-86.690887 56.931831 28.769762 63
-85.851753 56.821053 28.563871 63
-85.181358 56.795666 28.409616 63
-84.684990 56.861984 28.309130 63
-84.625534 57.264786 28.359985 63
-84.609154 57.677483 28.422363 63
-84.578682 58.060974 28.477238 63
-84.618828 58.516605 28.559708 63
-84.577827 58.917843 28.615751 63
-84.557854 59.313980 28.675919 63
-84.512428 59.737221 28.735241 63
-84.497322 60.162239 28.801863 63
-84.464607 60.576576 28.863199 63
-78.216209 56.470539 26.817520 45
-77.685318 56.490200 26.705219 46
-77.149017 56.502258 26.590778 46
-76.585709 56.490528 26.466791 47
-75.974022 56.438545 26.325850 47
-75.462143 56.457329 26.218742 48
-74.844063 56.371788 26.071306 48
-73.853600 55.996796 25.794733 49
-71.646118 56.265560 25.371834 51
-70.945137 56.123348 25.198984 52
-70.817688 56.417118 25.224014 52
-70.808868 56.807842 25.291399 51
-70.512177 56.945690 25.253860 51
-69.985008 56.912838 25.138027 52
-69.506454 56.916348 25.039116 52
-68.095558 56.139065 24.606539 54
-66.889534 55.500050 24.241606 55
-66.349937 55.451302 24.121485 56
-65.882774 55.440712 24.023508 56
-65.566551 55.536972 23.976288 56
-65.255424 55.655392 23.934431 57
-65.057747 55.871029 23.933887 57
-64.691971 55.919971 23.868618 57
-60.252914 53.843166 22.586184 62
-60.007641 53.991795 22.565361 62
-59.992012 54.350819 22.630405 62
-59.804779 54.553146 22.631838 62
-57.770462 53.767590 22.080404 63
-57.424168 53.790234 22.017014 63
-56.929886 53.687340 21.900644 62
-56.140110 53.295017 21.670763 61
-55.590752 53.146461 21.535318 61
-55.190098 53.120247 21.452826 60
-54.478077 52.765854 21.246126 60
-54.211605 52.864704 21.214518 60
-53.953266 52.970509 21.186081 59
-54.088924 53.471909 21.311491 60
-53.880459 53.628922 21.303207 60
-53.436752 53.545414 21.202589 59
-53.230885 54.072876 21.269819 60
-53.135468 54.346233 21.307146 60
-52.746185 54.312386 21.227709 60
-52.390953 54.292885 21.157749 59
-52.012478 54.283482 21.085772 59
-51.654602 54.274628 21.017967 59
-50.520454 53.406601 20.631573 57
-50.234806 53.465176 20.591326 57
-49.907726 53.476845 20.534081 57
-49.161404 53.024139 20.304792 56
-48.785358 52.973759 20.226271 56
-48.384533 52.892647 20.137115 55
-48.189732 53.040043 20.132910 55
-47.927059 53.091919 20.096777 55
-47.726582 53.231823 20.090433 55
-47.487720 53.327328 20.068148 55
-46.902596 53.408932 19.982172 55
-46.492981 53.281773 19.883308 54
-46.289719 53.413422 19.875858 54
-45.902588 53.325745 19.789770 54
-45.526493 53.247856 19.707918 54
-45.343285 53.399685 19.708939 54
-44.975903 53.327442 19.630249 53
-44.648575 53.301079 19.568550 53
-44.287403 53.211746 19.487656 53
-43.944767 53.160976 19.418491 53
-43.574123 53.072300 19.336555 52
-43.276516 53.072308 19.286497 52
-42.974213 53.045536 19.230001 52
-42.668587 53.049778 19.179968 52
-42.374958 53.048473 19.130939 51
-42.126568 53.103783 19.102100 51
-41.822048 53.084499 19.047735 51
-41.478500 53.011532 18.975279 51
-41.233471 53.066105 18.947474 51
-40.930771 53.042435 18.893074 51
-40.647026 53.022915 18.842873 50
-40.350163 53.002590 18.790577 50
-40.060753 52.990162 18.741463 50
-39.765118 52.947918 18.684847 50
-39.485870 52.964279 18.644264 50
-39.207016 52.979298 18.603668 49
-38.859447 52.876534 18.525787 49
-37.900238 52.264633 18.236956 48
-37.599274 52.234642 18.183542 96
-37.351994 52.241558 18.147060 96
-37.129051 52.282383 18.122276 96
-36.901272 52.353622 18.103947 95
-36.697548 52.440193 18.093019 95
-36.508671 52.548393 18.089535 95
-36.334408 52.678375 18.093494 95
-36.138420 52.775593 18.086805 95
-35.897808 52.804337 18.057758 47
-35.617489 52.770611 18.008478 95
-35.555183 53.072536 18.069893 47
-35.532753 53.439613 18.152596 48
-35.343700 53.527939 18.145842 48
-35.073250 53.507233 18.101858 95
-34.809486 53.495090 18.061060 95
-34.544182 53.478470 18.019186 95
-34.289509 53.477058 17.982628 94
-34.038395 53.459038 17.942831 94
-33.776581 53.442192 17.901997 94
-33.016266 52.594967 17.593876 46
-32.837448 52.706436 17.595608 46
-32.595352 52.711132 17.563255 45
-32.334068 52.681530 17.520247 45
-30.590033 52.120762 17.150120 44
-30.233002 52.301071 17.147022 44
-30.145704 52.568680 17.200876 44
-29.911758 52.568516 17.170565 44
-29.678257 52.589169 17.145601 44
-29.448574 52.593800 17.117407 44
-29.249811 52.655411 17.107315 44
-29.004536 52.605667 17.064159 43
-28.807747 52.669029 17.055120 43
-28.511982 52.539707 16.986404 43
-28.756165 53.441238 17.239466 44
-28.192698 52.784718 17.007694 43
-28.021231 52.918488 17.019972 43
-27.736794 52.780338 16.951195 43
-27.340940 52.412697 16.812069 42
-26.880007 52.427486 16.760897 42
-26.759935 52.639339 16.799759 42
-26.381908 52.311382 16.673405 41
-25.942974 52.287952 16.616770 83
-25.708221 52.252483 16.580992 82
-25.493313 52.258045 16.557999 3
-25.313770 52.339943 16.558451 82
-25.284403 52.755135 16.660175 83
-25.263412 53.195393 16.769363 84
-25.245718 53.625011 16.876396 42
-25.211496 54.048553 16.980255 3
-24.990456 54.022877 16.949749 86
-24.758907 54.021996 16.924612 86
-24.574711 54.104870 16.926102 43
-24.159372 54.158409 16.896009 43
-23.918695 54.103817 16.856962 42
-23.672832 54.033924 16.813641 42
-23.443655 54.002270 16.782042 42
-23.285303 54.144985 16.802689 42
-23.023079 54.000504 16.739065 42
-22.781023 53.930264 16.696781 41
-22.365688 53.959335 16.663382 41
-22.152758 53.958260 16.642406 41
-21.945528 53.970772 16.625690 41
-21.519447 53.932125 16.575159 41
-21.297029 53.898754 16.545624 41
-21.043631 53.777466 16.490482 40
-20.758867 53.564308 16.408669 40
-20.513281 53.426529 16.350296 40
-20.286654 53.338642 16.306850 39
-20.046629 53.238422 16.259146 39
-19.838333 53.257008 16.245584 39
-19.640528 53.275333 16.233068 39
-19.442181 53.260616 16.212000 39
-19.259186 53.321384 16.212275 39
-19.070402 53.395496 16.215757 39
-18.908245 53.521004 16.235226 39
-18.746429 53.617378 16.247206 39
-18.390356 53.773899 16.259443 39
-18.176119 53.735188 16.231947 39
-17.601427 54.486816 16.386496 80
-17.395987 54.478184 16.368572 80
-17.185518 54.450237 16.345310 80
-16.973383 54.450077 16.329519 79
-16.770807 54.446491 16.313713 79
-16.576775 54.435879 16.296824 79
-16.370617 54.415916 16.276737 79
-16.168743 54.410076 16.260912 79
-15.957741 54.405922 16.245090 78
-15.762753 54.384926 16.226046 78
-15.553775 54.307190 16.190987 78
-15.165194 53.550529 15.961713 75
-14.953431 53.484104 15.929850 37
-14.774188 53.587620 15.946010 37
-14.584690 53.609600 15.939747 37
-14.401744 53.617470 15.930270 75
-14.083852 53.086174 15.767120 73
-13.867945 52.981686 15.725622 73
-13.662241 52.917698 15.695858 73
-13.455562 52.888794 15.675697 72
-13.268992 52.906063 15.669399 100
-13.080216 52.867950 15.648149 72
-12.895468 52.891422 15.643975 72
-12.723684 52.931232 15.645127 100
-12.548048 52.998772 15.653749 72
-12.375851 53.084614 15.667702 100
-12.206152 53.185024 15.685919 72
-12.039525 53.303810 15.709466 73
-11.869328 53.406921 15.728740 73
-11.676744 53.391975 15.714923 73
-11.485766 53.383915 15.703235 73
-11.294288 53.371365 15.690475 72
-11.106329 53.377106 15.683044 72
-10.915846 53.366978 15.671340 72
-10.734069 53.350822 15.658562 72
-10.553747 53.341648 15.647913 72
-10.364428 53.333324 15.637260 72
-10.175870 53.328129 15.627669 72
-9.988036 53.326065 15.619141 72
-9.798604 53.311893 15.607405 72
-9.609369 53.297039 15.595663 71
-9.421968 53.292953 15.587118 71
-9.233628 53.280560 15.576433 71
-9.047019 53.278950 15.568945 71
-8.861519 53.284321 15.563585 71
-8.676559 53.292862 15.559288 35
-8.497906 53.276653 15.548584 100
-8.307502 53.237988 15.531469 71
-8.121511 53.233086 15.523954 71
-7.935634 53.227528 15.516435 71
-7.742006 53.233814 15.512109 100
-7.559196 53.253738 15.512049 71
-7.494886 54.326538 15.805481 37
-7.423217 55.492493 16.124517 38
-7.362751 56.858112 16.499039 40
-7.302095 58.323765 16.901300 43
-7.226085 59.732063 17.287544 44
-7.161745 61.266357 17.709000 46
-7.079949 62.844013 18.142178 47
6.353320 64.519997 18.676842 50
6.556013 64.345474 18.635820 49
6.827754 63.152420 18.318213 48
6.963333 62.556747 18.159935 48
7.099382 61.991402 18.010187 47
7.218698 61.412216 17.856205 46
7.361130 60.867771 17.712833 46
7.493553 60.351398 17.576952 45
7.603267 59.716877 17.408033 45
7.733977 59.234440 17.281750 44
7.851089 58.691002 17.138416 44
7.977049 58.219635 17.015335 43
8.089739 57.691151 16.876270 43
8.296757 56.647118 16.601379 41
8.406687 56.160133 16.474047 40
8.516963 55.692001 16.352047 40
8.617444 55.189716 16.220461 39
8.721306 54.721439 16.098467 38
8.828905 54.287109 15.986064 38
8.935932 53.864021 15.876862 37
9.035382 53.418198 15.761269 37
9.392152 53.295071 15.747399 73
9.590866 53.326721 15.767087 74
9.784154 53.374722 15.791057 74
9.987060 53.419933 15.814992 74
10.209559 53.547005 15.862351 37
10.396895 53.519283 15.866036 37
10.603003 53.569645 15.892080 37
10.808703 53.615463 15.917052 37
11.006586 53.666489 15.943112 38
11.206695 53.684563 15.960616 38
11.417257 53.703285 15.979148 38
11.621215 53.770718 16.010511 38
11.840856 53.857361 16.048225 38
12.057693 53.892212 16.072058 38
12.262449 53.953491 16.102335 38
12.464888 53.966831 16.119797 39
12.680931 54.027725 16.151093 39
12.893421 54.072903 16.178122 39
13.127444 54.191433 16.226433 39
13.349700 54.264507 16.261961 39
13.641949 53.918793 16.191473 78
13.881544 54.012794 16.234398 39
14.114982 54.115936 16.279478 39
14.313186 54.100121 16.290495 39
14.542323 54.183002 16.330236 40
14.759455 54.256809 16.366812 40
14.972579 54.282711 16.390575 40
15.191990 54.326130 16.419653 40
15.426231 54.412666 16.461489 40
15.643196 54.443279 16.487358 41
15.855711 54.458397 16.508965 41
16.071501 54.512367 16.541237 41
16.309656 54.598812 16.584105 41
16.551744 54.662788 16.621603 41
17.217398 54.785515 16.711870 42
17.436621 54.834152 16.744095 42
17.902308 54.911221 16.806276 85
18.093544 54.848854 16.807602 42
19.521044 57.501114 17.628946 92
19.682692 57.332268 17.600447 46
19.758308 56.943699 17.507093 45
19.841326 56.580421 17.421188 45
19.917807 56.206497 17.332096 45
20.000538 55.854202 17.249386 44
20.072399 55.480556 17.160303 44
20.238144 55.342697 17.141369 88
20.507597 55.457455 17.197887 44
20.748466 55.499798 17.233141 44
21.090097 55.779274 17.339582 45
21.328413 55.808578 17.371628 45
21.634106 55.992825 17.450413 45
21.778513 55.825878 17.422985 45
22.588198 56.102905 17.579565 46
22.859968 56.192814 17.631735 46
23.094316 56.222660 17.664824 46
23.311514 56.187534 17.679800 46
23.622593 56.354614 17.756369 46
23.866695 56.373398 17.788319 46
24.165565 56.531799 17.861725 47
25.048937 56.854862 18.043440 47
25.387634 57.029377 18.126247 48
26.734591 58.257252 18.590212 50
27.057999 57.441036 18.426788 49
27.565805 57.478195 18.497910 99
27.852325 57.519779 18.543455 49
28.060007 57.458141 18.554083 49
28.396950 57.637104 18.640036 50
28.672010 57.673378 18.683479 50
28.947697 57.708420 18.726913 50
29.274803 57.811146 18.793617 50
29.551989 57.843529 18.837027 50
29.829229 57.897045 18.885786 51
30.130390 57.967281 18.941902 51
30.472891 58.084110 19.014914 51
31.060698 58.183792 19.116474 52
31.359600 58.238266 19.169357 52
31.653160 58.303867 19.224407 52
32.266735 58.425804 19.336472 52
32.576767 58.487911 19.393545 53
32.933491 58.647026 19.480345 53
33.289677 58.304035 19.448107 53
33.638390 58.420044 19.524210 53
33.976086 58.514687 19.593941 53
34.333370 58.637051 19.673191 54
34.599209 58.633720 19.710110 54
34.954163 58.723652 19.781851 54
35.344025 58.886345 19.875887 55
35.611542 58.856148 19.907408 55
35.921967 58.912094 19.965464 55
36.347324 59.117771 20.075340 55
36.670025 59.163731 20.133301 56
37.008533 59.230583 20.198660 56
37.599495 59.228504 20.285921 56
39.352047 61.353416 21.037319 59
39.412426 61.012913 20.968191 59
39.481998 60.688515 20.904362 59
39.551418 60.344437 20.836229 58
39.627827 60.013218 20.772337 58
39.733685 59.726231 20.723263 58
40.174622 59.909882 20.832939 58
40.554214 60.003536 20.912962 59
40.923649 60.079643 20.987679 59
41.503586 60.440388 21.159719 60
41.711414 60.288399 21.158218 60
42.427979 60.387047 21.293779 60
42.758579 60.395180 21.348312 60
43.143387 60.472427 21.427160 61
43.552696 60.578365 21.516565 61
43.932720 60.642426 21.592205 61
44.696545 61.198547 21.839132 62
45.091099 61.292988 21.924320 63
45.473530 61.346863 21.998838 63
45.895222 61.447197 22.090254 63
46.323002 61.551361 22.183764 63
46.752098 61.653271 22.277252 63
47.197048 61.770924 22.377064 62
