# .PCD v.7 - Point Cloud Data file format
VERSION .7
FIELDS x y z intensity
SIZE 4 4 4 1
TYPE F F F U
COUNT 1 1 1 1
WIDTH 1554
HEIGHT 1
VIEWPOINT 0 0 0 1 0 0 0
POINTS 1554
DATA ascii
-19.678263 4.196525 -0.145882 6
-19.619881 4.249650 -0.142448 6
-19.553495 4.300931 -0.138526 6
-19.447758 4.344266 -0.132160 13
-19.263565 4.371590 -0.120904 17
-19.102892 4.402345 -0.111126 12
-18.934389 4.430434 -0.100868 10
-18.761990 4.456582 -0.090375 14
-18.605854 4.481945 -0.080891 18
-18.445219 4.508355 -0.071149 20
-18.292408 4.535381 -0.061904 20
-18.143507 4.562243 -0.052911 18
-17.998516 4.588984 -0.044170 20
-17.845751 4.612982 -0.034950 22
-17.693014 4.635956 -0.025738 22
-17.555857 4.661569 -0.017508 28
-17.418715 4.686269 -0.009287 24
-17.281590 4.710057 -0.001072 22
-17.156118 4.735800 0.006405 22
-17.022909 4.758774 0.014362 24
-16.894257 4.779240 0.022048 21
-16.761103 4.800483 0.029990 24
-16.631180 4.824413 0.037703 22
-16.505812 4.845927 0.045146 26
-16.388861 4.866168 0.052077 22
-16.259022 4.887521 0.059768 22
-16.142130 4.906218 0.066686 24
-16.028433 4.927713 0.073376 32
-15.910918 4.947372 0.080301 27
-15.789600 4.965158 0.087462 24
-15.675997 4.984376 0.094133 27
-15.565558 5.006355 0.100574 24
-15.456550 5.022869 0.106972 26
-15.365984 5.046822 0.112175 21
-15.279234 5.071362 0.117131 21
-15.188663 5.094162 0.122324 16
-15.129291 5.123654 0.125564 15
-15.149053 5.180474 0.123752 13
-15.164038 5.238564 0.122200 12
-15.103593 5.269790 0.125452 16
-15.013503 5.288371 0.130611 21
-14.908282 5.301357 0.136729 25
-14.816746 5.323276 0.141914 21
-14.718425 5.339777 0.147558 24
-14.631469 5.359550 0.152475 21
-14.526444 5.370002 0.158572 25
-14.431256 5.388139 0.163977 25
-14.340634 5.404819 0.169120 24
-14.246293 5.419565 0.174499 25
-14.171533 5.438413 0.178655 22
-14.065251 5.450006 0.184761 24
-13.979319 5.463657 0.189629 23
-13.888909 5.477463 0.194748 23
-13.809748 5.494950 0.199144 26
-13.722367 5.511128 0.204031 24
-13.624653 5.520352 0.209616 27
-13.542678 5.532762 0.214223 27
-13.464461 5.546149 0.218586 26
-13.380983 5.561572 0.223216 26
-13.302049 5.575962 0.227587 27
-13.223153 5.589857 0.231953 24
-13.141412 5.599783 0.236540 27
-13.063415 5.610753 0.240884 26
-12.987535 5.626651 0.245015 26
-12.916174 5.641705 0.248889 25
-12.833020 5.653495 0.253489 25
-12.758885 5.664145 0.257579 25
-12.688459 5.675952 0.261428 25
-12.612782 5.689452 0.265540 25
-12.538794 5.698769 0.269619 23
-12.477782 5.717861 0.272771 25
-12.399421 5.726496 0.277096 25
-12.332846 5.737819 0.280689 25
-12.258232 5.747202 0.284768 25
-12.194536 5.761184 0.288131 25
-12.120029 5.769681 0.292203 25
-12.049196 5.779427 0.296034 23
-11.989223 5.793913 0.299150 23
-11.925675 5.806301 0.302499 22
-11.862164 5.818304 0.305846 22
-11.784360 5.822872 0.310138 22
-11.725373 5.834128 0.313228 22
-11.662003 5.844953 0.316565 22
-11.609369 5.860792 0.319190 20
-8.995346 6.302710 0.498908 15
-8.951338 6.307886 0.500757 14
-8.907379 6.312820 0.502605 15
-8.869796 6.322393 0.504033 17
-8.832231 6.331769 0.505459 18
-8.794684 6.340947 0.506884 15
-8.747748 6.342508 0.508932 15
-8.697757 6.341323 0.511187 16
-8.660334 6.349835 0.512607 14
-8.622933 6.358151 0.514024 13
-8.588658 6.368789 0.515233 14
-8.552237 6.375575 0.516639 16
-8.505649 6.375709 0.518677 16
-8.464352 6.381815 0.520304 16
-8.420973 6.384004 0.522130 15
-8.386831 6.393668 0.523330 17
-8.346603 6.397996 0.524944 17
-8.306423 6.402110 0.526557 14
-8.276331 6.412715 0.527537 15
-8.239245 6.419052 0.528939 17
-8.196168 6.419950 0.530755 16
-8.162171 6.428514 0.531946 17
-8.116215 6.426331 0.533965 17
-8.079304 6.431857 0.535361 18
-8.043379 6.436131 0.536747 18
-8.009509 6.443955 0.537933 17
-7.977664 6.455346 0.538918 18
-7.938882 6.456401 0.540507 19
-7.905084 6.463706 0.541689 20
-7.868377 6.468127 0.543075 20
-7.834633 6.475084 0.544254 20
-7.792181 6.473664 0.546051 17
-7.755612 6.477507 0.547433 18
-7.724870 6.486675 0.548401 14
-7.691253 6.492929 0.549574 15
-7.663406 6.504569 0.550333 17
-7.626962 6.507721 0.551710 17
-7.587712 6.507889 0.553291 18
-7.554216 6.513464 0.554459 20
-7.520751 6.518873 0.555625 21
-7.481669 6.518463 0.557202 17
-7.451097 6.526356 0.558160 17
-7.413094 6.524614 0.559727 17
-7.383545 6.531245 0.560676 18
-7.354860 6.542489 0.561430 17
-7.324363 6.549785 0.562383 19
-7.291117 6.554051 0.563541 15
-7.252399 6.552366 0.565107 16
-7.221989 6.559189 0.566056 17
-7.198035 6.570780 0.566587 22
-7.162193 6.571495 0.567945 21
-7.128149 6.575861 0.569102 23
-7.087009 6.570332 0.570867 23
-7.059433 6.579339 0.571605 17
-7.032834 6.587336 0.572335 18
-7.002587 6.593130 0.573276 21
-6.974045 6.602634 0.574017 21
-6.936856 6.598313 0.575564 19
-6.910317 6.605794 0.576291 21
-6.874909 6.605002 0.577636 17
-6.847429 6.613077 0.578367 17
-6.808532 6.609778 0.579920 18
-6.775902 6.611497 0.581057 18
-6.745908 6.616100 0.581989 19
-6.719501 6.622784 0.582709 19
-6.692119 6.630180 0.583434 21
-6.666314 6.641345 0.583959 19
-6.632281 6.638449 0.585289 20
-6.608463 6.647737 0.585801 20
-6.580133 6.655447 0.586527 21
-6.550285 6.659119 0.587451 17
-6.522971 6.665765 0.588170 18
-6.483205 6.656679 0.589908 21
-6.456954 6.662254 0.590619 20
-6.427255 6.665358 0.591538 19
-6.400049 6.671473 0.592253 20
-6.373847 6.676695 0.592961 22
-6.341788 6.676245 0.594081 19
-6.308796 6.676398 0.595205 19
-6.286515 6.688360 0.595509 19
-6.262795 6.696295 0.596010 19
-6.235680 6.701683 0.596719 20
-6.206196 6.703746 0.597630 23
-6.181493 6.712101 0.598133 23
-6.154424 6.717132 0.598839 22
-6.125021 6.718812 0.599747 26
-6.097996 6.723595 0.600451 21
-6.065008 6.717802 0.601759 22
-6.038053 6.722329 0.602461 21
-6.013420 6.730000 0.602959 22
-5.984198 6.731027 0.603862 26
-5.954017 6.732617 0.604768 27
-5.927149 6.736660 0.605466 27
-5.900302 6.740584 0.606163 26
-5.876727 6.747011 0.606652 25
-5.829790 6.764256 0.607434 21
-5.800771 6.764421 0.608330 24
-5.774000 6.767789 0.609023 25
-5.746070 6.767038 0.609913 24
-5.723714 6.776868 0.610199 26
-5.695993 6.780551 0.610893 30
-5.668162 6.779450 0.611780 28
-5.637226 6.775500 0.612873 21
-5.617019 6.788298 0.612953 21
-5.595662 6.797006 0.613231 27
-5.566947 6.796086 0.614118 28
-5.538284 6.795036 0.615005 29
-5.508659 6.794477 0.615894 25
-5.480100 6.793164 0.616779 30
-5.457772 6.801991 0.617057 28
-5.433378 6.807304 0.617536 27
-5.404917 6.805642 0.618418 24
-5.383598 6.813588 0.618689 24
-5.362264 6.821457 0.618960 18
-5.338878 6.830428 0.619238 17
-5.311497 6.832376 0.619918 17
-5.284209 6.829568 0.620792 19
-5.262871 6.837080 0.621060 17
-5.238546 6.841601 0.621533 29
-5.213208 6.846591 0.622008 29
-5.191850 6.853847 0.622274 23
-5.161792 6.847564 0.623348 23
-5.138409 6.855745 0.623619 31
-5.115167 6.859214 0.624085 26
-5.087153 6.856089 0.624955 21
-5.065825 6.862893 0.625217 29
-5.037896 6.859545 0.626086 30
-5.016373 6.870785 0.626152 30
-4.990347 6.870762 0.626818 31
-4.966176 6.874187 0.627281 30
-4.943823 6.881079 0.627543 30
-4.914288 6.873607 0.628608 30
-4.891963 6.880305 0.628869 26
-4.868886 6.882829 0.629326 29
-4.846553 6.889357 0.629585 28
-4.824210 6.895801 0.629843 28
-4.796665 6.891358 0.630703 30
-4.775370 6.897125 0.630957 30
-4.755776 6.906427 0.631010 29
-4.732389 6.913014 0.631268 27
-4.708992 6.919509 0.631525 31
-4.684319 6.917701 0.632178 33
-4.661344 6.919430 0.632629 33
-4.640640 6.928822 0.632681 35
-4.618272 6.934494 0.632932 34
-4.595317 6.935971 0.633382 35
-4.568701 6.934613 0.634036 33
-4.545314 6.940469 0.634288 33
-4.522958 6.945786 0.634537 30
-4.502163 6.954694 0.634584 33
-4.477716 6.952049 0.635230 33
-4.450232 6.941936 0.636277 30
-4.426392 6.943210 0.636723 30
-4.409113 6.963297 0.636169 38
-4.385252 6.964405 0.636614 34
-4.362456 6.964999 0.637056 35
-4.338640 6.965924 0.637500 35
-4.313382 6.963038 0.638143 33
-4.293571 6.970808 0.638183 31
-4.268373 6.967735 0.638824 28
-4.244650 6.968291 0.639265 28
-4.220952 6.968755 0.639705 27
-4.197278 6.969126 0.640144 27
-4.176403 6.976897 0.640182 30
-4.155828 6.988730 0.640022 31
-4.131851 6.984709 0.640657 31
-4.108227 6.984731 0.641094 28
-4.087298 6.992191 0.641129 30
-4.063701 6.992039 0.641564 31
-4.042747 6.999344 0.641599 32
-4.020472 7.002796 0.641832 34
-3.998199 7.006167 0.642065 30
-3.975708 7.005315 0.642496 33
-3.954708 7.012313 0.642528 30
-3.933684 7.019238 0.642559 31
-3.912636 7.026089 0.642589 33
-3.886698 7.017645 0.643419 30
-3.866859 7.028142 0.643248 30
-3.845780 7.034760 0.643277 30
-3.823502 7.037486 0.643504 33
-3.802391 7.043952 0.643531 34
-3.780107 7.046519 0.643758 33
-3.757828 7.049004 0.643984 31
-3.735554 7.051407 0.644209 34
-3.715454 7.057261 0.644232 32
-3.695333 7.063047 0.644255 32
-3.670881 7.057530 0.644878 33
-3.648630 7.059615 0.645100 33
-3.628500 7.069324 0.644922 32
-3.607279 7.075109 0.644944 31
-3.583977 7.073101 0.645364 31
-3.561725 7.074868 0.645584 34
-3.538478 7.072687 0.646003 34
-3.519226 7.085899 0.645623 35
-3.499012 7.091034 0.645640 37
-3.475788 7.088614 0.646057 34
-3.453551 7.089986 0.646274 35
-3.431322 7.091277 0.646490 34
-3.408179 7.088600 0.646905 30
-3.386892 7.093616 0.646920 26
-3.366483 7.102452 0.646735 31
-3.343383 7.099530 0.647148 30
-3.321190 7.100421 0.647360 33
-3.299862 7.105134 0.647373 26
-3.279359 7.113678 0.647185 29
-3.257985 7.118244 0.647197 34
-3.236850 7.118602 0.647406 34
-3.213857 7.115192 0.647816 27
-3.192478 7.119531 0.647825 30
-3.171084 7.123794 0.647834 30
-3.150436 7.131905 0.647643 30
-3.130492 7.143870 0.647251 34
-3.106082 7.132208 0.648056 33
-3.083925 7.132240 0.648262 27
-3.063899 7.143989 0.647869 33
-3.041728 7.143869 0.648073 34
-3.020928 7.151543 0.647878 36
-2.998760 7.151268 0.648081 33
-2.975955 7.146971 0.648483 33
-2.955104 7.154423 0.648286 31
-2.934042 7.153741 0.648488 30
-2.911920 7.153154 0.648688 27
-2.890411 7.156438 0.648689 29
-2.870636 7.171504 0.648091 31
-2.847358 7.162780 0.648688 29
-2.826370 7.169795 0.648488 28
-2.803180 7.160905 0.649084 28
-2.782698 7.171730 0.648683 30
-2.762151 7.182487 0.648281 30
-2.740540 7.185247 0.648277 31
-2.718919 7.187933 0.648273 28
-2.695874 7.178642 0.648866 24
-2.675816 7.185015 0.648661 28
-2.655278 7.187354 0.648655 23
-2.633430 7.197802 0.648249 30
-2.611767 7.200114 0.648242 26
-2.589289 7.194400 0.648632 26
-2.568027 7.200534 0.648424 25
-2.547814 7.206492 0.648216 29
-2.526482 7.212483 0.648006 26
-2.503682 7.214516 0.647995 17
-2.482713 7.212302 0.648184 22
-2.461640 7.222052 0.647773 27
-2.438806 7.223847 0.647760 26
-2.418433 7.229384 0.647548 29
-2.396660 7.230945 0.647534 27
-2.374617 7.228443 0.647719 28
-2.354440 7.237757 0.647306 28
-2.332639 7.239094 0.647290 27
-2.311057 7.244344 0.647074 30
-2.288769 7.257556 0.646458 30
-2.266508 7.250684 0.646839 32
-2.245754 7.251664 0.646822 32
-2.223905 7.252622 0.646803 30
-2.202361 7.261488 0.646384 31
-2.181713 7.266249 0.646166 34
-2.159813 7.266983 0.646145 32
-2.137911 7.267641 0.646124 33
-2.116106 7.272216 0.645902 33
-2.093259 7.280733 0.645479 33
-2.072478 7.285133 0.645257 32
-2.050398 7.277497 0.645632 35
-2.028547 7.285762 0.645208 31
-2.007678 7.285954 0.645184 30
-1.985743 7.294070 0.644759 31
-1.963750 7.298116 0.644533 30
-1.941775 7.286104 0.645105 29
-1.919731 7.297986 0.644478 27
-1.896622 7.297794 0.644448 30
-1.875607 7.305537 0.644021 30
-1.853437 7.313192 0.643591 28
-1.831538 7.304791 0.643961 28
-1.809411 7.308297 0.643730 26
-1.787258 7.311725 0.643499 30
-1.764956 7.319069 0.643066 27
-1.742600 7.326334 0.642634 31
-1.721899 7.317592 0.643002 30
-1.699659 7.320713 0.642768 30
-1.676110 7.327696 0.642331 31
-1.654192 7.322675 0.642496 30
-1.631685 7.329547 0.642059 31
-1.610454 7.332411 0.641824 30
-1.589433 7.331216 0.641789 29
-1.566816 7.337857 0.641351 31
-1.543301 7.340359 0.641110 30
-1.520871 7.342850 0.640870 30
-1.498998 7.337292 0.641030 30
-1.477356 7.343694 0.640591 29
-1.454557 7.349935 0.640150 34
-1.432370 7.348130 0.640108 30
-1.409156 7.358189 0.639464 27
-1.386189 7.352147 0.639619 30
-1.363249 7.358059 0.639174 33
-1.340260 7.363888 0.638729 30
-1.318025 7.361685 0.638684 30
-1.293726 7.379271 0.637636 35
-1.272294 7.368961 0.637990 35
-1.250271 7.374586 0.637544 33
-1.227749 7.384103 0.636897 33
-1.204038 7.393409 0.636247 34
-1.180101 7.394559 0.635994 35
-1.157760 7.391797 0.635944 30
-1.134407 7.396880 0.635492 35
-1.111604 7.405988 0.634842 36
-1.088149 7.410903 0.634388 37
-1.063527 7.415576 0.633931 34
-1.042234 7.412567 0.633880 34
-1.020951 7.409487 0.633829 33
-0.995661 7.417853 0.633169 31
-0.972026 7.422344 0.632712 32
-0.948349 7.426748 0.632254 34
-0.903932 7.423652 0.631942 53
-0.879508 7.431745 0.631281 33
-0.856365 7.431870 0.631021 27
-0.831142 7.443718 0.630157 30
-0.810035 7.431872 0.630499 32
-0.786135 7.435678 0.630036 31
-0.764048 7.435677 0.629777 30
-0.738595 7.447163 0.628909 33
-0.715317 7.446781 0.628645 32
-0.692797 7.442396 0.628582 36
-0.667941 7.449684 0.627914 35
-0.642222 7.460792 0.627043 32
-0.620464 7.452240 0.627179 31
-0.595451 7.459249 0.626508 35
-0.572050 7.458352 0.626239 34
-0.546935 7.465176 0.625567 34
-0.521755 7.471902 0.624894 36
-0.498269 7.470738 0.624623 36
-0.474120 7.477537 0.623952 35
-0.449911 7.484246 0.623279 34
-0.424506 7.490597 0.622603 29
-0.398107 7.500735 0.621723 37
-0.373509 7.503005 0.621247 37
-0.349836 7.501305 0.620971 30
-0.324210 7.507267 0.620291 30
-0.298523 7.513130 0.619610 34
-0.272775 7.518893 0.618928 30
-0.248992 7.516827 0.618650 30
-0.224177 7.518535 0.618168 32
-0.201410 7.512434 0.618091 30
-0.177695 7.514273 0.617612 26
-0.151744 7.519561 0.616926 33
-0.124654 7.528593 0.616036 34
-0.098525 7.529505 0.615547 26
-0.074613 7.526805 0.615263 26
-0.047358 7.539689 0.614172 31
-0.022251 7.540633 0.613684 30
0.002885 7.541481 0.613195 29
0.029211 7.546057 0.612503 30
0.054420 7.546710 0.612013 29
0.080844 7.551081 0.611318 32
0.110869 7.562606 0.610213 30
0.138643 7.570560 0.609315 30
0.164122 7.574969 0.608622 27
0.188324 7.571311 0.608330 30
0.212631 7.571737 0.607838 32
0.238112 7.571690 0.607342 25
0.266177 7.579114 0.606438 19
0.292886 7.578469 0.605935 23
0.316016 7.574737 0.605644 24
0.345568 7.585606 0.604534 28
0.371228 7.585050 0.604033 24
0.400947 7.595679 0.602921 27
0.429410 7.602425 0.602011 30
0.456578 7.605300 0.601304 23
0.483796 7.608065 0.600596 25
0.509665 7.606978 0.600090 25
0.540039 7.621179 0.598774 26
0.570271 7.631076 0.597655 27
0.593426 7.622202 0.597554 28
0.620895 7.624416 0.596841 23
0.649872 7.630238 0.595923 29
0.677446 7.632224 0.595208 24
0.706553 7.637806 0.594288 17
0.731231 7.632159 0.593979 23
0.761954 7.641209 0.592853 24
0.786669 7.635358 0.592542 28
0.820609 7.651534 0.591006 23
0.848489 7.652830 0.590284 26
0.877976 7.657687 0.589358 26
0.909109 7.666090 0.588226 27
0.935989 7.667532 0.587507 22
0.967715 7.679849 0.586174 26
0.997495 7.684204 0.585243 24
1.024087 7.681135 0.584721 24
1.053973 7.685247 0.583788 21
1.080619 7.681958 0.583263 20
1.113939 7.693089 0.581918 27
1.140663 7.689568 0.581391 28
1.169089 7.689561 0.580659 23
1.199257 7.693050 0.579720 21
1.231202 7.700018 0.578576 20
1.264963 7.710446 0.577225 21
1.297095 7.717124 0.576077 26
1.324632 7.717054 0.575345 24
1.356908 7.723464 0.574196 26
1.389269 7.729730 0.573045 25
1.418133 7.728710 0.572303 24
1.451813 7.734105 0.571144 23
1.480769 7.732828 0.570400 23
1.510408 7.735588 0.569456 23
1.541281 7.737615 0.568505 27
1.577767 7.750126 0.566935 27
1.612518 7.758932 0.565570 23
1.641743 7.756998 0.564820 25
1.676665 7.765501 0.563452 18
1.709789 7.770330 0.562288 19
1.742991 7.775010 0.561123 21
1.774343 7.776041 0.560163 15
1.804565 7.777592 0.559209 16
1.836021 7.778355 0.558246 16
1.873414 7.789420 0.556663 15
1.906983 7.793360 0.555492 17
1.947773 7.806865 0.553692 17
1.974341 7.800786 0.553145 17
2.014160 7.814626 0.551349 17
2.046035 7.814490 0.550379 17
2.077957 7.814216 0.549407 15
2.114018 7.820662 0.548021 16
2.146057 7.820093 0.547047 23
2.182281 7.826216 0.545657 17
10.734028 21.775600 -0.302943 73
2.336567 7.862550 0.539255 9
2.337095 7.810331 0.541384 19
2.363004 7.798661 0.541024 21
2.379090 7.774191 0.541502 24
2.398404 7.752287 0.541764 25
2.421969 7.737031 0.541610 20
2.454231 7.735063 0.540624 17
2.486532 7.732951 0.539637 19
2.518872 7.730696 0.538648 16
2.573473 7.761490 0.535578 4
2.704295 7.904579 0.525429 15
2.739617 7.904773 0.524225 18
2.774996 7.904805 0.523019 17
2.814970 7.911249 0.521395 18
2.852767 7.914218 0.519978 16
2.895224 7.923552 0.518142 17
2.933200 7.926145 0.516722 18
2.968938 7.925301 0.515508 19
3.007056 7.927539 0.514085 17
3.049922 7.936076 0.512242 17
3.088212 7.937934 0.510815 17
3.130081 7.946944 0.508977 18
3.172065 7.955753 0.507138 18
3.215380 7.963457 0.505287 17
3.255244 7.963633 0.503845 18
3.293961 7.964528 0.502409 17
3.332748 7.965237 0.500973 19
3.376455 7.972108 0.499115 18
3.422711 7.981923 0.497046 17
3.470326 7.995605 0.494774 19
3.509482 7.995496 0.493330 19
3.547456 7.991099 0.492085 18
3.594172 8.000009 0.490008 16
3.634811 8.003408 0.488358 14
3.681761 8.011860 0.486277 16
3.728838 8.020069 0.484194 14
3.776040 8.028034 0.482108 15
3.820833 8.032668 0.480231 15
3.864498 8.038091 0.478362 14
3.905611 8.035112 0.476892 15
3.955818 8.045202 0.474587 15
4.002357 8.053015 0.472502 16
4.052833 8.062591 0.470193 14
4.100851 8.068866 0.468093 15
4.143767 8.068841 0.466412 15
4.189377 8.071619 0.464519 15
4.237710 8.077170 0.462412 17
4.295313 8.090372 0.459659 16
4.347965 8.102462 0.457136 15
4.394025 8.104231 0.455233 21
4.436071 8.098709 0.453741 21
4.490334 8.108899 0.451201 14
4.548884 8.125833 0.448245 16
4.598057 8.129543 0.446122 15
4.647335 8.132997 0.443997 17
4.695469 8.137355 0.441881 15
4.746199 8.139132 0.439740 15
4.804013 8.150521 0.436972 15
4.861987 8.161595 0.434202 15
4.917357 8.169466 0.431640 15
4.964545 8.168413 0.429713 16
5.016123 8.174066 0.427371 16
5.074653 8.183940 0.424590 15
5.141744 8.202030 0.421168 14
5.190617 8.198638 0.419220 14
5.238303 8.196240 0.417281 16
5.303055 8.210493 0.414063 17
5.365151 8.221576 0.411055 17
5.424560 8.229516 0.408257 16
5.481251 8.234343 0.405669 16
5.529450 8.230533 0.403718 15
5.599498 8.249924 0.400071 16
5.656573 8.253814 0.397475 16
5.716667 8.260139 0.394662 16
5.781446 8.272959 0.391432 14
5.844748 8.281338 0.388401 18
5.908202 8.289363 0.385366 15
5.965930 8.291621 0.382755 15
6.032612 8.301653 0.379500 16
6.106650 8.315271 0.375800 19
6.163505 8.317909 0.373194 18
6.230670 8.326818 0.369930 15
6.297995 8.335345 0.366661 15
6.371466 8.348780 0.362961 16
6.433119 8.351256 0.360115 13
6.494890 8.353391 0.357266 14
6.565842 8.363022 0.353770 14
6.643023 8.377451 0.349841 12
6.702172 8.375881 0.347197 11
6.788850 8.397217 0.342615 12
6.854380 8.400043 0.339535 11
6.909545 8.396373 0.337112 8
6.967857 8.394967 0.334471 8
6.988750 8.357117 0.334600 6
6.972917 8.294531 0.337129 5
6.973535 8.243162 0.338567 7
7.037360 8.240443 0.335676 11
7.090664 8.231448 0.333444 11
7.162779 8.237077 0.329914 13
7.241315 8.247236 0.325948 12
7.303044 8.246239 0.323074 12
7.378743 8.253093 0.319316 12
7.468516 8.267624 0.314674 12
7.541398 8.271109 0.311126 12
7.629039 8.287938 0.306505 13
7.708611 8.295353 0.302515 13
7.786429 8.298203 0.298723 15
7.879142 8.314219 0.293857 15
7.957957 8.321914 0.289870 13
8.049809 8.338620 0.285011 15
8.141220 8.348918 0.280333 15
8.217324 8.352837 0.276551 15
8.320804 8.373180 0.271010 15
8.405033 8.378980 0.266768 13
8.499209 8.391201 0.261869 13
8.593596 8.402855 0.256966 13
8.678360 8.407086 0.252711 13
8.787569 8.424850 0.246909 15
8.875995 8.430242 0.242427 13
8.974489 8.441854 0.237285 16
9.075202 8.457033 0.231938 15
9.184071 8.474134 0.226131 15
9.279898 8.481706 0.221192 13
9.385905 8.495309 0.215592 13
9.500848 8.516839 0.209349 13
9.590605 8.518222 0.204832 13
9.708654 8.534385 0.198541 13
9.803443 8.534689 0.193777 14
9.924028 8.553625 0.187273 14
10.026683 8.563239 0.181878 13
10.149833 8.584988 0.175161 9
10.250848 8.589094 0.169955 8
10.390750 8.613514 0.162310 9
10.504485 8.626764 0.156233 9
10.602713 8.626775 0.151229 6
10.656630 8.599376 0.149078 4
10.707081 8.569642 0.147144 4
10.747175 8.533533 0.145869 4
10.776847 8.491156 0.145253 4
10.804229 8.444421 0.144836 4
10.823236 8.395814 0.144879 4
10.826926 8.341436 0.145824 4
10.862894 8.302691 0.144764 4
10.891793 8.259851 0.144145 3
10.912325 8.215236 0.143986 4
10.926974 8.164429 0.144249 3
10.951915 8.119399 0.143850 3
10.973195 8.072365 0.143670 4
10.983775 8.019550 0.144154 4
10.978957 7.842493 0.147824 63
11.023990 7.808424 0.146094 53
11.119493 7.684818 0.143336 1
11.139196 7.637312 0.143155 1
11.155160 7.587955 0.143195 1
11.170939 7.538568 0.143236 1
11.165052 7.478531 0.144611 1
11.182888 7.433212 0.144450 1
11.171832 7.373876 0.146070 1
11.215600 7.338398 0.144330 1
11.255675 7.300971 0.142811 1
11.249810 7.238826 0.144169 1
11.270436 7.194985 0.143784 1
11.197825 7.105000 0.149182 1
11.240832 7.069055 0.147439 1
11.236514 7.011331 0.148598 1
11.261067 6.966873 0.147971 1
11.282860 6.918374 0.147547 1
11.314402 6.876967 0.146471 1
11.304578 6.820057 0.147877 1
11.309170 6.769658 0.148388 1
11.332907 6.724885 0.147759 1
11.360166 6.681585 0.146905 1
11.380911 6.632724 0.146479 1
11.378401 6.576862 0.147419 1
11.396832 6.532598 0.147034 1
11.393909 6.476831 0.147975 1
11.390761 6.421153 0.148918 1
11.417023 6.377499 0.148062 1
11.435723 6.330770 0.147656 1
11.439402 6.278111 0.148150 1
11.446595 6.226946 0.148419 1
11.479670 6.185874 0.147112 1
11.426831 6.111813 0.150987 1
11.499740 6.088612 0.147219 1
11.446380 6.014964 0.151099 1
11.456326 5.965357 0.151145 1
11.454842 5.911616 0.151869 1
11.449391 5.856583 0.152820 1
11.488826 5.817840 0.151058 1
11.505572 5.770864 0.150652 1
11.529691 5.726475 0.149794 1
11.515938 5.668878 0.151198 1
4.434805 3.135531 0.576987 0
4.317156 3.071711 0.584281 0
4.225706 3.017447 0.589995 0
4.171947 2.976152 0.593443 0
4.159814 2.948648 0.594395 0
4.174219 2.929682 0.593756 0
4.093268 2.880870 0.598804 0
4.080416 2.854895 0.599769 0
4.071599 2.829139 0.600499 0
4.077971 2.808073 0.600318 1
4.061303 2.780156 0.601505 1
4.046782 2.730295 0.602742 2
4.045131 2.707121 0.603019 3
4.043391 2.683979 0.603296 4
4.041563 2.660870 0.603574 3
4.047348 2.639909 0.603395 2
4.041497 2.615796 0.603902 2
4.035551 2.591744 0.604410 2
4.037233 2.569788 0.604460 2
4.046566 2.549847 0.604053 2
4.040358 2.525899 0.604561 2
4.037664 2.504037 0.604850 2
4.042642 2.484139 0.604681 2
4.043932 2.462225 0.604732 1
4.049024 2.441258 0.604554 1
4.057928 2.421197 0.604146 2
4.058989 2.399271 0.604198 2
4.056078 2.376457 0.604479 6
4.060871 2.355448 0.604301 2
4.069488 2.335292 0.603892 2
4.062435 2.311668 0.604405 7
4.067001 2.290637 0.604227 1
4.083213 2.272076 0.603357 1
4.087642 2.250973 0.603179 1
4.103516 2.233317 0.602317 1
4.107809 2.212143 0.602138 1
4.104192 2.189405 0.602421 1
4.116172 2.169751 0.601780 1
4.116320 2.147786 0.601832 1
4.124239 2.127301 0.601422 1
4.136017 2.107496 0.600780 1
4.135940 2.085503 0.600832 1
4.151515 2.066294 0.599958 1
4.155224 2.044954 0.599778 1
4.154922 2.022935 0.599830 1
4.158480 2.001583 0.599651 1
4.173789 1.982131 0.598775 1
4.181149 1.961338 0.598363 1
4.196331 1.941725 0.597486 1
4.203391 1.921900 0.597082 1
4.210546 1.900963 0.596669 1
4.213678 1.879417 0.596488 1
4.220689 1.858417 0.596075 1
4.239497 1.839003 0.594962 1
4.250329 1.818413 0.594315 1
4.253172 1.796729 0.594134 1
4.255939 1.775035 0.593952 1
4.250705 1.752359 0.594238 1
4.265213 1.732092 0.593356 1
4.287588 1.712651 0.592007 1
4.290062 1.690838 0.591825 1
4.304369 1.670309 0.590941 1
4.342436 1.652193 0.588653 1
4.352644 1.630995 0.588001 1
4.366755 1.610124 0.587115 0
4.376821 1.588786 0.586463 0
4.366932 1.565576 0.586982 0
4.384707 1.545986 0.585869 0
4.414452 1.526177 0.584043 0
4.444135 1.506168 0.582214 0
4.477737 1.486265 0.580149 0
4.487384 1.464375 0.579493 0
4.512889 1.443540 0.577895 0
4.550281 1.423329 0.575591 0
4.579638 1.402359 0.573755 0
4.704593 1.386887 0.566266 0
12.324404 1.540751 0.114486 1
12.330118 1.493518 0.113859 1
12.315801 1.443125 0.114394 1
12.301236 1.395327 0.114950 1
12.302540 1.345541 0.114540 1
12.271733 1.295067 0.116024 1
12.432425 1.245739 0.106120 1
12.241528 1.195239 0.117102 1
12.230155 1.145532 0.117406 1
12.174705 1.093112 0.120300 1
12.174954 1.043770 0.119895 1
12.151074 0.994420 0.120914 1
12.158965 0.945136 0.120035 1
12.178663 0.895717 0.118443 1
12.134497 0.504670 0.117382 1
12.046836 0.407306 0.121574 8
12.040814 0.361039 0.121435 9
12.068063 0.264099 0.118746 1
12.049335 0.213570 0.119284 1
12.034703 0.167819 0.119625 1
11.976941 0.075973 0.121965 4
11.957708 0.028428 0.122529 7
11.938313 -0.018993 0.123094 4
11.898851 -0.064776 0.124860 1
11.994371 -0.123506 0.118447 1
11.974459 -0.170885 0.119013 1
11.970510 -0.217089 0.118639 1
-21.104862 1.042387 -0.131092 2
-21.132566 1.106036 -0.132164 2
-21.112110 1.172763 -0.130479 2
-21.135303 1.243267 -0.131267 2
-21.126348 1.310059 -0.130265 2
-21.280861 1.380098 -0.138572 2
-21.175610 1.445072 -0.132121 2
-21.329628 1.516369 -0.140418 2
-21.327703 1.583971 -0.139866 2
-21.337631 1.648594 -0.140021 2
-21.311302 1.715326 -0.138110 2
-21.360556 1.784989 -0.140502 2
-21.377644 1.853585 -0.141081 2
-21.494213 1.927093 -0.147313 2
-21.502819 1.995884 -0.147436 2
-21.503208 2.064307 -0.147106 2
-21.539240 2.134843 -0.148809 2
-21.539143 2.203420 -0.148480 2
-21.550758 2.272794 -0.148827 2
-21.609941 2.345561 -0.151878 2
-21.688768 2.420201 -0.156054 2
-21.675983 2.485005 -0.155072 2
-21.706778 2.553207 -0.156568 2
-21.820637 2.631991 -0.162760 2
-21.743195 2.695128 -0.158150 2
-21.848532 2.774158 -0.163885 2
-21.878002 2.846900 -0.165346 2
-21.911182 2.920254 -0.167029 2
-21.778788 3.117119 -0.159064 45
-21.989532 3.352116 -0.170600 2
-22.008949 3.425382 -0.171603 2
-22.052313 3.498278 -0.173976 2
-22.066786 3.574951 -0.174724 5
-22.065130 3.649669 -0.174579 7
-22.095806 3.721687 -0.176276 7
-22.114357 3.792288 -0.177302 7
-22.084717 3.859797 -0.175622 5
-21.979767 3.916157 -0.169706 7
-21.807524 3.961767 -0.160007 15
-21.603626 4.001369 -0.148536 20
-21.395748 4.038965 -0.136853 17
-21.187851 4.075147 -0.125182 15
-20.991219 4.115176 -0.114164 15
-20.799044 4.151179 -0.103405 16
-20.611341 4.183299 -0.092906 16
-20.419701 4.213522 -0.082194 21
-20.231432 4.246398 -0.071689 15
-20.058304 4.284016 -0.062057 18
-19.886307 4.314152 -0.052484 18
-19.705877 4.344799 -0.042453 18
-19.525454 4.374228 -0.032432 17
-19.356203 4.407781 -0.023061 17
-19.192062 4.434909 -0.013969 19
-19.015589 4.461576 -0.004198 21
-18.866516 4.492725 0.004015 16
-18.694601 4.515013 0.013523 16
-18.529917 4.540762 0.022603 16
-18.373064 4.567107 0.031232 16
-18.231827 4.595857 0.038970 16
-18.078270 4.623844 0.047385 15
-17.905899 4.643508 0.056870 18
-17.777020 4.669215 0.063901 20
-17.639725 4.695009 0.071387 16
-17.502445 4.719889 0.078865 20
-17.384586 4.748584 0.085236 17
-17.243454 4.770747 0.092920 19
-17.133345 4.799752 0.098837 19
-17.030962 4.830008 0.104309 15
-17.017492 4.882586 0.104724 12
-17.081795 4.952741 0.100727 10
-17.010693 4.987481 0.104413 17
-16.907970 5.016097 0.109872 15
-16.766705 5.033524 0.117517 17
-16.644747 5.055341 0.124058 19
-16.522818 5.076357 0.130594 17
-16.389397 5.093294 0.137779 19
-16.282902 5.117091 0.143426 17
-16.157246 5.134599 0.150160 22
-15.936708 5.176303 0.161861 21
-15.818838 5.193758 0.168139 21
-15.697199 5.209269 0.174630 24
-15.603057 5.229904 0.179568 22
-15.485328 5.245133 0.185828 21
-15.390494 5.266864 0.190774 22
-15.265263 5.278183 0.197459 22
-15.181886 5.302305 0.201741 22
-15.060575 5.313379 0.208195 22
-14.977232 5.336308 0.212468 22
-14.871186 5.351040 0.218041 22
-14.768976 5.366376 0.223390 22
-14.678143 5.384966 0.228083 22
-14.576024 5.399023 0.233423 21
-14.481495 5.415082 0.238323 24
-14.383247 5.429190 0.243435 21
-14.303837 5.449453 0.247458 21
-14.198953 5.457489 0.252977 21
-14.108361 5.472526 0.257641 19
-14.025299 5.489777 0.261867 22
-13.934790 5.503686 0.266522 22
-13.851796 5.519861 0.270739 20
-13.757653 5.531208 0.275601 22
-13.674745 5.546297 0.279810 20
-13.595592 5.562324 0.283798 19
-13.505335 5.573431 0.288430 19
-13.422556 5.586939 0.292626 19
-13.347228 5.602924 0.296386 23
-13.264535 5.615415 0.300574 22
-13.182703 5.625426 0.304742 20
-13.114864 5.643041 0.308060 23
-13.021274 5.649384 0.312881 23
-12.952688 5.667994 0.316206 20
-12.882082 5.680775 0.319713 20
-12.799699 5.690265 0.323876 21
-12.728360 5.704044 0.327391 18
-12.653404 5.715767 0.331116 21
-12.578498 5.727025 0.334838 18
-12.510928 5.741097 0.338127 18
-12.447026 5.756409 0.341198 18
-12.379517 5.769667 0.344480 20
-12.293919 5.774122 0.348831 21
-12.222892 5.784801 0.352320 18
-12.166368 5.801856 0.354949 18
-12.084603 5.806563 0.359074 20
-12.020935 5.819401 0.362125 18
-11.961740 5.831849 0.364945 19
-11.887370 5.838681 0.368632 18
-11.815811 5.848539 0.372113 19
-11.763894 5.863412 0.374498 16
-11.704845 5.874415 0.377307 19
-11.634285 5.881363 0.380766 19
-11.566499 5.891370 0.384021 16
-11.513832 5.906592 0.386407 15
-11.451400 5.914330 0.389418 20
-11.395240 5.927057 0.392012 16
-11.320582 5.931765 0.395680 15
-11.264508 5.943758 0.398268 17
-11.212851 5.955694 0.400629 20
-11.149810 5.963244 0.403637 33
-11.093841 5.974242 0.406217 21
-11.034409 5.982985 0.409007 16
-10.988998 5.999125 0.410944 18
-10.922669 6.003308 0.414153 19
-10.865984 6.014531 0.416734 18
-10.804148 6.018369 0.419714 17
-10.752781 6.027809 0.422054 15
-10.704028 6.040487 0.424192 20
-10.647509 6.050383 0.426762 19
-10.591918 6.058426 0.429318 19
-10.539815 6.068178 0.431660 17
-10.485206 6.074093 0.434200 18
-10.440923 6.085875 0.436103 17
-10.388042 6.096223 0.438449 17
-10.332683 6.102709 0.440993 16
-10.276488 6.110322 0.443545 17
-10.228927 6.118921 0.445650 16
-10.181400 6.127260 0.447754 16
-10.126253 6.132510 0.450288 16
-10.074541 6.139578 0.452608 20
-10.028710 6.152060 0.454515 17
-9.977986 6.157147 0.456820 16
-9.926415 6.163346 0.459134 17
-9.878242 6.171434 0.461234 17
-9.836778 6.183648 0.462912 17
-9.788671 6.191214 0.465008 16
-9.730651 6.191842 0.467733 15
-9.689279 6.203297 0.469405 15
-9.647923 6.214526 0.471074 13
-9.599990 6.221016 0.473162 11
-9.556307 6.228179 0.475028 13
-9.495344 6.225032 0.477951 13
-9.450858 6.232977 0.479822 16
-9.416203 6.247581 0.481063 15
-9.637339 6.220653 0.525547 30
-9.589398 6.227066 0.527425 28
-9.548080 6.237753 0.528928 26
-9.506781 6.248217 0.530429 26
-9.462230 6.256160 0.532114 27
-9.407928 6.256936 0.534357 28
-9.363477 6.264352 0.536039 23
-9.325557 6.276182 0.537345 21
-9.270532 6.277381 0.539591 21
-9.229438 6.286395 0.541080 20
-9.192516 6.296288 0.542372 28
-9.148256 6.302500 0.544044 28
-9.110451 6.313241 0.545342 31
-9.059871 6.314194 0.547381 33
-9.012560 6.317266 0.549233 28
-8.971675 6.324914 0.550711 24
-8.930822 6.332340 0.552188 28
-8.886840 6.337105 0.553848 34
-8.852373 6.348986 0.554950 31
-8.803113 6.347179 0.556968 31
-8.759283 6.351238 0.558623 29
-8.718637 6.357543 0.560090 32
-8.684269 6.368620 0.561186 20
-8.646796 6.377016 0.562465 27
-8.600038 6.377664 0.564298 32
-8.559545 6.383108 0.565758 30
-8.522180 6.390874 0.567032 28
-8.478689 6.393345 0.568674 25
-8.438328 6.398139 0.570130 30
-8.391896 6.397575 0.571953 33
-8.358690 6.405965 0.573028 34
-8.330635 6.420489 0.573741 30
-8.293462 6.427074 0.575005 33
-8.259342 6.436080 0.576084 32
-8.219210 6.439667 0.577530 32
-8.176126 6.440406 0.579158 36
-8.142097 6.448844 0.580233 31
-8.102115 6.451802 0.581674 32
-8.068140 6.459878 0.582745 31
-8.028250 6.462432 0.584183 28
-7.991374 6.467460 0.585435 32
-7.951588 6.469602 0.586870 30
-7.918696 6.475906 0.587928 31
-7.884871 6.483087 0.588992 33
-7.839386 6.479191 0.590789 33
-7.802733 6.483255 0.592033 27
-7.774828 6.495373 0.592727 30
-7.744019 6.504606 0.593602 25
-7.713216 6.513690 0.594477 24
-7.677639 6.516075 0.595709 26
-7.646871 6.524849 0.596581 28
-7.612292 6.531666 0.597641 28
-7.573020 6.531709 0.599059 24
-7.542318 6.539997 0.599927 30
-7.501299 6.535863 0.601517 28
-7.470660 6.543824 0.602383 28
-7.433455 6.546901 0.603619 28
-7.406624 6.556451 0.604292 30
-7.376032 6.563964 0.605154 30
-7.337132 6.562705 0.606562 31
-7.306599 6.569898 0.607421 19
-7.281591 6.582736 0.607914 27
-7.248325 6.586753 0.608953 27
-7.209628 6.584779 0.610355 32
-7.171985 6.581694 0.611749 33
-7.138874 6.585188 0.612784 34
-7.110232 6.595303 0.613460 30
-7.080851 6.600543 0.614305 29
-7.053195 6.609500 0.614973 24
-7.012174 6.603482 0.616548 30
-6.987234 6.615122 0.617032 31
-6.956969 6.620679 0.617878 32
-6.921443 6.620098 0.619086 28
-6.893877 6.628359 0.619748 25
-6.856812 6.623577 0.621129 28
-6.829295 6.631558 0.621789 28
-6.793981 6.630315 0.622991 26
-6.766504 6.638022 0.623649 27
-6.736454 6.642556 0.624487 26
-6.703862 6.643887 0.625505 29
-6.673877 6.648129 0.626340 29
-6.649014 6.658389 0.626813 28
-6.621600 6.665457 0.627465 25
-6.590134 6.665401 0.628473 27
-6.552699 6.659791 0.629847 26
-6.527881 6.669559 0.630315 28
-6.498064 6.672977 0.631144 26
-6.468279 6.676257 0.631972 21
-6.441991 6.681755 0.632613 22
-6.409800 6.681623 0.633620 21
-6.381571 6.688422 0.634269 21
-6.354347 6.694323 0.634912 22
-6.334419 6.709625 0.635013 19
-6.309604 6.718493 0.635475 20
-6.277565 6.717684 0.636476 27
-6.251372 6.722372 0.637110 20
-6.219429 6.721279 0.638109 27
-6.189917 6.723248 0.638926 30
-6.160444 6.725081 0.639743 28
-6.129660 6.722820 0.640733 26
-6.102616 6.727618 0.641368 26
-6.079241 6.739513 0.641646 24
-6.053213 6.743371 0.642274 22
-6.023894 6.744566 0.643085 26
-5.990030 6.739082 0.644255 22
-5.966386 6.745854 0.644700 28
-5.939466 6.749939 0.645329 26
-5.911560 6.754596 0.645961 26
-5.889176 6.765049 0.646229 26
-5.839883 6.779058 0.647121 29
-5.815236 6.785910 0.647566 25
-5.794991 6.799330 0.647651 23
-5.769143 6.801987 0.648270 22
-5.737948 6.798497 0.649250 24
-5.712310 6.805588 0.649695 26
-5.681223 6.801822 0.650673 21
-5.655509 6.804011 0.651288 21
-5.629820 6.806094 0.651901 17
-5.597888 6.802567 0.652880 21
-5.573370 6.808440 0.653317 22
-5.548855 6.814211 0.653753 23
-5.528512 6.826702 0.653831 25
-5.501908 6.828871 0.654444 23
-5.475333 6.830926 0.655057 19
-5.449806 6.832258 0.655664 21
-5.427363 6.840965 0.655918 24
-5.402878 6.846141 0.656349 21
-5.380411 6.854670 0.656601 17
-5.349923 6.849277 0.657566 16
-5.325480 6.854142 0.657995 18
-5.299069 6.855434 0.658601 18
-5.274654 6.860093 0.659028 17
-5.250247 6.864653 0.659455 21
-5.223908 6.865621 0.660058 21
-5.198628 6.865911 0.660658 23
-5.174274 6.870166 0.661082 22
-5.151834 6.877836 0.661327 23
-5.128515 6.881348 0.661746 22
-5.101445 6.877718 0.662520 21
-5.074250 6.878594 0.663122 23
-5.050800 6.886427 0.663367 24
-5.027552 6.889552 0.663783 22
-5.004317 6.892588 0.664198 25
-4.974607 6.885387 0.665150 20
-4.948598 6.885180 0.665744 21
-4.926217 6.892004 0.665982 21
-4.905606 6.902321 0.666042 20
-4.878619 6.902326 0.666637 21
-4.850947 6.898119 0.667406 21
-4.826828 6.900981 0.667819 21
-4.807220 6.910454 0.667872 21
-4.782420 6.909041 0.668459 21
-4.760043 6.915243 0.668691 21
-4.736622 6.921844 0.668926 24
-4.712545 6.924249 0.669335 25
-4.691191 6.929712 0.669563 22
-4.666100 6.932407 0.669974 24
-4.646388 6.941347 0.670023 25
-4.621750 6.939278 0.670604 28
-4.599936 6.948993 0.670657 26
-4.577523 6.954511 0.670884 25
-4.556144 6.959492 0.671108 27
-4.532138 6.961176 0.671511 24
-4.503975 6.955858 0.672271 27
-4.476925 6.949975 0.673027 24
-4.459198 6.966097 0.672719 21
-4.436803 6.971091 0.672942 25
-4.415919 6.979699 0.672987 27
-4.390036 6.972999 0.673738 25
-4.369146 6.981443 0.673781 27
-4.345270 6.982389 0.674179 27
-4.322882 6.986959 0.674398 21
-4.300491 6.991446 0.674617 21
-4.274827 6.984262 0.675364 17
-4.252471 6.988572 0.675581 20
-4.230114 6.992798 0.675798 21
-4.209156 7.000684 0.675837 19
-4.188169 7.008497 0.675876 23
-4.161659 7.001228 0.676621 24
-4.139310 7.005118 0.676835 21
-4.118309 7.012687 0.676871 21
-4.095947 7.016416 0.677084 24
-4.073585 7.020062 0.677296 21
-4.051223 7.023626 0.677507 20
-4.029915 7.026747 0.677716 22
-4.008610 7.029792 0.677925 24
-3.987524 7.036905 0.677957 26
-3.965155 7.040151 0.678166 23
-3.942789 7.043314 0.678374 21
-3.920425 7.046395 0.678581 24
-3.899281 7.053200 0.678611 25
-3.876910 7.056120 0.678817 26
-3.853482 7.059289 0.679024 26
-3.828763 7.054404 0.679581 27
-3.808651 7.060566 0.679607 28
-3.789670 7.070488 0.679456 24
-3.767305 7.073006 0.679659 25
-3.743819 7.071607 0.680037 27
-3.721477 7.073957 0.680239 27
-3.700238 7.080067 0.680263 27
-3.678978 7.086103 0.680287 27
-3.656626 7.088215 0.680486 27
-3.635338 7.094099 0.680508 26
-3.609852 7.084479 0.681236 27
-3.589608 7.094061 0.681080 26
-3.568299 7.099710 0.681100 28
-3.545968 7.101418 0.681296 27
-3.525701 7.106642 0.681315 29
-3.502394 7.104320 0.681686 28
-3.481050 7.109665 0.681704 26
-3.456837 7.103292 0.682250 27
-3.435498 7.108478 0.682266 24
-3.414140 7.113590 0.682282 23
-3.390945 7.110845 0.682650 21
-3.370475 7.119695 0.682488 30
-3.349961 7.128478 0.682326 29
-3.325927 7.121589 0.682868 24
-3.306235 7.134125 0.682528 19
-3.283105 7.130973 0.682893 25
-3.260842 7.131643 0.683080 26
-3.239404 7.136145 0.683091 22
-3.219826 7.144268 0.682924 22
-3.198344 7.148627 0.682934 22
-3.173751 7.137229 0.683648 21
-3.152295 7.141427 0.683656 24
-3.131570 7.149476 0.683487 22
-3.110804 7.157454 0.683318 22
-3.089278 7.161433 0.683324 20
-3.066326 7.157469 0.683682 24
-3.044107 7.157356 0.683864 22
-3.023259 7.165040 0.683692 25
-3.001707 7.168713 0.683696 23
-2.981871 7.176075 0.683523 25
-2.958368 7.167768 0.684054 20
-2.937429 7.175161 0.683879 21
-2.914012 7.166686 0.684409 20
-2.893050 7.173928 0.684234 21
-2.872050 7.181100 0.684058 25
-2.850442 7.184245 0.684057 18
-2.828268 7.183356 0.684232 24
-2.806653 7.186348 0.684230 19
-2.785554 7.193226 0.684051 22
-2.762364 7.184179 0.684577 26
-2.740746 7.186941 0.684573 26
-2.719714 7.185528 0.684745 23
-2.699037 7.196077 0.684388 23
-2.678295 7.206558 0.684030 22
-2.656155 7.205055 0.684200 24
-2.633603 7.199500 0.684545 20
-2.611932 7.201812 0.684538 19
-2.591060 7.212000 0.684177 24
-2.569735 7.218141 0.683992 24
-2.548375 7.224208 0.683806 25
-2.525896 7.218264 0.684149 20
-2.505247 7.220105 0.684139 19
-2.484592 7.221878 0.684128 21
-2.462398 7.231724 0.683763 24
-2.441230 7.241406 0.683398 22
-2.418535 7.231091 0.683914 26
-2.397593 7.244612 0.683371 24
-2.376031 7.250087 0.683180 26
-2.355278 7.251431 0.683166 18
-2.333903 7.260749 0.682797 20
-2.311797 7.258025 0.682957 23
-2.290134 7.263205 0.682764 27
-2.268439 7.268309 0.682570 26
-2.247626 7.269296 0.682553 27
-2.224787 7.274299 0.682357 27
-2.202394 7.263205 0.682866 27
-2.180785 7.271999 0.682493 29
-2.159960 7.272695 0.682474 28
-2.138263 7.281343 0.682099 31
-2.116310 7.281926 0.682077 28
-2.094270 7.278436 0.682231 26
-2.072327 7.278865 0.682208 27
-2.050612 7.295201 0.681478 29
-2.028741 7.307465 0.680924 27
-2.006757 7.315658 0.680545 28
-1.984653 7.307789 0.680872 29
-1.962610 7.311831 0.680669 27
-1.940527 7.319793 0.680289 26
-1.918389 7.327677 0.679908 24
-1.897381 7.327503 0.679881 27
-1.875428 7.315258 0.680382 27
-1.853089 7.330905 0.679645 22
-1.831127 7.322501 0.679968 18
-1.808651 7.337992 0.679230 22
-1.786502 7.337423 0.679199 25
-1.764478 7.332784 0.679343 25
-1.742211 7.336055 0.679133 27
-1.719616 7.347235 0.678569 27
-1.697106 7.354342 0.678181 26
-1.674900 7.353384 0.678146 27
-1.652699 7.352349 0.678111 25
-1.630294 7.355227 0.677898 24
-1.607865 7.358026 0.677684 27
-1.585882 7.352767 0.677823 27
-1.563186 7.359398 0.677431 25
-1.541813 7.362034 0.677217 26
-1.519307 7.364521 0.677001 21
-1.497357 7.358957 0.677138 24
-1.474530 7.365271 0.676743 27
-1.451970 7.367520 0.676525 27
-1.430052 7.361724 0.676660 26
-1.406787 7.371778 0.676086 23
-1.384523 7.369807 0.676042 33
-1.362262 7.379799 0.675469 28
-1.339198 7.385627 0.675070 26
-1.316885 7.383420 0.675025 20
-1.293753 7.389084 0.674624 26
-1.271002 7.390691 0.674400 30
-1.246906 7.404132 0.673643 29
-1.224074 7.405573 0.673418 30
-1.203281 7.399128 0.673549 30
-1.179958 7.404380 0.673145 27
-1.155596 7.417478 0.672385 27
-1.133174 7.414629 0.672334 30
-1.109190 7.423588 0.671751 29
-1.086209 7.424537 0.671521 30
-1.062660 7.429362 0.671113 30
-1.039066 7.434102 0.670704 30
-1.016553 7.438919 0.670298 30
-0.992873 7.443489 0.669888 27
-0.970361 7.440073 0.669832 28
-0.947241 7.440526 0.669598 26
-0.899014 7.453012 0.668595 30
-0.875148 7.457150 0.668181 27
-0.850564 7.465139 0.667588 27
-0.826601 7.469098 0.667173 26
-0.804001 7.465101 0.667113 27
-0.780397 7.473026 0.666521 24
-0.758186 7.473007 0.666284 24
-0.735572 7.468771 0.666222 27
-0.710331 7.472086 0.665799 25
-0.686951 7.471604 0.665558 29
-0.662341 7.483020 0.664784 26
-0.638896 7.482366 0.664540 21
-0.614308 7.481392 0.664293 25
-0.590841 7.480564 0.664048 27
-0.566526 7.483558 0.663624 27
-0.540752 7.498422 0.662668 29
-0.520050 7.489777 0.662781 30
-0.493868 7.500304 0.661998 32
-0.470270 7.499040 0.661749 32
-0.442810 7.509103 0.660961 29
-0.415475 7.523211 0.659997 30
-0.392896 7.521938 0.659749 34
-0.369168 7.520309 0.659498 30
-0.340454 7.533828 0.658527 29
-0.317631 7.528134 0.658452 27
-0.293008 7.534268 0.657844 30
-0.265041 7.543588 0.657049 29
-0.242185 7.537630 0.656972 29
-0.216267 7.543178 0.656358 30
-0.189248 7.552482 0.655564 28
-0.165397 7.554282 0.655131 26
-0.141437 7.551827 0.654872 30
-0.117536 7.553454 0.654438 26
-0.090220 7.558186 0.653815 26
-0.063991 7.563137 0.653196 26
-0.037705 7.567984 0.652575 27
-0.014778 7.565404 0.652317 25
0.013890 7.573540 0.651511 26
0.040332 7.578079 0.650888 28
0.065679 7.582868 0.650268 30
0.092231 7.587203 0.649643 29
0.118839 7.591432 0.649017 30
0.144287 7.591749 0.648570 30
0.169762 7.591968 0.648122 26
0.196592 7.600064 0.647318 27
0.224653 7.607673 0.646509 26
0.248996 7.603796 0.646238 20
0.277051 7.607010 0.645602 21
0.301418 7.602941 0.645330 20
0.325936 7.602958 0.644881 24
0.352952 7.606253 0.644247 26
0.382506 7.612799 0.643427 24
0.408291 7.612106 0.642971 26
0.434303 7.615489 0.642339 28
0.462890 7.622104 0.641521 23
0.490169 7.624850 0.640882 27
0.521688 7.638718 0.639701 29
0.545123 7.634190 0.639426 27
0.572821 7.640782 0.638609 26
0.600316 7.643087 0.637966 28
0.630755 7.652730 0.636962 29
0.658370 7.654802 0.636317 27
0.686031 7.656763 0.635671 25
0.713737 7.658612 0.635024 26
0.742988 7.664052 0.634196 21
0.769284 7.661972 0.633728 27
0.801702 7.674562 0.632535 27
0.826547 7.668568 0.632247 24
0.856039 7.673529 0.631414 29
0.885599 7.678365 0.630580 26
0.916804 7.686748 0.629564 27
0.948522 7.699167 0.628371 29
0.975117 7.696294 0.627896 29
1.003343 7.696971 0.627239 32
1.036036 7.704309 0.626213 30
1.066009 7.708383 0.625372 30
1.093220 7.709224 0.624718 28
1.119977 7.705789 0.624238 31
1.150104 7.709501 0.623394 34
1.176912 7.705843 0.622913 32
1.208844 7.712924 0.621885 28
1.242579 7.723472 0.620674 33
1.271240 7.723058 0.620008 31
1.303420 7.729719 0.618976 32
1.335685 7.736237 0.617944 30
1.366269 7.739028 0.617092 31
1.401070 7.753007 0.615699 31
1.428227 7.748377 0.615209 34
1.460180 7.750174 0.614347 31
1.491011 7.752430 0.613490 30
1.525557 7.761658 0.612268 31
1.559026 7.771342 0.611050 35
1.586371 7.766096 0.610555 32
1.617452 7.767810 0.609694 29
1.654221 7.779971 0.608283 32
1.689228 7.788436 0.607054 26
1.722436 7.793226 0.606006 28
1.751894 7.790852 0.605322 28
1.787159 7.798857 0.604089 25
1.816709 7.796216 0.603403 24
1.850188 7.800426 0.602350 19
1.879815 7.797524 0.601662 20
1.911445 7.797972 0.600789 25
1.947098 7.805215 0.599549 29
1.983658 7.816440 0.598131 25
2.019516 7.823349 0.596888 28
2.056664 7.829389 0.595636 23
2.090680 7.832518 0.594573 24
2.123572 7.836205 0.593517 28
2.155669 7.835606 0.592635 28
2.191953 7.841701 0.591385 29
10.738283 21.781120 -0.161373 64
10.833786 21.774096 -0.163850 84
10.937820 21.780239 -0.167067 64
2.369781 7.915193 0.583605 18
2.370486 7.862849 0.585478 24
2.390155 7.840943 0.585693 39
2.407570 7.815619 0.586092 38
2.431358 7.800331 0.585938 36
2.455092 7.784959 0.585783 29
2.494093 7.792906 0.584335 22
2.524402 7.787322 0.583624 17
2.668536 7.955451 0.573313 12
2.717264 7.975773 0.571117 34
2.725966 7.936216 0.572247 33
2.754664 7.926425 0.571713 24
2.790125 7.926408 0.570623 21
2.821104 7.919650 0.569902 19
2.861216 7.925884 0.568438 25
2.906014 7.938468 0.566603 30
2.946351 7.944294 0.565136 33
2.986788 7.949922 0.563667 30
3.022671 7.948855 0.562568 32
3.060944 7.950862 0.561281 30
3.101641 7.955920 0.559807 35
3.143577 7.964892 0.558155 28
3.184476 7.969549 0.556678 20
3.223087 7.970796 0.555385 22
3.265336 7.979170 0.553727 21
3.310138 7.985501 0.552049 29
3.353836 7.992525 0.550379 26
3.391571 7.993914 0.549088 26
3.428159 7.991022 0.547973 29
3.477032 8.003750 0.545924 22
3.521141 8.009922 0.544246 30
3.562889 8.012731 0.542753 26
3.613392 8.023756 0.540688 25
3.647867 8.016749 0.539751 22
3.689871 8.018930 0.538252 22
3.744529 8.036431 0.535816 24
3.794327 8.047442 0.533752 25
3.836664 8.048927 0.532247 23
3.881628 8.053281 0.530553 22
3.924135 8.054337 0.529045 20
3.965488 8.056215 0.527544 26
4.015884 8.066013 0.525469 20
4.071599 8.081634 0.523017 21
4.114498 8.081777 0.521500 26
4.162691 8.087758 0.519607 29
4.205759 8.087456 0.518086 26
4.259422 8.098968 0.515812 32
4.307958 8.104195 0.513911 26
4.352712 8.107284 0.512207 27
4.400040 8.107933 0.510480 57
4.456904 8.121329 0.508008 23
4.503208 8.122572 0.506287 22
4.563065 8.138335 0.503622 28
4.612295 8.141998 0.501707 28
4.664344 8.148337 0.499602 27
4.719241 8.157323 0.497306 27
4.768812 8.160185 0.495385 25
4.821229 8.165692 0.493272 25
4.872513 8.172112 0.491169 22
4.930696 8.182840 0.488674 25
4.980713 8.184623 0.486743 26
5.041964 8.197606 0.484053 23
5.097800 8.204536 0.481739 25
5.146904 8.206713 0.479813 25
5.207058 8.214653 0.477292 24
5.266104 8.223511 0.474780 24
5.328132 8.234860 0.472076 22
5.380533 8.238725 0.469950 25
5.440009 8.246626 0.467430 22
5.496766 8.251412 0.465097 22
5.550775 8.253113 0.462952 21
5.613531 8.262826 0.460233 22
5.679338 8.274947 0.457321 25
5.730815 8.272961 0.455358 23
5.796924 8.284389 0.452440 25
5.863206 8.295444 0.449519 27
5.923800 8.300691 0.446975 23
5.986188 8.309696 0.444252 19
6.044104 8.311577 0.441893 24
6.111001 8.321201 0.438960 24
6.181030 8.333123 0.435832 23
6.248263 8.341979 0.432891 21
6.318642 8.353110 0.429756 22
6.377219 8.353260 0.427383 24
6.444909 8.360992 0.424433 22
6.509741 8.365718 0.421671 22
6.582486 8.379412 0.418345 23
6.656705 8.391200 0.415001 19
6.714160 8.385489 0.412791 19
6.791745 8.399050 0.409248 22
6.865178 8.411129 0.405908 19
6.937015 8.418688 0.402742 21
7.007232 8.421721 0.399750 19
7.085549 8.433531 0.396192 21
7.159663 8.443948 0.392837 18
7.225939 8.444798 0.390042 21
7.314110 8.462822 0.385895 23
7.390038 8.470338 0.382514 22
7.452312 8.469116 0.379916 20
7.542386 8.484049 0.375741 22
7.621947 8.492705 0.372156 22
7.694066 8.497679 0.368969 23
7.784756 8.511065 0.364781 21
7.861674 8.515883 0.361377 20
7.945103 8.525093 0.357582 18
8.035091 8.538628 0.353396 16
8.115704 8.544436 0.349786 15
8.201569 8.556316 0.345801 17
8.285730 8.563546 0.341989 21
8.382950 8.579735 0.337397 18
8.473948 8.590632 0.333189 15
8.565147 8.600986 0.328975 13
8.654627 8.606612 0.324934 15
8.720181 8.597327 0.322266 8
8.772749 8.578450 0.320372 9
8.763180 8.515693 0.322172 6
8.765114 8.464101 0.323212 12
8.833834 8.456162 0.320341 12
8.915804 8.456881 0.316688 16
9.011115 8.466116 0.312251 13
9.108626 8.478947 0.307631 11
9.201016 8.484809 0.303379 13
9.306880 8.498979 0.298342 13
9.399648 8.503684 0.294080 13
9.510597 8.516793 0.288818 12
9.607087 8.522490 0.284351 12
9.720532 8.538445 0.278900 13
9.820777 8.545074 0.274226 15
9.933372 8.561749 0.268782 16
10.034017 8.567130 0.264098 13
10.172079 8.595242 0.257251 15
10.276558 8.601378 0.252358 15
10.401625 8.619469 0.246283 13
10.508597 8.628521 0.241202 12
10.637583 8.647203 0.234917 13
10.749743 8.654761 0.229608 13
10.872393 8.667782 0.223703 13
11.006936 8.683894 0.217181 16
11.119765 8.689249 0.211854 14
11.255592 8.710319 0.205161 14
11.375768 8.718225 0.199427 13
