# .PCD v.7 - Point Cloud Data file format
VERSION .7
FIELDS x y z intensity
SIZE 4 4 4 1
TYPE F F F U
COUNT 1 1 1 1
WIDTH 1517
HEIGHT 1
VIEWPOINT 0 0 0 1 0 0 0
POINTS 1517
DATA ascii
9.792867 0.543044 0.940100 1
9.785818 0.504449 0.939948 1
9.815140 0.464233 0.939772 1
9.839849 0.427472 0.939611 1
9.833158 0.382654 0.939435 1
9.841955 0.341798 0.939266 1
9.850381 0.302965 0.939106 1
9.863105 0.260381 0.938928 1
9.863523 0.218548 0.938760 1
9.867774 0.177130 0.938592 1
9.887603 0.139322 0.938429 1
9.903524 0.098942 0.938259 1
9.911530 0.055666 0.938081 1
9.907242 0.013390 0.937914 1
9.930360 -0.022356 0.937758 1
9.918153 -0.069444 0.937575 1
9.933364 -0.110140 0.937404 1
9.956110 -0.146176 0.937248 1
9.995001 -0.185417 0.937070 1
10.241450 -0.213342 0.936828 1
73.513741 2.911204 0.916242 60
73.627518 2.639241 0.915090 60
73.698586 2.404346 0.914110 60
73.885918 2.147429 0.912981 60
73.960464 1.884966 0.911888 3
73.958611 1.606125 0.910770 60
68.620789 0.940415 0.910892 56
36.815620 -0.213631 0.922913 12
36.742210 -0.350440 0.922402 38
36.696224 -0.479587 0.921908 25
36.733871 -0.614287 0.921347 25
36.747051 -0.749411 0.920798 25
36.755783 -0.891400 0.920224 12
36.755993 -1.019919 0.919708 12
36.783733 -1.162068 0.919122 12
36.815048 -1.290901 0.918589 12
36.857864 -1.426849 0.918021 25
36.844208 -1.562317 0.917484 12
36.890072 -1.698742 0.916912 25
36.955589 -1.829113 0.916355 12
51.305489 -6.396824 0.890505 37
48.708977 -6.680888 0.890724 33
45.568810 -7.164195 0.890428 27
44.952290 -7.251266 0.890402 26
43.344215 -7.521744 0.890158 23
42.953194 -7.625899 0.889944 23
42.349575 -7.687514 0.890013 22
41.930687 -7.781434 0.889856 21
41.314121 -7.841396 0.889938 20
40.895138 -7.928942 0.889806 19
40.282677 -7.981803 0.889914 18
39.421867 -7.988667 0.890337 17
39.125278 -8.086473 0.890100 16
38.635460 -8.148428 0.890108 15
38.195473 -8.201479 0.890125 14
37.666458 -8.249934 0.890208 14
37.238579 -8.320639 0.890148 13
36.796280 -8.378550 0.890147 13
36.374992 -8.430560 0.890159 13
35.876617 -8.478423 0.890227 12
35.452938 -8.517294 0.890293 12
35.017601 -8.571365 0.890304 12
34.621540 -8.630486 0.890274 12
34.116058 -8.643879 0.890485 11
18.328545 -5.385407 0.911832 3
18.313181 -5.456340 0.911555 3
17.290928 -5.445224 0.912135 2
17.079807 -5.470467 0.912144 2
16.870323 -5.487636 0.912185 2
16.660938 -5.503465 0.912231 2
16.450872 -5.521175 0.912270 2
15.929867 -5.593524 0.912252 2
16.002857 -5.679133 0.911871 2
15.966317 -5.740004 0.911645 2
16.050224 -5.829465 0.911242 2
15.991698 -5.877825 0.911079 2
15.966915 -5.938486 0.910848 2
15.961200 -6.004380 0.910587 2
15.955243 -6.070295 0.910325 2
15.968279 -6.141711 0.910032 2
15.977191 -6.212170 0.909744 2
15.967552 -6.274001 0.909501 2
15.968280 -6.342367 0.909226 2
15.980242 -6.414250 0.908931 2
15.968957 -6.479305 0.908676 2
15.983233 -6.555719 0.908362 2
15.995329 -6.624839 0.908078 2
16.188286 -6.758151 0.907442 2
4.062737 -2.954838 0.929059 0
3.877046 -2.918207 0.929303 0
3.790541 -2.912613 0.929371 0
3.700350 -2.905184 0.929448 0
3.648215 -2.909839 0.929456 1
3.577173 -2.907742 0.929502 1
3.521353 -2.910355 0.929521 1
3.476923 -2.916528 0.929519 1
3.391649 -2.905990 0.929606 1
3.347322 -2.911460 0.929607 1
3.276659 -2.907214 0.929661 1
3.224900 -2.909299 0.929680 1
3.150650 -2.902806 0.929745 1
3.095598 -2.901861 0.929778 1
3.044029 -2.902850 0.929801 1
2.962575 -2.892207 0.929886 0
2.899946 -2.888143 0.929935 0
2.852337 -2.889418 0.929955 0
2.808507 -2.891834 0.929968 0
2.760997 -2.892503 0.929990 1
2.706106 -2.889909 0.930030 1
2.651293 -2.886955 0.930070 1
2.611385 -2.889653 0.930080 1
2.582621 -2.896643 0.930067 1
2.524294 -2.891225 0.930119 1
2.484516 -2.893131 0.930133 1
2.437409 -2.891673 0.930163 1
2.408768 -2.897747 0.930154 1
2.373117 -2.899720 0.930165 1
2.366529 -2.914973 0.930107 5
2.323250 -2.914151 0.930133 4
2.254424 -2.901725 0.930219 1
2.211304 -2.900256 0.930247 1
2.182835 -2.905084 0.930243 1
2.158024 -2.911392 0.930230 1
2.122315 -2.912544 0.930244 1
2.093907 -2.916832 0.930242 1
2.054650 -2.915863 0.930266 1
2.026302 -2.919763 0.930266 1
1.983862 -2.915915 0.930303 1
1.962796 -2.922884 0.930286 1
1.934531 -2.926241 0.930288 1
1.899104 -2.925910 0.930308 1
1.878077 -2.932433 0.930292 1
1.842728 -2.931705 0.930314 1
1.814581 -2.934342 0.930318 1
1.775756 -2.931386 0.930350 1
1.755480 -2.935967 0.930342 1
1.730986 -2.939914 0.930339 1
1.706510 -2.943712 0.930337 1
1.688803 -2.951717 0.930314 1
1.653742 -2.949638 0.930341 1
1.625801 -2.951098 0.930350 1
1.601418 -2.954279 0.930350 1
1.570361 -2.952881 0.930371 1
1.580806 -2.975540 0.930275 11
1.542423 -2.970662 0.930315 5
1.518447 -2.972693 0.930319 3
1.490666 -2.973243 0.930331 1
1.445843 -2.963195 0.930395 2
1.428607 -2.969281 0.930380 3
1.400279 -2.970490 0.930390 2
1.373354 -2.969155 0.930409 2
1.348907 -2.971436 0.930413 2
1.317932 -2.968933 0.930439 2
1.300783 -2.974389 0.930426 5
1.283978 -2.979176 0.930416 4
1.246268 -2.972075 0.930464 2
1.235671 -2.981886 0.930430 2
1.225390 -2.991083 0.930399 2
1.194993 -2.987088 0.930431 2
1.170769 -2.988237 0.930439 2
1.151003 -2.989707 0.930443 2
1.127186 -2.990034 0.930454 2
1.103061 -2.990760 0.930464 2
1.082687 -2.992955 0.930466 2
1.062335 -2.995031 0.930468 2
1.045706 -2.998638 0.930462 2
1.028740 -3.002685 0.930455 2
1.011784 -3.006638 0.930448 2
0.991506 -3.008282 0.930452 2
0.974229 -3.012554 0.930444 2
0.957657 -3.015694 0.930440 3
0.940749 -3.019259 0.930435 3
0.920901 -3.019961 0.930442 3
0.930365 -3.041501 0.930351 16
0.883526 -3.024827 0.930442 13
0.863755 -3.025201 0.930451 2
0.840395 -3.023657 0.930470 3
0.820342 -3.024291 0.930477 2
0.806823 -3.029466 0.930464 3
0.790761 -3.031258 0.930465 3
0.770425 -3.032071 0.930472 3
0.760156 -3.039368 0.930448 3
0.743431 -3.041871 0.930447 3
0.729933 -3.046666 0.930435 4
0.732452 -3.063370 0.930367 8
0.706488 -3.057983 0.930402 3
0.689441 -3.060635 0.930400 3
0.672767 -3.062724 0.930400 3
0.665620 -3.072041 0.930367 4
0.639475 -3.066627 0.930402 5
0.623572 -3.067526 0.930407 5
0.609403 -3.072639 0.930394 5
0.595951 -3.076766 0.930384 5
0.582863 -3.080375 0.930377 5
0.566300 -3.081862 0.930379 6
0.552508 -3.086221 0.930369 6
0.542179 -3.092590 0.930349 6
0.526379 -3.092955 0.930356 6
0.512598 -3.097103 0.930346 6
0.496110 -3.098183 0.930351 6
0.485776 -3.104313 0.930331 6
0.475793 -3.109965 0.930314 4
0.465435 -3.116003 0.930295 3
0.443277 -3.111163 0.930326 0
0.426508 -3.112267 0.930331 0
0.455432 -3.152196 0.930155 0
0.418233 -3.134001 0.930248 0
0.404465 -3.137563 0.930241 1
0.412021 -3.159213 0.930150 2
0.395589 -3.159626 0.930157 1
0.447322 -3.251558 0.929760 6
0.395324 -3.219506 0.929916 3
0.390568 -3.230570 0.929874 7
0.368200 -3.225271 0.929907 30
0.347317 -3.235848 0.929876 0
0.336669 -3.241272 0.929860 0
0.340459 -3.260479 0.929781 4
0.352782 -3.288068 0.929663 7
0.362071 -3.312984 0.929559 3
0.354053 -3.321215 0.929530 8
0.343558 -3.326203 0.929515 4
0.321287 -3.320292 0.929551 2
0.316478 -3.330801 0.929511 2
0.283000 -3.313360 0.929598 3
0.291448 -3.338783 0.929492 8
0.264131 -3.326388 0.929556 10
0.250756 -3.345012 0.929488 0
0.256078 -3.367666 0.929395 0
0.275484 -3.404465 0.929237 0
0.281324 -3.426512 0.929145 0
0.316348 -3.481465 0.928906 0
0.273086 -3.450749 0.929052 1
0.291806 -3.487980 0.928893 2
0.255207 -3.467346 0.928995 1
0.268253 -3.498811 0.928862 3
0.254639 -3.500400 0.928862 7
0.240607 -3.502316 0.928862 6
0.229693 -3.506754 0.928850 3
0.228978 -3.523484 0.928783 7
0.246276 -3.561609 0.928621 7
0.256757 -3.589692 0.928503 10
0.249501 -3.601354 0.928460 10
0.245712 -3.615240 0.928406 11
0.250587 -3.637447 0.928314 9
0.248768 -3.654805 0.928246 7
0.252488 -3.677897 0.928151 8
0.248347 -3.691864 0.928097 8
0.251830 -3.715044 0.928002 6
0.250544 -3.731730 0.927936 6
0.250763 -3.752310 0.927853 4
0.256888 -3.778333 0.927746 3
0.257334 -3.798613 0.927664 3
0.260667 -3.821648 0.927570 3
0.255875 -3.835765 0.927516 3
0.253008 -3.853407 0.927446 2
0.257975 -3.880091 0.927337 4
0.263287 -3.906450 0.927228 5
0.265483 -3.930114 0.927132 3
0.269988 -3.956993 0.927022 3
0.269462 -3.977593 0.926939 2
0.271244 -4.001406 0.926843 2
0.265649 -4.015697 0.926788 2
0.268240 -4.038789 0.926694 2
0.272039 -4.065925 0.926583 2
0.294177 -4.119242 0.926358 6
0.276780 -4.117164 0.926375 3
0.284818 -4.150941 0.926235 5
0.285608 -4.175095 0.926138 6
0.293263 -4.209033 0.925998 6
0.303033 -4.246319 0.925843 7
0.296382 -4.260866 0.925788 9
0.282754 -4.265591 0.925776 9
0.289728 -4.299777 0.925635 15
0.280544 -4.311038 0.925595 10
0.290024 -4.348239 0.925440 3
0.307718 -4.399154 0.925227 1
0.331817 -4.460166 0.924969 1
0.344354 -4.504792 0.924784 1
4.772193 -11.162872 0.895738 13
4.688138 -11.113093 0.895982 12
4.628689 -11.099615 0.896067 12
4.580347 -11.102594 0.896080 12
4.532065 -11.105358 0.896094 12
4.484245 -11.112406 0.896091 12
4.439987 -11.116990 0.896096 13
4.387589 -11.112370 0.896142 13
4.337429 -11.110893 0.896174 12
4.291589 -11.115980 0.896178 12
4.241240 -11.109574 0.896230 13
4.199706 -11.121071 0.896205 15
4.147765 -11.115319 0.896256 15
4.100076 -11.116177 0.896277 17
4.056571 -11.123685 0.896270 18
4.013086 -11.131013 0.896263 20
3.967593 -11.134715 0.896272 21
3.918105 -11.131319 0.896312 23
3.868715 -11.127702 0.896352 20
3.825411 -11.134261 0.896348 16
3.778164 -11.133695 0.896375 18
3.730992 -11.132922 0.896403 20
3.687622 -11.134439 0.896420 22
3.646436 -11.143750 0.896404 23
3.599446 -11.142398 0.896434 22
3.556537 -11.152331 0.896417 23
3.513490 -11.157610 0.896418 25
3.464647 -11.147676 0.896483 22
3.416051 -11.142001 0.896532 21
3.373186 -11.146711 0.896535 22
3.328492 -11.147706 0.896555 22
3.283856 -11.148512 0.896575 22
3.241118 -11.152683 0.896580 23
3.198415 -11.156679 0.896587 23
3.161101 -11.162266 0.896584 23
3.118460 -11.165935 0.896591 22
3.075856 -11.169429 0.896600 23
3.027960 -11.161999 0.896655 24
2.987234 -11.168718 0.896649 24
2.941268 -11.164489 0.896690 24
2.895361 -11.164518 0.896714 25
2.854788 -11.166264 0.896728 24
2.809001 -11.165916 0.896753 25
2.768454 -11.171780 0.896751 24
2.726320 -11.169406 0.896783 23
2.682387 -11.172132 0.896795 24
2.648806 -11.183154 0.896768 28
2.599849 -11.179067 0.896810 32
2.557810 -11.180463 0.896827 32
2.519365 -11.180112 0.896848 29
2.477420 -11.181185 0.896866 29
2.430376 -11.179969 0.896895 29
2.387324 -11.168137 0.896965 29
2.345576 -11.168681 0.896985 29
2.305228 -11.177175 0.896972 25
2.266875 -11.180331 0.896979 23
2.223465 -11.181128 0.896999 23
2.181881 -11.181012 0.897021 26
2.140349 -11.180731 0.897044 26
2.104856 -11.195122 0.897005 26
2.060411 -11.187099 0.897060 27
2.025507 -11.192367 0.897058 23
1.980905 -11.188430 0.897097 25
1.942825 -11.190386 0.897109 26
1.901226 -11.193564 0.897118 27
1.860368 -11.187748 0.897162 24
1.817451 -11.186850 0.897189 23
1.772188 -11.173866 0.897264 29
1.738495 -11.186319 0.897232 29
1.700250 -11.191790 0.897230 23
1.663789 -11.196477 0.897230 22
1.626902 -11.205436 0.897214 22
1.586011 -11.202942 0.897245 21
1.545182 -11.200288 0.897277 23
1.509624 -11.212601 0.897246 25
1.469666 -11.217822 0.897246 26
1.430222 -11.218497 0.897264 26
1.387030 -11.207635 0.897331 23
1.349479 -11.207411 0.897351 23
1.312662 -11.215237 0.897339 23
1.273385 -11.215313 0.897359 23
1.234148 -11.215239 0.897380 22
1.194951 -11.215014 0.897401 23
1.156979 -11.218463 0.897408 22
1.116682 -11.214120 0.897446 24
1.077610 -11.213449 0.897469 23
1.040867 -11.220297 0.897461 22
1.001374 -11.211140 0.897518 20
0.964001 -11.222072 0.897494 20
0.929050 -11.228000 0.897489 20
0.890130 -11.226616 0.897515 21
0.857344 -11.239996 0.897478 21
0.814552 -11.231119 0.897536 22
0.777842 -11.237021 0.897532 20
0.741872 -11.238451 0.897545 20
0.702356 -11.240697 0.897556 20
0.668213 -11.241396 0.897571 19
0.627950 -11.247692 0.897567 21
0.589287 -11.245170 0.897598 21
0.554395 -11.249820 0.897597 24
0.514019 -11.247460 0.897628 22
0.477362 -11.252286 0.897628 23
0.442417 -11.248346 0.897662 24
0.403996 -11.253335 0.897662 21
0.365557 -11.249973 0.897695 26
0.328058 -11.250368 0.897713 24
0.293207 -11.262335 0.897684 19
0.257507 -11.262071 0.897703 20
0.216566 -11.254639 0.897755 23
0.182733 -11.253728 0.897776 22
0.145355 -11.253455 0.897797 25
0.109621 -11.260881 0.897786 21
0.069693 -11.256783 0.897823 20
0.029824 -11.252529 0.897861 20
-0.004885 -11.255279 0.897868 23
-0.040625 -11.262180 0.897859 24
-0.077865 -11.261095 0.897883 25
-0.113286 -11.259545 0.897908 23
-0.150118 -11.270328 0.897884 24
-0.187303 -11.268845 0.897909 20
-0.223773 -11.271169 0.897919 25
-0.260236 -11.273363 0.897929 22
-0.296216 -11.267239 0.897973 28
-0.330711 -11.281019 0.897935 22
-0.365377 -11.282549 0.897947 20
-0.402387 -11.292423 0.897927 19
-0.440659 -11.282119 0.897988 17
-0.477664 -11.279587 0.898018 16
-0.513486 -11.284838 0.898016 16
-0.550445 -11.282043 0.898046 17
-0.583391 -11.294719 0.898013 16
-0.622655 -11.287949 0.898060 16
-0.657231 -11.288493 0.898076 15
-0.692579 -11.297086 0.898060 16
-0.728952 -11.297617 0.898077 15
-0.765312 -11.298020 0.898095 15
-0.800734 -11.306240 0.898080 15
-0.837546 -11.302415 0.898115 17
-0.873446 -11.306410 0.898118 15
-0.909781 -11.306302 0.898137 15
-0.946101 -11.306066 0.898157 13
-0.980612 -11.305524 0.898177 13
-1.015869 -11.296902 0.898230 12
-1.053910 -11.296457 0.898252 12
-1.087993 -11.299538 0.898258 11
-1.124659 -11.314769 0.898216 9
-1.161575 -11.305801 0.898271 8
-1.194518 -11.300408 0.898310 8
-1.230110 -11.307147 0.898301 8
-1.266024 -11.309772 0.898310 7
-1.304283 -11.304411 0.898351 6
-1.341983 -11.306891 0.898361 5
-1.374303 -11.308908 0.898370 5
-1.413360 -11.319222 0.898349 4
-1.449955 -11.309224 0.898408 3
-1.481680 -11.322886 0.898370 2
-1.517834 -11.320638 0.898398 3
-1.554312 -11.310269 0.898459 2
-1.590235 -11.311762 0.898471 1
-1.625872 -11.321124 0.898453 1
-1.662095 -11.314372 0.898499 1
-1.697797 -11.323485 0.898481 1
-1.735769 -11.316526 0.898529 0
-1.770094 -11.309348 0.898575 0
-1.806087 -11.306089 0.898607 0
-1.841810 -11.318702 0.898575 0
-1.878187 -11.283195 0.898737 0
-1.915936 -11.267572 0.898819 0
-1.948454 -11.203788 0.899092 0
-1.983978 -11.219905 0.899046 0
-2.019429 -11.139900 0.899386 0
-2.055187 -11.219769 0.899084 0
-2.239762 -11.425155 0.898356 15
-2.274476 -11.432300 0.898346 19
-2.310343 -11.415285 0.898433 16
-2.346895 -11.422134 0.898425 5
-4.284017 -11.530620 0.899003 15
-4.317240 -11.506960 0.899116 12
-4.355586 -11.506613 0.899137 3
-14.383496 -54.361012 0.732358 39
-16.020945 -60.517830 0.708501 48
-14.738841 -54.244366 0.733013 39
-16.303726 -59.874344 0.711232 47
-16.705511 -60.620174 0.708448 48
-16.712315 -59.765293 0.711883 47
-16.959654 -59.880280 0.711551 48
-17.048958 -59.419765 0.713447 47
-17.353886 -59.753872 0.712265 48
-17.518831 -59.549129 0.713173 47
-6.165021 -11.313196 0.900861 1
-6.294751 -11.528160 0.900066 1
-6.349720 -11.557473 0.899977 1
-6.352898 -11.456550 0.900384 1
-29.652794 -55.221115 0.736901 48
-29.708216 -54.864620 0.738361 47
-30.598288 -54.737320 0.739338 48
-9.518982 -11.678768 0.901150 1
-9.674315 -11.818742 0.900669 1
-9.625810 -11.671550 0.901235 1
-9.548293 -11.485899 0.901939 1
-9.786544 -11.658895 0.901370 97
-9.814138 -11.618773 0.901545 75
-9.779541 -11.495094 0.902023 52
-9.842416 -11.503107 0.902024 40
-9.850074 -11.437334 0.902292 18
-9.898481 -11.425799 0.902364 30
-9.895885 -11.347323 0.902678 31
-9.946529 -11.338714 0.902739 31
-10.004565 -11.339358 0.902766 34
-55.280193 -60.631229 0.728602 63
-55.996391 -61.009762 0.727457 63
-56.114132 -60.720150 0.728681 63
-56.208935 -60.406815 0.729989 63
-55.481995 -59.201260 0.734448 62
-56.739052 -60.153145 0.731285 63
-56.350544 -59.323872 0.734410 63
-57.051991 -59.664574 0.733410 63
-57.858139 -60.108631 0.732049 63
-57.301876 -59.153267 0.735593 63
-61.950230 -60.615185 0.732158 63
-62.439709 -60.683754 0.732139 63
-61.810673 -59.651981 0.735952 63
-61.977715 -59.406574 0.737025 63
-62.601345 -59.562149 0.736727 63
-62.366573 -58.929359 0.739144 63
-62.736393 -58.918827 0.739380 63
-62.951103 -58.698578 0.740376 63
-63.640408 -58.964630 0.739669 63
-64.406624 -59.275909 0.738821 63
-64.525841 -58.959789 0.740152 63
-64.594025 -58.638348 0.741478 63
-64.771156 -58.397915 0.742536 63
-15.723050 -12.224156 0.902209 31
-15.725954 -12.150874 0.902505 29
-15.804051 -12.130589 0.902627 6
-26.255888 -13.416296 0.902938 7
-25.703133 -13.029639 0.904201 6
-26.195288 -13.173047 0.903883 6
-26.313398 -13.115688 0.904175 6
-26.330360 -13.018362 0.904575 13
-26.458342 -12.975520 0.904814 13
-26.575520 -12.926698 0.905071 28
-26.704506 -12.787529 0.905697 7
-29.898331 -14.183615 0.901765 9
-30.063684 -14.142062 0.902019 9
-26.734024 -12.480131 0.906947 7
-30.416344 -14.065987 0.902509 9
-30.332026 -13.913694 0.903076 9
-31.736996 -14.427984 0.901747 9
-31.140831 -14.036975 0.903004 9
-31.166397 -13.920374 0.903486 9
-31.015041 -13.617999 0.904620 9
-30.856735 -13.429729 0.905293 9
-31.364983 -13.400066 0.905679 9
-31.441240 -13.311358 0.906075 19
-30.789007 -12.921224 0.907299 18
-30.841059 -12.836788 0.907665 9
-30.811707 -12.707475 0.908169 9
-30.640093 -12.394093 0.909337 18
-30.482132 -12.227898 0.909922 26
-31.266535 -12.418749 0.909566 9
-32.463165 -12.762512 0.908813 9
-30.762379 -11.991755 0.911016 9
-31.998236 -12.331435 0.910300 9
-32.436714 -12.254707 0.910838 9
-33.245773 -12.441938 0.910510 10
-32.570744 -12.074363 0.911632 9
-32.134583 -11.797854 0.912513 9
-33.095924 -12.019408 0.912127 10
-32.895264 -11.585748 0.913763 9
-71.878258 -24.645262 0.881750 58
-72.586914 -24.583229 0.882370 59
-72.155922 -24.167496 0.883813 58
-71.886070 -23.835258 0.885006 58
-71.950058 -23.586262 0.886039 58
-69.459259 -22.005367 0.891081 56
-69.497276 -21.733282 0.892193 56
-69.554359 -21.518808 0.893084 56
-69.250000 -21.170364 0.894323 55
-69.607605 -21.020601 0.895112 56
-69.842110 -20.832703 0.895989 56
-71.324905 -20.990278 0.896132 57
-69.255470 -20.152836 0.898411 55
-69.664062 -20.001280 0.899233 55
-15.887753 -4.811444 0.932052 58
-15.831380 -4.744224 0.932292 66
-15.812727 -4.690120 0.932500 50
-16.575092 -4.564943 0.933401 1
-16.532919 -4.501001 0.933636 1
-16.541088 -4.449333 0.933847 1
-17.308687 -4.020679 0.935970 1
-15.377063 -3.494471 0.937071 1
-15.582408 -3.483454 0.937223 1
-15.507801 -3.423683 0.937424 1
-15.602802 -3.391632 0.937602 1
-15.607055 -3.343462 0.937798 1
-15.619385 -3.245389 0.938198 13
-15.835696 -3.132229 0.938765 89
-15.827160 -3.081562 0.938964 81
-15.861629 -3.039735 0.939150 40
-99.580231 -13.849459 0.939592 63
-97.739777 -13.267669 0.940964 63
-101.409988 -13.384661 0.942416 63
-100.600647 -12.952102 0.943729 63
-105.420830 -13.169276 0.945381 63
-97.988884 -11.939697 0.946425 63
-98.416054 -11.647517 0.947822 63
-101.495293 -11.635542 0.949482 63
-97.568779 -10.879337 0.950462 63
-97.152840 -10.500868 0.951763 63
-92.112724 -9.681116 0.952415 63
-118.999527 -11.853283 0.957774 63
-106.098228 -10.310665 0.957211 63
-106.199333 -9.934863 0.958772 63
-120.302536 -10.725624 0.962982 63
-120.535080 -10.328273 0.964699 63
-124.011566 -10.194280 0.967058 63
9.706552 0.905141 1.010552 0
9.839242 0.886662 1.011152 0
9.786881 0.833934 1.010619 0
9.817002 0.796425 1.010592 0
9.835139 0.756947 1.010494 0
9.833053 0.716530 1.010286 0
9.831123 0.674081 1.010070 0
9.829331 0.629602 1.009846 0
9.842664 0.591444 1.009732 0
9.859839 0.553743 1.009642 0
9.865795 0.508193 1.009456 0
9.866830 0.468339 1.009272 0
9.887583 0.430918 1.009204 0
9.860799 0.385648 1.008850 0
9.869846 0.342623 1.008696 0
9.882251 0.304140 1.008582 0
9.875094 0.259296 1.008336 0
9.887445 0.218666 1.008213 0
9.891488 0.179239 1.008052 0
9.935414 0.141598 1.008111 0
9.919290 0.100142 1.007836 0
9.931095 0.059250 1.007713 0
9.962686 0.020022 1.007701 0
9.970404 -0.023498 1.007546 0
10.009696 -0.062427 1.007578 0
10.028759 -0.101039 1.007506 0
9.991848 -0.143847 1.007121 0
10.014932 -0.186421 1.007054 0
10.157464 -0.219163 1.007662 0
73.669167 2.904273 1.356516 63
38.363888 0.099546 1.158046 11
36.931995 -0.076159 1.149745 10
36.827221 -0.221078 1.148590 10
36.723778 -0.486867 1.146950 20
36.725407 -0.622040 1.146406 30
36.718513 -0.750514 1.145848 20
36.735245 -0.892372 1.145363 20
36.751457 -1.027586 1.144904 20
36.775196 -1.162941 1.144488 20
36.802464 -1.298490 1.144092 20
36.841255 -1.434359 1.143759 20
36.883572 -1.570560 1.143446 10
36.973518 -1.701105 1.143409 10
63.257641 -4.201567 1.272789 63
63.094944 -4.410044 1.271154 63
63.026176 -4.645486 1.269920 63
62.965214 -4.869606 1.268773 63
62.935417 -5.095349 1.267789 63
57.478653 -5.169941 1.238730 62
56.769680 -5.326667 1.234427 60
55.957424 -5.460416 1.229666 57
55.092308 -5.594647 1.224628 55
54.290749 -5.728227 1.219932 52
51.393040 -6.237499 1.202899 43
50.181541 -6.293861 1.196333 39
49.693386 -6.426874 1.193311 38
49.006104 -6.535045 1.189331 36
48.422058 -6.650024 1.185874 34
47.949104 -6.773812 1.182974 33
46.688816 -6.973336 1.175696 30
45.696171 -7.173285 1.169834 28
45.079617 -7.260891 1.166318 26
44.438152 -7.349136 1.162673 25
43.206139 -7.494939 1.155758 22
43.013088 -7.627716 1.154327 22
43.141247 -7.799521 1.154453 22
41.902405 -7.778096 1.148051 20
41.451817 -7.864087 1.145431 19
42.791344 -8.227372 1.151292 22
39.572411 -8.007494 1.135192 15
39.496517 -8.143766 1.134382 15
38.402451 -8.108488 1.128797 12
37.957417 -8.167068 1.126307 12
37.667320 -8.265317 1.124507 11
37.639145 -8.396086 1.123973 11
43.250103 -9.595522 1.149558 23
43.455536 -9.798930 1.150029 24
35.961132 -8.502827 1.114962 10
35.700802 -8.581472 1.113387 9
35.683361 -8.708050 1.112935 9
44.711040 -10.719809 1.153881 27
18.075766 -5.265657 1.031706 2
18.060825 -5.335708 1.031433 2
17.819759 -5.352663 1.030143 1
18.042702 -5.474759 1.030954 2
17.863163 -5.507670 1.029940 2
17.169035 -5.421230 1.026605 1
17.052277 -5.464488 1.025888 1
16.717489 -5.455337 1.024194 1
16.399330 -5.444436 1.022591 1
16.251657 -5.476375 1.021749 1
16.437880 -5.590099 1.022404 1
16.293806 -5.622227 1.021584 1
16.125673 -5.650632 1.020651 1
16.160557 -5.723751 1.020641 1
16.162539 -5.795366 1.020469 4
16.084763 -5.839089 1.019962 1
15.994464 -5.882361 1.019394 1
15.996672 -5.950428 1.019236 1
15.971645 -6.011077 1.018959 1
15.977217 -6.080281 1.018818 1
15.963291 -6.144099 1.018592 1
15.991408 -6.220099 1.018551 1
16.000940 -6.287595 1.018438 1
16.006386 -6.354075 1.018308 1
15.995319 -6.419195 1.018099 1
15.980192 -6.483140 1.017873 1
16.018360 -6.563512 1.017879 1
16.052368 -6.643027 1.017868 1
16.041252 -6.705264 1.017670 1
16.093704 -6.791299 1.017739 1
16.214291 -6.899889 1.018100 1
3.882046 -2.941523 0.965171 0
3.833526 -2.948235 0.964914 0
3.663641 -2.914035 0.964140 0
3.596371 -2.913284 0.963807 0
3.517823 -2.908201 0.963426 0
3.405360 -2.890818 0.962904 1
3.285535 -2.870032 0.962353 2
3.203631 -2.861778 0.961964 0
3.223533 -2.889365 0.962006 0
3.292203 -2.934805 0.962252 1
3.214112 -2.927160 0.961882 2
3.088597 -2.920619 0.961277 0
2.963087 -2.913326 0.960674 1
2.919126 -2.916251 0.960453 1
2.871477 -2.917441 0.960217 1
2.801548 -2.909534 0.959890 0
2.768905 -2.915938 0.959719 1
2.706581 -2.910213 0.959426 1
2.659182 -2.910090 0.959196 1
2.608140 -2.908143 0.958951 1
2.568258 -2.910451 0.958754 1
2.525055 -2.910172 0.958545 1
2.474204 -2.907300 0.958304 2
2.416068 -2.900962 0.958034 1
2.391103 -2.908464 0.957901 1
2.344125 -2.906255 0.957679 1
2.337515 -2.921408 0.957622 14
2.225857 -2.906856 0.957111 0
2.183107 -2.904429 0.956910 1
2.140091 -2.902463 0.956708 1
2.118954 -2.910230 0.956595 2
2.090223 -2.915224 0.956451 2
2.058218 -2.917629 0.956295 2
2.022630 -2.918128 0.956126 2
1.979865 -2.914962 0.955928 2
1.951925 -2.917760 0.955792 2
1.923347 -2.921763 0.955652 2
1.898718 -2.926660 0.955529 2
1.870850 -2.928963 0.955395 2
1.828351 -2.924646 0.955202 2
1.796987 -2.924776 0.955055 2
1.776039 -2.930794 0.954949 2
1.747636 -2.933706 0.954812 2
1.723488 -2.936968 0.954696 2
1.691590 -2.937695 0.954547 2
1.674244 -2.945000 0.954457 2
1.642746 -2.944733 0.954311 2
1.615161 -2.945520 0.954183 2
1.590799 -2.948664 0.954067 2
1.559088 -2.948472 0.953922 4
1.527763 -2.947459 0.953780 3
1.503833 -2.949499 0.953668 3
1.483088 -2.953951 0.953568 3
1.462694 -2.957677 0.953470 3
1.435007 -2.957960 0.953344 3
1.407021 -2.958667 0.953217 2
1.379416 -2.958606 0.953092 2
1.362241 -2.964383 0.953008 2
1.335039 -2.963438 0.952886 2
1.310990 -2.964938 0.952777 2
1.286972 -2.966293 0.952668 3
1.304201 -2.992105 0.952718 9
1.248970 -2.975326 0.952489 2
1.221947 -2.973645 0.952370 2
1.201455 -2.976537 0.952276 2
1.181326 -2.978754 0.952185 2
1.164273 -2.983519 0.952105 2
1.136709 -2.982375 0.951984 2
1.130184 -2.992765 0.951946 2
1.099644 -2.988668 0.951816 2
1.079277 -2.990851 0.951725 2
1.062639 -2.994549 0.951649 3
1.042656 -2.995979 0.951560 3
1.022007 -2.998354 0.951469 3
0.998388 -2.997878 0.951367 4
0.981472 -3.001690 0.951291 4
0.964566 -3.005408 0.951215 4
0.950987 -3.011269 0.951152 3
0.927826 -3.009802 0.951054 3
0.913914 -3.015999 0.950990 5
0.906929 -3.026158 0.950952 20
0.873635 -3.018025 0.950817 14
0.860441 -3.022954 0.950757 2
0.830901 -3.016293 0.950637 3
0.816695 -3.022512 0.950573 4
0.796680 -3.023015 0.950488 4
0.780290 -3.025259 0.950418 4
0.757093 -3.023196 0.950322 4
0.749733 -3.033288 0.950285 4
0.736603 -3.037647 0.950228 6
0.739532 -3.053864 0.950231 7
0.696828 -3.037534 0.950064 4
0.692963 -3.049343 0.950042 5
0.673119 -3.049057 0.949960 5
0.653664 -3.048194 0.949881 5
0.643399 -3.055004 0.949836 6
0.627152 -3.056407 0.949769 5
0.616518 -3.063560 0.949722 5
0.606225 -3.070208 0.949678 7
0.586870 -3.068905 0.949600 6
0.576217 -3.075878 0.949554 7
0.556554 -3.074834 0.949476 7
0.552475 -3.086262 0.949455 7
0.539407 -3.089661 0.949402 4
0.510885 -3.080309 0.949292 2
0.509483 -3.094596 0.949282 2
0.486856 -3.090546 0.949194 0
0.470418 -3.091503 0.949129 0
0.475397 -3.110437 0.949143 0
0.462356 -3.113452 0.949091 0
0.458072 -3.124636 0.949072 0
0.453740 -3.135816 0.949053 0
0.408800 -3.126562 0.948881 0
0.376080 -3.127402 0.948755 0
0.389964 -3.153919 0.948804 2
0.406297 -3.183644 0.948862 3
0.399109 -3.191611 0.948834 13
0.358996 -3.170331 0.948685 15
0.345207 -3.173552 0.948632 24
0.340990 -3.184032 0.948616 29
0.353916 -3.211269 0.948662 87
0.331662 -3.205794 0.948580 36
0.332360 -3.222564 0.948582 31
0.321759 -3.227936 0.948543 29
0.314424 -3.235622 0.948516 32
0.318196 -3.254792 0.948530 35
0.319384 -3.270824 0.948534 55
0.308652 -3.276111 0.948496 60
0.297123 -3.282152 0.948454 45
0.286372 -3.287340 0.948416 35
0.278841 -3.294910 0.948389 21
0.262423 -3.294343 0.948330 9
0.271738 -3.318904 0.948366 26
0.297319 -3.361079 0.948463 63
0.277967 -3.357625 0.948394 56
0.278549 -3.373788 0.948398 52
0.272266 -3.385404 0.948378 48
0.264410 -3.392926 0.948352 51
0.264784 -3.409131 0.948357 46
0.261495 -3.423242 0.948348 36
0.258554 -3.436966 0.948341 29
0.255546 -3.450700 0.948334 30
0.255179 -3.467383 0.948337 43
0.249752 -3.477798 0.948321 33
0.243419 -3.488988 0.948303 57
0.221818 -3.481567 0.948228 10
0.223891 -3.501222 0.948241 9
0.212250 -3.522295 0.948209 2
0.216256 -3.545419 0.948230 0
0.204800 -3.550124 0.948194 0
0.227812 -3.593714 0.948286 0
0.216207 -3.598441 0.948250 0
0.209790 -3.609204 0.948233 0
0.218841 -3.638263 0.948274 0
0.214839 -3.652113 0.948267 0
0.218925 -3.674788 0.948290 0
0.212665 -3.685210 0.948275 0
0.231335 -3.726869 0.948354 0
0.201136 -3.710262 0.948250 0
0.204816 -3.733068 0.948273 0
0.202868 -3.750086 0.948276 0
0.193325 -3.757759 0.948250 0
0.208655 -3.796703 0.948318 0
0.198949 -3.804395 0.948292 0
0.201557 -3.827793 0.948313 0
0.174543 -3.813366 0.948222 0
0.167226 -3.824104 0.948206 0
0.167165 -3.844346 0.948218 0
0.203852 -3.911965 0.948369 0
0.210638 -3.941970 0.948408 0
0.238860 -4.000842 0.948529 0
0.242788 -4.027879 0.948558 0
0.225135 -4.026044 0.948505 0
0.233578 -4.059579 0.948551 0
0.237098 -4.086747 0.948580 0
0.266262 -4.149613 0.948708 0
0.234312 -4.128273 0.948601 0
0.248455 -4.172262 0.948673 1
0.254174 -4.202550 0.948711 1
0.270658 -4.249666 0.948792 0
0.277684 -4.283813 0.948837 2
0.334752 -4.414592 0.949096 59
0.334164 -4.439239 0.949114 21
4.719274 -11.087645 0.966415 0
4.699553 -11.134381 0.966401 0
4.659813 -11.151020 0.966308 0
4.569770 -11.090452 0.966017 0
4.523709 -11.096536 0.965901 0
4.570657 -11.247127 0.966155 0
4.274725 -10.861889 0.965044 0
4.315183 -11.002042 0.965274 0
4.313958 -11.073740 0.965335 0
4.243617 -11.117574 0.965196 0
3.825518 -11.212662 0.964266 8
3.791877 -11.236414 0.964212 15
3.760102 -11.263542 0.964166 17
3.737949 -11.308040 0.964161 16
4.044704 -11.947536 0.965549 28
4.008448 -11.972076 0.965492 23
3.960622 -11.979969 0.965393 21
3.897654 -11.950391 0.965219 56
3.819823 -11.901389 0.964991 72
3.778057 -11.914570 0.964914 84
3.725136 -11.901812 0.964784 103
3.683417 -11.914637 0.964707 103
3.647259 -11.933423 0.964651 101
3.612612 -11.969265 0.964618 86
3.583524 -12.002079 0.964595 83
3.557882 -12.041964 0.964588 61
3.460354 -11.943227 0.964268 50
3.391876 -11.905816 0.964082 64
3.343404 -11.898504 0.963974 77
3.296644 -11.899108 0.963880 83
3.246308 -11.896832 0.963776 104
3.211937 -11.917777 0.963733 105
3.177098 -11.947651 0.963701 104
3.142323 -11.972898 0.963664 102
3.110808 -12.005287 0.963644 59
3.094202 -12.070284 0.963694 52
3.074156 -12.123497 0.963723 23
1.789126 -11.329721 0.960468 32
1.749015 -11.331608 0.960412 31
1.718413 -11.359687 0.960408 24
-0.187577 -11.480125 0.958761 0
-0.269820 -11.437281 0.958651 2
-0.311326 -11.411671 0.958589 0
6.455769 -59.338078 1.043955 60
6.104901 -58.398312 1.042215 57
5.698287 -58.409889 1.042126 57
5.497563 -58.355774 1.041983 56
5.340755 -58.642204 1.042450 57
4.985691 -57.424973 1.040246 53
4.769173 -57.286186 1.039963 53
4.549471 -57.195400 1.039768 52
4.399628 -57.627312 1.040507 54
4.211443 -57.644245 1.040515 54
4.104675 -58.713837 1.042391 57
3.938603 -58.980469 1.042849 58
3.750709 -59.043629 1.042950 58
3.473537 -58.282909 1.041592 55
3.450008 -60.217560 1.045020 61
3.133972 -59.001057 1.042862 57
2.931891 -59.022610 1.042905 58
2.841839 -60.418896 1.045391 62
-15.243772 -60.909000 1.063006 63
-15.343952 -60.378483 1.062305 63
-14.258326 -54.673355 1.050906 48
-15.708268 -60.069580 1.062457 63
-15.910818 -59.960545 1.062652 63
-16.051203 -59.639339 1.062388 63
-16.418440 -60.258419 1.064094 63
-16.656029 -60.377266 1.064741 63
-16.799927 -60.073544 1.064524 63
-16.898500 -59.598976 1.063947 63
-17.115879 -59.596966 1.064371 63
-17.352671 -59.667671 1.064955 63
-29.857988 -55.601570 1.091638 63
-29.956472 -55.348839 1.091658 63
-9.796823 -11.591784 0.977990 3
-9.868600 -11.538468 0.978242 0
-55.524281 -60.906467 1.194441 63
-55.702965 -60.644039 1.195147 63
-56.093838 -60.678982 1.196885 63
-56.024403 -60.206795 1.196442 63
-56.547379 -60.362408 1.198812 63
-55.881966 -59.229370 1.195549 63
-56.049366 -59.002895 1.196243 63
-57.235600 -59.821163 1.201763 63
-57.122475 -59.312164 1.201143 63
-61.696106 -59.910778 1.222221 63
-61.801296 -59.604073 1.222693 63
-62.186050 -59.570690 1.224494 63
-62.362617 -59.354107 1.225316 63
-62.726109 -59.276470 1.227027 63
-63.228790 -59.370045 1.229402 63
-63.847549 -59.549126 1.232332 63
-63.622986 -58.930214 1.231281 63
-64.188728 -59.034119 1.233973 63
-64.417259 -58.841152 1.235077 63
-64.538010 -58.568848 1.235675 63
-64.967056 -58.538883 1.237740 63
-65.117081 -58.273052 1.238491 63
-15.431646 -12.143867 1.003739 1
-15.696830 -12.199223 1.005051 26
-15.732660 -12.148826 1.005248 11
-26.298120 -13.534986 1.061336 4
-25.671930 -13.108098 1.058352 4
-26.477680 -13.412024 1.062528 4
-26.297689 -13.209230 1.061784 4
-26.320068 -13.119681 1.062039 4
-26.530762 -13.117868 1.063249 4
-26.504562 -12.998790 1.063272 8
-26.566299 -12.917614 1.063746 4
-26.636528 -12.845636 1.064258 4
-30.856817 -14.747664 1.085730 6
-26.966070 -12.795406 1.066236 4
-30.475307 -14.214375 1.084346 6
-30.401230 -14.059820 1.084161 6
-30.969282 -14.076535 1.087437 6
-30.722486 -13.844868 1.086378 6
-30.107885 -13.335821 1.083636 5
-32.626823 -14.172771 1.096962 7
-30.531851 -13.161175 1.086419 5
-30.402409 -12.995010 1.085948 5
-30.621208 -12.969769 1.087280 5
-30.758854 -12.909523 1.088199 5
-30.944550 -12.868161 1.089369 6
-31.260054 -12.878230 1.091214 6
-30.839115 -12.357510 1.089689 5
-30.878706 -12.245243 1.090137 5
-31.118101 -12.000324 1.092036 5
-32.027645 -12.217777 1.097033 6
-30.357246 -11.487880 1.088511 5
-32.369930 -12.110547 1.099294 6
-32.045433 -11.867406 1.097845 6
-32.627415 -11.962856 1.101137 6
-32.654110 -11.851883 1.101527 6
-72.274673 -24.467171 1.313246 63
-72.124367 -24.145309 1.313041 63
-71.892799 -23.798754 1.312405 63
-71.728210 -23.476170 1.312126 63
-73.338951 -22.900387 1.323208 63
-68.798386 -21.265646 1.299379 63
-69.895622 -21.339708 1.305887 63
-69.885246 -21.065802 1.306469 63
-69.601501 -20.725733 1.305547 63
-69.420013 -20.417753 1.305177 63
-69.449333 -20.184235 1.305921 63
-69.642914 -19.984310 1.307592 63
-70.074936 -19.849380 1.310568 63
-70.402641 -19.683237 1.312988 63
-70.347626 -19.412132 1.313326 63
-75.580902 -20.558952 1.342569 63
-16.544325 -4.555132 1.020418 1
-16.579916 -4.509928 1.020757 1
-16.665979 -4.476448 1.021379 1
-15.959221 -3.951841 1.018442 0
-15.836178 -3.875607 1.017893 0
-16.011715 -3.710973 1.019459 0
-16.327621 -3.719820 1.021403 0
-16.270090 -3.657433 1.021228 0
-16.739702 -3.691054 1.024059 1
-16.630785 -3.618602 1.023595 1
-15.666409 -3.398138 1.018233 0
-15.394268 -3.305046 1.016813 0
-15.741879 -3.263274 1.019116 3
-15.848101 -3.181472 1.020035 0
-17.619553 -3.290684 1.030799 3
-17.571938 -3.228286 1.030699 1
-96.208038 -14.061283 1.489740 63
-97.266052 -13.852066 1.497062 63
-100.419579 -13.927221 1.516638 63
-100.785408 -13.624603 1.519928 63
-98.885612 -13.055821 1.509848 63
-99.751106 -12.799700 1.516142 63
-99.086441 -12.393109 1.513311 63
-99.658104 -12.114650 1.517843 63
-100.107635 -11.801648 1.521729 63
-98.758698 -11.328786 1.514831 63
-98.505356 -10.944210 1.514545 63
-107.857407 -11.532651 1.571503 63
-92.082092 -9.648576 1.478489 63
-107.131592 -10.719882 1.569736 63
-106.766380 -10.317489 1.568835 63
-106.796623 -9.970022 1.570246 63
-125.283691 -10.682434 1.684494 63
-120.833282 -9.916392 1.659109 63
-124.582085 -9.766867 1.683339 63
9.686099 0.721777 1.078425 0
10.024333 0.645810 1.081715 1
9.809904 0.530056 1.078708 0
9.787472 0.485276 1.078214 0
9.796370 0.446673 1.078101 0
9.813333 0.406927 1.078073 0
9.850023 0.369409 1.078275 0
9.846854 0.327133 1.078014 0
9.851486 0.285772 1.077846 0
9.855753 0.246464 1.077686 0
9.879996 0.207128 1.077748 0
9.868290 0.164064 1.077395 0
9.888278 0.124162 1.077410 0
9.864323 0.080073 1.076920 0
9.891995 0.040784 1.077027 0
9.899613 -0.000391 1.076905 0
9.891143 -0.042916 1.076599 0
9.910433 -0.083175 1.076613 0
10.117045 -0.109470 1.078774 1
9.920675 -0.166061 1.076322 0
10.059118 -0.196328 1.077711 1
9.994069 -0.242824 1.076767 1
36.916576 -0.396808 1.375246 8
36.796005 -0.669625 1.372771 16
36.780998 -0.805138 1.372048 16
36.777519 -0.940516 1.371460 16
36.793575 -1.069126 1.371122 16
36.813137 -1.211408 1.370773 16
36.836235 -1.347090 1.370496 8
36.870861 -1.483079 1.370351 16
36.953102 -1.613254 1.370763 16
36.962669 -1.756245 1.370324 8
63.131046 -4.721269 1.650510 112
62.917431 -4.947879 1.647384 179
62.915310 -5.175223 1.646612 113
78.118401 -10.917549 1.798134 46
77.838989 -11.435234 1.793734 45
77.738731 -11.705358 1.791957 45
43.088013 -7.543324 1.420577 11
43.025570 -7.855531 1.419171 24
42.973774 -8.008357 1.418258 61
42.881962 -8.154625 1.416928 110
42.781776 -8.299054 1.415516 140
42.729885 -8.611506 1.414288 77
46.935982 -9.844706 1.457845 12
44.208721 -9.853479 1.428039 11
44.083385 -9.996368 1.426414 11
47.236111 -11.317030 1.458483 13
45.001217 -11.020997 1.434672 12
46.654835 -11.550512 1.451796 12
18.183830 -5.536180 1.152089 2
17.973728 -5.558771 1.149780 1
17.049261 -5.629312 1.139690 1
16.838844 -5.648065 1.137396 1
16.589720 -5.655728 1.134702 1
16.126835 -5.739079 1.129628 1
16.114122 -5.803345 1.129423 1
16.054817 -5.855163 1.128734 1
16.030113 -5.916059 1.128409 1
16.099518 -6.070839 1.129009 1
16.276024 -6.182035 1.130798 1
16.041653 -6.187312 1.128292 1
16.042715 -6.255830 1.128249 1
16.028170 -6.319906 1.128046 1
16.032562 -6.389652 1.128043 1
16.109449 -6.481436 1.128799 1
16.320776 -6.611513 1.130960 1
16.330732 -6.688076 1.131020 1
16.211594 -6.720959 1.129739 1
16.002928 -6.717798 1.127533 1
16.203861 -6.851377 1.129592 1
16.084471 -6.882812 1.128318 1
16.180674 -6.987725 1.129290 1
25.332916 -10.103014 1.224539 3
3.129910 -2.743633 0.993397 0
3.089780 -2.749945 0.992973 0
3.125626 -2.781110 0.993342 0
3.157543 -2.811220 0.993670 0
3.192454 -2.844698 0.994029 0
3.148045 -2.850318 0.993564 0
3.160445 -2.875042 0.993692 0
3.165872 -2.895339 0.993747 0
3.226549 -2.939075 0.994378 0
3.223569 -2.958699 0.994347 0
3.235496 -2.983945 0.994472 1
3.144121 -3.010329 0.993530 0
2.944094 -2.972726 0.991457 0
2.978114 -3.006277 0.991817 0
2.830518 -2.965979 0.990286 0
2.768124 -2.960215 0.989644 0
2.713229 -2.957081 0.989080 0
2.672852 -2.960536 0.988668 0
2.684494 -2.984570 0.988798 0
2.589213 -2.963475 0.987815 0
2.545624 -2.963757 0.987371 0
2.513447 -2.967726 0.987046 1
2.451618 -2.959504 0.986413 0
2.415531 -2.962148 0.986049 0
2.375825 -2.962941 0.985647 0
2.332517 -2.961844 0.985209 1
2.311136 -2.970361 0.984999 2
2.220618 -2.947186 0.984069 0
2.195702 -2.953536 0.983824 0
2.178726 -2.961651 0.983660 0
2.161059 -2.971131 0.983492 0
2.099991 -2.959983 0.982870 0
2.060709 -2.958772 0.982476 0
2.017883 -2.955575 0.982046 0
1.986259 -2.956653 0.981732 0
1.965108 -2.963514 0.981529 1
1.929617 -2.963159 0.981177 1
1.904915 -2.967937 0.980938 1
1.873082 -2.968970 0.980624 1
1.827022 -2.962563 0.980162 1
1.798857 -2.964973 0.979888 1
1.767168 -2.965374 0.979577 1
1.742617 -2.969274 0.979341 1
1.714545 -2.971166 0.979069 1
1.693574 -2.976631 0.978872 1
1.665554 -2.978203 0.978601 1
1.630526 -2.975810 0.978256 1
1.599074 -2.975106 0.977949 2
1.574688 -2.978050 0.977718 1
1.550668 -2.980227 0.977489 2
1.529825 -2.984827 0.977295 2
1.505505 -2.987349 0.977065 2
1.488173 -2.993664 0.976909 2
1.467366 -2.997900 0.976716 1
1.432702 -2.994040 0.976377 1
1.408489 -2.995980 0.976149 1
1.384305 -2.997774 0.975922 1
1.353257 -2.995364 0.975622 1
1.325706 -2.994804 0.975359 1
1.305065 -2.998184 0.975170 1
1.284787 -3.000871 0.974984 1
1.291525 -3.020635 0.975087 8
1.233361 -3.000771 0.974499 1
1.216217 -3.005741 0.974348 1
1.192286 -3.006389 0.974125 1
1.171779 -3.009020 0.973939 1
1.154674 -3.013669 0.973790 1
1.127453 -3.011777 0.973532 1
1.104346 -3.010796 0.973316 1
1.087300 -3.015107 0.973168 1
1.066562 -3.017676 0.972982 1
1.049539 -3.021783 0.972835 1
1.029189 -3.023589 0.972652 1
1.008864 -3.025278 0.972469 1
0.998526 -3.033539 0.972395 1
0.974915 -3.032786 0.972178 1
0.957957 -3.036399 0.972032 1
0.937712 -3.037654 0.971852 1
0.917848 -3.038283 0.971673 1
0.900941 -3.041595 0.971529 1
0.894221 -3.051203 0.971494 2
0.873695 -3.052559 0.971313 5
0.836913 -3.042182 0.970955 5
0.810696 -3.037584 0.970708 1
0.803637 -3.047383 0.970672 1
0.793310 -3.054802 0.970601 1
0.773292 -3.055074 0.970424 1
0.756878 -3.057128 0.970285 1
0.749393 -3.067219 0.970248 2
0.729432 -3.067203 0.970073 4
0.712695 -3.069485 0.969932 3
0.702342 -3.076519 0.969863 3
0.679275 -3.073772 0.969653 2
0.666477 -3.077293 0.969553 3
0.652603 -3.082142 0.969447 3
0.645389 -3.091388 0.969414 3
0.631862 -3.095656 0.969311 2
0.612073 -3.094879 0.969138 1
0.586436 -3.088540 0.968898 0
0.582315 -3.100065 0.968900 0
0.565721 -3.101506 0.968763 0
0.548784 -3.103301 0.968625 0
0.544585 -3.114728 0.968628 0
0.534545 -3.120602 0.968563 0
0.539481 -3.139688 0.968670 0
0.527674 -3.159950 0.968642 22
0.489753 -3.142809 0.968265 24
0.467524 -3.138027 0.968063 28
0.463143 -3.149243 0.968067 38
0.437595 -3.142070 0.967829 41
0.430173 -3.150566 0.967799 40
0.417097 -3.153319 0.967702 40
0.433553 -3.183001 0.967947 101
0.405126 -3.172809 0.967676 52
0.397597 -3.181191 0.967647 36
0.384116 -3.184170 0.967549 48
0.370643 -3.187082 0.967451 42
0.366007 -3.198052 0.967456 42
0.355457 -3.203579 0.967393 39
0.344897 -3.209058 0.967330 55
0.337242 -3.217230 0.967301 57
0.323749 -3.219875 0.967204 59
0.316442 -3.227569 0.967177 50
0.319877 -3.247124 0.967283 51
0.317841 -3.260768 0.967322 45
0.313264 -3.271232 0.967329 30
0.310711 -3.285295 0.967367 21
0.299943 -3.290537 0.967305 30
0.294841 -3.301372 0.967311 26
0.287263 -3.308969 0.967285 13
0.267990 -3.305582 0.967122 13
0.259999 -3.313485 0.967095 8
0.254777 -3.324218 0.967101 7
0.280580 -3.366100 0.967478 25
0.264043 -3.365413 0.967350 16
0.255843 -3.373301 0.967322 21
0.269677 -3.404338 0.967563 58
0.247603 -3.397712 0.967368 43
0.242027 -3.408460 0.967375 38
0.244586 -3.427975 0.967481 45
0.244319 -3.444601 0.967554 101
0.238549 -3.455365 0.967561 104
0.233158 -3.465729 0.967568 30
0.227294 -3.476472 0.967575 23
0.229412 -3.496122 0.967681 41
0.201450 -3.499661 0.967495 4
0.198072 -3.513331 0.967535 3
0.202967 -3.535652 0.967676 0
0.199422 -3.549363 0.967716 0
0.203651 -3.572162 0.967855 0
0.207746 -3.595021 0.967994 0
0.196152 -3.599667 0.967935 0
0.200045 -3.622590 0.968074 0
0.178090 -3.614935 0.967883 0
0.195087 -3.652866 0.968188 0
0.198637 -3.675917 0.968326 0
0.189818 -3.683194 0.968301 0
0.215449 -3.734586 0.968734 1
0.185815 -3.717441 0.968445 1
0.186890 -3.737139 0.968552 1
0.187380 -3.757254 0.968657 1
0.189761 -3.780922 0.968794 1
0.214755 -3.832544 0.969225 3
0.197534 -3.830804 0.969102 4
0.190162 -3.841618 0.969109 2
0.177858 -3.846077 0.969051 1
0.193286 -3.884664 0.969353 1
0.194871 -3.908607 0.969489 1
0.196311 -3.932601 0.969625 1
0.195720 -3.953058 0.969729 1
0.195527 -3.973162 0.969835 1
0.204208 -4.006555 0.970069 1
0.210844 -4.036430 0.970272 1
0.220949 -4.073626 0.970536 1
0.217301 -4.091089 0.970608 1
0.216427 -4.111427 0.970713 2
0.223632 -4.145604 0.970944 3
0.219630 -4.163148 0.971016 1
0.229864 -4.199966 0.971282 1
0.237031 -4.233994 0.971514 1
0.257628 -4.287855 0.971939 1
0.252994 -4.305613 0.972009 1
0.275270 -4.363057 0.972466 1
0.310605 -4.440583 0.973114 1
0.329835 -4.495141 0.973537 8
0.329380 -4.519495 0.973672 1
4.326906 -11.943629 1.039795 18
4.260842 -11.917092 1.039284 17
4.210885 -11.918030 1.039027 17
4.166902 -11.929196 1.038866 17
4.113136 -11.922746 1.038547 17
4.067267 -11.930035 1.038356 20
4.036853 -11.960600 1.038389 21
4.008229 -11.999150 1.038482 21
3.983226 -12.044664 1.038638 20
3.889734 -11.963340 1.037663 31
3.834551 -11.952073 1.037318 55
3.772034 -11.926414 1.036849 62
3.724637 -11.928785 1.036631 65
3.684678 -11.945153 1.036540 77
3.639099 -11.955250 1.036383 86
3.602716 -11.978428 1.036356 78
3.577202 -12.018352 1.036488 65
3.547761 -12.055621 1.036587 61
3.482446 -12.021219 1.036061 34
3.399724 -11.950635 1.035223 45
3.340573 -11.921784 1.034765 62
3.295499 -11.925967 1.034585 70
3.243523 -11.915551 1.034282 74
3.203738 -11.930178 1.034197 79
3.167334 -11.951892 1.034176 70
3.135932 -11.984351 1.034248 68
3.107734 -12.023980 1.034383 62
3.080993 -12.067180 1.034550 36
3.063964 -12.132165 1.034903 33
5.803616 -58.135708 1.377726 26
5.630059 -58.356880 1.379211 26
5.456594 -58.589432 1.380790 26
5.246103 -58.539707 1.380215 26
4.730576 -57.631660 1.372908 24
4.488471 -57.269375 1.369972 24
4.326447 -57.420654 1.370986 24
4.152869 -57.657124 1.372642 24
3.943998 -57.667358 1.372571 24
3.836648 -58.679672 1.380158 26
3.671522 -59.069920 1.383008 27
3.466223 -58.953011 1.382002 27
3.353709 -59.959644 1.389568 28
3.125679 -59.722950 1.387658 28
2.862625 -59.046932 1.382407 27
2.663573 -59.107410 1.382780 27
2.475180 -59.310776 1.384251 27
-15.024642 -60.660492 1.418077 31
-15.257016 -60.723999 1.419247 31
-15.507605 -60.864643 1.421049 31
-15.653811 -60.544224 1.419152 31
-14.449746 -54.438725 1.370623 21
-15.959198 -60.029522 1.416350 30
-16.126778 -59.820976 1.415365 30
-16.304245 -59.613373 1.414429 30
-16.708578 -60.325356 1.420956 31
-16.850933 -60.104290 1.419822 30
-17.140118 -60.377655 1.422788 31
-17.185877 -59.701004 1.418031 30
-17.399750 -59.682457 1.418637 30
-17.550905 -59.427353 1.417318 30
-29.878094 -55.548714 1.448656 31
-29.938097 -55.198662 1.446786 30
-55.827618 -60.721703 1.664336 45
-56.000725 -60.494949 1.664732 45
-56.121620 -60.211628 1.664442 45
-56.441689 -60.145931 1.666829 45
-56.552547 -59.852879 1.666434 45
-57.123363 -60.053844 1.672166 46
-57.186600 -59.709545 1.671160 46
-61.759556 -59.893322 1.711558 49
-61.713081 -59.438217 1.709263 48
-61.919491 -59.232208 1.710245 48
-62.041710 -58.944939 1.710158 48
-62.422600 -58.906559 1.713398 48
-62.702526 -58.769730 1.715352 48
-63.761444 -59.367794 1.727242 50
-64.072662 -59.253109 1.729588 50
-64.653076 -59.387791 1.735358 50
-64.407196 -58.753155 1.730653 50
-64.605385 -58.532257 1.731597 50
-64.826431 -58.332241 1.732841 50
-65.180237 -58.252224 1.735769 50
-15.720531 -12.207060 1.108372 22
-15.728406 -12.133931 1.108204 19
-15.807643 -12.118519 1.108912 3
-26.214243 -13.572783 1.219813 3
-26.204546 -13.460756 1.219559 3
-26.294149 -13.399799 1.220456 3
-25.925779 -13.002425 1.215945 3
-26.090759 -12.985292 1.217730 3
-26.487631 -13.076031 1.222183 3
-26.673840 -12.848335 1.223986 3
-26.668957 -12.634901 1.223723 6
-26.705721 -12.547029 1.224048 3
-26.738541 -12.457363 1.224332 3
-26.658310 -12.315968 1.223321 3
-26.530045 -12.153782 1.221763 3
-31.767044 -14.405657 1.281820 5
-30.534815 -13.731990 1.267582 4
-30.311880 -13.514421 1.264939 4
-32.231743 -14.235797 1.286890 5
-30.003710 -13.029658 1.261183 4
-30.354698 -13.063180 1.265143 4
-30.120537 -12.732676 1.262343 4
-30.815729 -12.904372 1.270260 4
-30.620045 -12.706941 1.267970 13
-30.419626 -12.509521 1.265630 4
-30.532372 -12.105643 1.266798 8
-31.043232 -12.181786 1.272627 13
-30.941868 -12.021257 1.271449 4
-31.010038 -11.931430 1.272218 4
-32.907253 -12.522036 1.293937 5
-30.059111 -11.239667 1.261319 4
-33.174549 -12.257421 1.297002 5
-32.392269 -11.855712 1.288054 5
-32.433674 -11.750887 1.288543 5
-32.285881 -11.580062 1.286869 5
-32.413303 -11.505569 1.288352 5
-32.500904 -11.422733 1.289383 5
-72.372017 -24.187941 1.746363 40
-72.075722 -23.833111 1.743069 40
-74.152794 -22.588179 1.767919 41
-73.157333 -22.020317 1.756686 40
-73.656250 -21.882362 1.762623 41
-70.491409 -20.688915 1.726503 38
-71.003044 -20.601400 1.732570 39
-71.105629 -20.370123 1.733971 39
-70.825760 -20.032928 1.730987 38
-70.439583 -19.656538 1.726802 38
-75.367142 -20.709789 1.783732 42
-71.108627 -19.308554 1.735021 38
-71.369415 -19.118706 1.738295 39
-70.934006 -18.773994 1.733537 38
-15.833319 -4.428720 1.099423 1
-16.480408 -4.475782 1.107023 1
-16.685860 -4.476086 1.109458 1
-16.503590 -4.377138 1.107432 1
-17.307852 -4.448081 1.116881 1
-16.650236 -3.664635 1.110368 1
-16.706638 -3.621842 1.111129 1
-16.699865 -3.567759 1.111156 1
-15.695228 -3.344425 1.099559 1
-15.900538 -3.329381 1.102055 1
-16.674889 -3.300382 1.111425 1
-16.911625 -3.233327 1.114425 1
-17.754879 -3.299507 1.124426 1
-100.509193 -14.921998 2.093977 63
-96.515442 -14.022059 2.048003 59
-96.453201 -13.677716 2.048095 59
-96.728638 -13.394998 2.052122 59
-96.755363 -13.062242 2.053285 59
-101.393547 -13.299302 2.108684 45
-99.809624 -12.739824 2.091009 62
-105.463715 -13.051126 2.158516 45
-112.486160 -13.496525 2.242219 45
-108.556984 -12.676280 2.196936 45
-100.594276 -11.457095 2.103973 62
-98.367790 -10.864376 2.078691 60
-92.984215 -9.993628 2.015993 55
-92.360458 -9.629646 2.009491 55
-92.676720 -9.340491 2.014170 55
-105.195786 -10.126103 2.163552 45
-121.567238 -11.150249 2.358928 45
-121.115486 -10.693324 2.354845 45
-121.095055 -10.294233 2.355831 45
-123.691414 -10.069177 2.388035 45
10.163988 1.314928 1.159206 0
10.093462 1.257650 1.157617 0
10.014819 1.199440 1.155889 0
10.006772 1.109219 1.155112 9
9.990128 1.065280 1.154525 5
9.886052 0.961792 1.152070 0
9.813956 0.907411 1.150493 0
9.852210 0.871203 1.150886 0
9.720118 0.810292 1.148268 0
9.777835 0.777214 1.149012 0
9.823596 0.741986 1.149545 0
9.801973 0.696674 1.148886 0
9.819776 0.657154 1.148927 0
9.809714 0.613693 1.148479 0
9.823276 0.573529 1.148450 0
9.846020 0.492470 1.148322 4
