# .PCD v.7 - Point Cloud Data file format
VERSION .7
FIELDS x y z intensity
SIZE 4 4 4 1
TYPE F F F U
COUNT 1 1 1 1
WIDTH 1539
HEIGHT 1
VIEWPOINT 0 0 0 1 0 0 0
POINTS 1539
DATA ascii
83.646324 -8.002394 0.281335 20
47.352703 -6.632128 0.547201 29
47.203312 -6.784842 0.546851 29
47.148224 -6.951933 0.545710 29
47.104404 -7.120691 0.544473 29
-13.491867 1.006535 0.907200 1
-13.535740 1.047004 0.907329 1
-13.867456 1.090202 0.906160 1
-54.359756 1.613870 0.724560 30
-54.498112 1.982376 0.726915 60
-36.136234 1.874250 0.810305 10
-36.132946 1.993538 0.811279 10
-36.037289 2.109791 0.812651 10
-36.041386 2.223074 0.813539 10
-36.085075 2.337976 0.814256 10
-23.576298 2.297726 0.871271 73
-23.527695 2.370360 0.872063 63
-23.506783 2.444556 0.872739 66
-23.485617 2.518623 0.873414 70
-23.468187 2.592858 0.874071 67
-23.458475 2.667611 0.874696 67
-23.444517 2.741992 0.875335 64
-23.441940 2.821061 0.875957 60
-23.439737 2.892638 0.876519 64
-23.441278 2.964586 0.877064 64
-23.449827 3.044826 0.877640 66
-23.450857 3.116862 0.878186 63
-23.467180 3.194311 0.878701 59
-23.483223 3.271899 0.879218 56
-23.526819 3.352674 0.879632 66
-23.676231 3.526425 0.880263 24
-60.551216 8.663993 0.751087 30
-59.716724 8.749586 0.755513 30
-58.791180 8.817179 0.760214 30
-57.951584 8.900787 0.764640 30
-57.138424 8.992275 0.769000 30
-56.332134 9.059521 0.773146 30
-55.591820 9.141075 0.777095 30
-54.784416 9.207108 0.781231 30
-53.996964 9.270748 0.785254 30
-53.225513 9.331562 0.789181 30
-52.430607 9.383157 0.793144 30
-51.746387 9.448063 0.796699 30
-50.999283 9.497357 0.800422 29
-50.327286 9.554792 0.803862 28
-49.656994 9.599317 0.807198 27
-48.926430 9.636834 0.810751 26
-48.302338 9.689284 0.813929 25
-47.721672 9.745752 0.816938 24
-47.109779 9.792151 0.820012 23
-46.478508 9.830491 0.823112 23
-45.863209 9.867703 0.826129 22
-45.267788 9.904762 0.829054 21
-44.668736 9.936954 0.831957 20
-44.093468 9.970076 0.834757 19
-43.561493 10.008615 0.837399 18
-42.988380 10.026918 0.840081 17
-41.919621 10.077126 0.845185 16
-41.400501 10.103976 0.847677 15
-40.901157 10.131886 0.850086 15
-40.413780 10.159205 0.852434 14
-39.942238 10.187001 0.854713 14
-9.367418 2.811023 0.939654 0
-9.211056 2.826356 0.940449 2
-9.044482 2.863327 0.941432 35
-8.991539 2.875611 0.941747 35
-8.927017 2.884401 0.942089 35
-8.885990 2.897932 0.942359 36
-8.833057 2.909186 0.942666 39
-8.787828 2.922273 0.942950 38
-8.731058 2.931759 0.943261 37
-8.685828 2.944221 0.943540 41
-8.644431 2.957521 0.943808 41
-8.603024 2.970556 0.944074 43
-8.557778 2.982169 0.944346 44
-8.520184 2.995830 0.944598 53
-8.478753 3.008070 0.944857 50
-8.441134 3.021241 0.945105 52
-8.380627 3.026917 0.945403 53
-8.370028 3.046975 0.945578 59
-8.336180 3.060688 0.945812 59
-8.294350 3.072798 0.946070 57
-8.253247 3.082433 0.946308 54
-8.226949 3.098011 0.946520 52
-8.193046 3.110854 0.946746 56
-8.162911 3.124787 0.946963 57
-8.125201 3.135906 0.947194 58
-8.083715 3.145461 0.947431 59
-8.046008 3.156092 0.947658 58
-8.012064 3.167842 0.947876 56
-7.978113 3.179381 0.948092 55
-7.944155 3.190710 0.948306 58
-7.917691 3.204616 0.948504 59
-7.891202 3.218364 0.948701 61
-7.849733 3.226274 0.948924 61
-7.816142 3.235767 0.949124 59
-7.782159 3.246077 0.949330 58
-7.755229 3.260106 0.949528 57
-7.728674 3.272960 0.949717 56
-7.709528 3.288628 0.949892 57
-7.679619 3.298697 0.950078 62
-7.645598 3.308077 0.950276 69
-7.622678 3.321816 0.950454 69
-7.599731 3.335423 0.950630 74
-7.569382 3.345802 0.950818 74
-7.542713 3.357558 0.950998 74
-7.493968 3.359710 0.951212 66
-7.467305 3.371076 0.951388 64
-7.448380 3.384526 0.951545 60
-7.418025 3.393995 0.951726 69
-7.402291 3.409781 0.951882 74
-7.357318 3.412385 0.952081 74
-7.341543 3.427908 0.952236 74
-7.314812 3.438361 0.952405 74
-7.284442 3.446981 0.952578 74
-7.268581 3.462174 0.952730 74
-7.234579 3.468780 0.952905 74
-7.215487 3.481117 0.953053 74
-7.210368 3.501172 0.953188 81
-7.161944 3.500360 0.953378 67
-7.149554 3.516751 0.953520 74
-7.122752 3.526032 0.953680 74
-7.099532 3.536933 0.953834 74
-7.068698 3.545017 0.954002 74
-7.041893 3.553825 0.954158 74
-7.015537 3.561595 0.954306 74
-6.978508 3.563742 0.954464 74
-6.961936 3.578441 0.954611 74
-6.945779 3.592183 0.954750 74
-6.929586 3.605844 0.954889 76
-6.935019 3.629808 0.954999 104
-6.929301 3.649045 0.955127 109
-6.902388 3.656877 0.955275 109
-6.878995 3.666465 0.955418 108
-6.809542 3.651757 0.955607 74
-6.786222 3.660921 0.955747 74
-6.759405 3.668005 0.955889 74
-6.740039 3.678024 0.956017 74
-6.717179 3.685971 0.956147 74
-6.700793 3.698591 0.956277 74
-6.680912 3.709133 0.956409 74
-6.654096 3.715552 0.956545 74
-6.641102 3.729900 0.956670 74
-6.621174 3.740125 0.956800 54
-6.604671 3.752289 0.956926 52
-6.598917 3.769731 0.957039 34
-6.502173 3.820647 0.957664 109
-6.424518 3.793936 0.957815 74
-6.404564 3.803085 0.957935 74
-6.391346 3.816431 0.958052 74
-6.371358 3.825393 0.958170 74
-6.354720 3.836425 0.958287 74
-6.307711 3.554960 0.986353 72
-6.306509 3.572692 0.986497 65
-6.289698 3.585249 0.986579 54
-6.263494 3.590004 0.986586 50
-6.262138 3.607669 0.986730 33
-6.238876 3.615052 0.986762 28
-6.222883 3.625765 0.986830 28
-6.197603 3.628572 0.986822 39
-6.174352 3.635579 0.986851 51
-6.158331 3.645997 0.986917 53
-6.142288 3.656334 0.986982 52
-6.122859 3.664431 0.987025 34
-6.096709 3.668076 0.987023 13
-6.048428 3.697994 0.987209 1
-6.025642 3.703367 0.987226 0
-6.009507 3.713078 0.987286 0
-5.990042 3.720465 0.987322 2
-5.983789 3.736771 0.987449 1
-5.961473 3.741035 0.987456 0
-5.938693 3.745875 0.987468 0
-5.874265 3.781887 0.987685 108
-5.854750 3.788530 0.987715 108
-5.837986 3.798094 0.987773 108
-5.822189 3.806225 0.987821 108
-5.805887 3.814953 0.987873 108
-5.783140 3.818844 0.987877 108
-5.770035 3.829781 0.987950 108
-5.753701 3.838260 0.988000 108
-5.737853 3.846000 0.988044 108
-5.696534 3.834284 0.987898 72
-5.705126 3.862566 0.988140 108
-5.701406 3.880512 0.988283 107
-5.643942 3.856707 0.988017 72
-5.628118 3.863973 0.988057 72
-5.620699 3.879877 0.988179 72
-5.616850 3.897616 0.988320 72
-5.604065 3.907226 0.988383 72
-5.593859 3.919928 0.988475 39
-5.592410 3.940793 0.988644 17
-5.588278 3.958520 0.988784 6
-5.577894 3.971167 0.988875 4
-5.576699 3.991440 0.989040 5
-5.572865 4.008546 0.989176 4
-5.568427 4.026289 0.989316 4
-5.567494 4.045995 0.989477 5
-5.553226 4.056599 0.989546 5
-5.557666 4.082159 0.989761 6
-5.553442 4.099307 0.989897 8
-5.549143 4.116460 0.990032 8
-5.537659 4.129594 0.990126 10
-5.524230 4.138792 0.990185 10
-5.518641 4.157152 0.990329 10
-5.507563 4.169555 0.990417 10
-5.499412 4.184598 0.990530 9
-5.497679 4.204387 0.990691 8
-5.489388 4.219416 0.990804 8
-5.483976 4.237137 0.990943 8
-5.484348 4.260301 0.991133 6
-5.484601 4.283507 0.991324 5
-5.476573 4.297917 0.991432 4
-5.470231 4.316286 0.991575 4
-5.467279 4.336802 0.991740 3
-5.461931 4.353956 0.991874 2
-5.475447 4.391802 0.992201 2
-5.478473 4.417396 0.992414 2
-5.477909 4.440861 0.992606 2
-5.485760 4.472796 0.992878 2
-5.496268 4.507649 0.993177 2
-5.500923 4.536956 0.993423 2
-5.502599 4.563497 0.993642 2
-5.492909 4.578691 0.993755 2
-5.506159 4.616125 0.994079 2
-5.516412 4.650815 0.994376 2
-5.534159 4.694873 0.994759 2
-5.540574 4.727545 0.995035 2
-5.552318 4.766102 0.995365 2
-5.561089 4.801879 0.995669 2
-5.583337 4.852349 0.996111 2
-5.610045 4.909511 0.996612 1
-5.673781 5.003159 0.997458 2
-5.716586 5.077948 0.998124 2
-5.723862 5.114672 0.998434 4
-5.712127 5.130749 0.998552 3
-33.686935 36.274361 1.288209 29
-33.578590 36.376842 1.288917 59
-33.500000 36.537857 1.290142 59
-33.399513 36.674744 1.291142 59
-33.368568 36.904148 1.292986 59
-33.231968 36.975468 1.293404 59
-34.036442 38.162483 1.304125 29
-33.906483 38.274223 1.304882 29
-33.843529 38.464714 1.306368 29
-34.240173 39.213905 1.312999 29
-34.470551 39.746700 1.317651 29
-32.906635 38.144958 1.302601 29
-32.471336 38.146801 1.302084 59
-32.141766 38.008167 1.300544 29
-31.784857 38.096382 1.300831 59
-31.782387 38.359707 1.302989 29
-32.060799 38.966206 1.308304 29
-31.975048 39.130768 1.309549 29
-42.275948 52.589954 1.432543 38
-41.995060 52.600788 1.432289 38
-37.404526 47.013786 1.380849 29
-30.799356 38.982910 1.306900 59
-30.642483 39.051399 1.307270 59
-30.528612 39.176910 1.308160 59
-30.445219 39.343830 1.309428 59
-31.070736 40.473251 1.319457 29
-40.592670 53.772724 1.440189 38
-40.563354 54.120827 1.443009 39
-40.398708 54.284447 1.444150 39
-40.191483 54.349667 1.444432 39
-39.854294 54.270920 1.443374 38
-39.585022 54.285233 1.443162 38
-39.302341 54.278664 1.442763 38
-39.013317 54.260921 1.442264 37
-38.729412 54.248394 1.441815 37
-38.439270 54.224636 1.441265 37
-38.163235 54.219353 1.440885 37
-37.885448 54.209473 1.440464 36
-37.608170 54.198307 1.440034 36
-26.597025 38.309998 1.296245 29
-36.841351 54.231323 1.439368 35
-27.317339 40.290134 1.313369 29
-27.173525 40.368301 1.313835 29
-27.278305 40.837563 1.317812 29
-33.964390 53.771080 1.432078 32
-33.368206 54.011795 1.433324 32
-33.144325 54.482025 1.436908 65
-32.817879 54.781693 1.438967 66
-23.334381 38.553181 1.294254 29
-23.189363 38.603176 1.294487 59
-22.007137 36.785362 1.278131 29
-21.948099 36.974007 1.279606 59
-21.675680 36.777298 1.277660 59
-21.537209 36.821327 1.277852 59
-21.419632 36.903515 1.278382 59
-21.110500 36.629448 1.275756 59
-21.010426 36.741966 1.276557 29
-29.625099 53.348724 1.423311 29
-29.455153 53.469776 1.424097 29
-29.186813 53.357155 1.422845 29
-20.894901 38.038456 1.287051 29
-20.527653 37.650864 1.283423 29
-19.791815 36.816345 1.275678 59
-19.672909 36.875282 1.276016 88
-19.581675 37.022606 1.277113 59
-19.303997 36.770756 1.274708 58
-19.121132 36.694683 1.273861 57
-19.015312 36.794090 1.274547 57
-19.160482 37.442379 1.280042 59
-18.995008 37.387550 1.279390 59
-18.850077 37.441807 1.279658 59
-19.064859 38.245728 1.286516 59
-18.565365 37.493294 1.279733 59
-18.395107 37.456223 1.279221 59
-18.262506 37.467506 1.279151 58
-19.369806 40.350155 1.304151 29
-21.416458 45.353466 1.347695 29
-24.622465 53.685631 1.419963 29
-20.493181 44.501938 1.339582 29
-18.847904 41.380138 1.311963 59
-23.720907 53.575443 1.417957 29
-23.485575 53.551205 1.417471 29
-23.284086 53.555580 1.417261 59
-23.058493 53.551720 1.416954 29
-17.856560 40.955120 1.307265 29
-17.715828 41.028004 1.307691 29
-22.843390 54.578785 1.425116 29
-17.625004 42.054089 1.315997 59
-17.518417 42.184387 1.316936 29
-17.298912 42.036118 1.315452 29
-17.144440 42.059399 1.315454 29
-18.333744 45.755932 1.347230 29
-22.721291 58.371628 1.456080 31
-22.669769 58.828030 1.459761 32
-22.635643 60.028217 1.469565 33
-20.065607 53.273972 1.411018 29
-16.956070 44.788345 1.337610 29
-22.542057 61.794857 1.483943 36
-20.136467 55.311764 1.427822 29
-16.113514 43.784721 1.328347 29
-19.125481 53.505955 1.411773 29
-16.281937 45.303520 1.341012 29
-18.844267 53.861629 1.414347 29
-18.665619 53.939316 1.414766 29
-18.488743 53.990604 1.414971 29
-18.330851 54.169338 1.416244 29
-14.539501 42.366562 1.314791 29
-14.464359 42.614910 1.316736 29
-14.099138 41.943325 1.310781 29
-14.098178 43.014671 1.319568 29
-14.143294 43.729946 1.325491 29
-16.664883 53.267391 1.406810 29
-16.498428 53.305622 1.406920 29
-3.645657 7.143064 1.012534 0
-3.580998 7.077665 1.011919 2
-3.517411 7.007516 1.011266 1
-3.486564 6.970016 1.010921 2
-3.431306 6.926174 1.010493 1
-3.377763 6.881608 1.010062 10
-3.355237 6.882872 1.010045 4
-3.313302 6.884436 1.010007 0
-3.282141 6.842306 1.009623 0
-3.262726 6.846658 1.009635 0
-3.236126 6.827948 1.009449 0
-3.219282 6.843879 1.009559 0
-3.195337 6.836715 1.009471 0
-3.172480 6.829242 1.009382 0
-3.151509 6.825393 1.009325 0
-3.127985 6.813829 1.009201 0
-3.111513 6.837493 1.009375 0
-3.091094 6.841477 1.009383 0
-3.070660 6.845390 1.009390 0
-3.043629 6.813840 1.009098 0
-3.027184 6.833141 1.009236 0
-3.004666 6.825018 1.009142 0
-2.981891 6.820929 1.009081 0
-2.961871 6.820343 1.009052 0
-2.941512 6.823805 1.009055 0
-2.919842 6.819303 1.008992 0
-2.900124 6.826566 1.009027 0
-2.881611 6.841666 1.009129 0
-2.858953 6.816861 1.008897 0
-2.841588 6.839739 1.009064 0
-2.817233 6.823145 1.008898 0
-2.798001 6.834020 1.008964 0
-2.760905 6.859405 1.009127 0
-2.738860 6.858336 1.009091 0
-2.696875 6.855693 1.009018 0
-2.677470 6.850039 1.008948 1
-2.653080 6.836863 1.008810 1
-2.633791 6.831064 1.008739 1
-2.616508 6.861206 1.008965 2
-2.594287 6.847556 1.008826 0
-2.571565 6.837907 1.008719 0
-2.554183 6.859800 1.008877 0
-2.531888 6.853977 1.008802 0
-2.514589 6.867692 1.008894 0
-2.492259 6.849674 1.008719 0
-2.472514 6.871510 1.008874 0
-2.449623 6.857405 1.008730 0
-2.431827 6.866888 1.008786 0
-2.411505 6.884531 1.008906 0
-2.391078 6.874029 1.008795 0
-2.369701 6.863527 1.008682 0
-2.348931 6.860930 1.008636 0
-2.328434 6.862252 1.008622 0
-2.306672 6.859571 1.008573 0
-2.286760 6.852701 1.008492 0
-2.268363 6.873724 1.008642 0
-2.246017 6.858835 1.008493 0
-2.226070 6.871785 1.008575 0
-2.205704 6.876674 1.008590 0
-2.184848 6.869502 1.008506 0
-2.164322 6.870252 1.008487 0
-2.143045 6.846941 1.008269 0
-2.123509 6.843518 1.008218 0
-2.104052 6.884040 1.008526 1
-2.082806 6.852515 1.008242 1
-2.061317 6.852926 1.008219 1
-2.041930 6.857230 1.008230 1
-2.021365 6.849481 1.008142 1
-2.000966 6.857659 1.008184 1
-1.980455 6.849767 1.008094 1
-1.960000 6.853803 1.008102 1
-1.939531 6.853767 1.008077 1
-1.919090 6.849660 1.008018 1
-1.898594 6.853482 1.008024 1
-1.878126 6.853232 1.007997 1
-1.859569 6.860945 1.008038 1
-1.839240 6.852561 1.007944 1
-1.818776 6.852103 1.007916 1
-1.798203 6.855573 1.007919 1
-1.777605 6.858971 1.007922 1
-1.757119 6.858299 1.007891 1
-1.736787 6.853558 1.007827 1
-1.715822 6.864733 1.007893 1
-1.694956 6.871836 1.007926 1
-1.674232 6.874871 1.007926 1
-1.653899 6.869843 1.007860 1
-1.633375 6.868739 1.007826 0
-1.613882 6.867624 1.007793 0
-1.593367 6.866380 1.007757 0
-1.572067 6.877038 1.007819 0
-1.551242 6.879639 1.007815 1
-1.531267 6.870198 1.007713 1
-1.510438 6.872654 1.007707 1
-1.490225 6.867062 1.007637 0
-1.468382 6.881330 1.007727 0
-1.446780 6.891533 1.007785 0
-1.426543 6.885723 1.007712 0
-1.406340 6.879843 1.007639 0
-1.385648 6.889918 1.007697 1
-1.365458 6.883897 1.007623 0
-1.344056 6.889743 1.007644 0
-1.262211 6.876597 1.007437 7
-1.243606 6.858244 1.007263 1
-1.225145 6.847899 1.007156 1
-1.204189 6.849266 1.007141 1
-1.179035 6.874212 1.007315 0
-1.157419 6.879377 1.007331 0
-1.137893 6.876683 1.007285 0
-1.118483 6.865859 1.007173 0
-1.096234 6.874759 1.007219 0
-1.075102 6.875663 1.007200 0
-1.053345 6.880445 1.007213 0
-1.032789 6.877245 1.007162 0
-1.012879 6.870024 1.007078 0
-0.989110 6.886416 1.007183 0
-0.967206 6.890880 1.007193 0
-0.947968 6.879495 1.007076 0
-0.925342 6.887746 1.007116 0
-0.904761 6.884099 1.007061 0
-0.882755 6.888249 1.007069 0
-0.859975 6.896250 1.007106 0
-0.840111 6.888445 1.007018 0
-0.814968 6.908062 1.007148 0
-0.795609 6.908361 1.007127 0
-0.766059 6.943272 1.007377 0
-0.743925 6.951037 1.007414 0
-0.724526 6.934792 1.007257 0
-0.702126 6.938271 1.007258 0
-0.678846 6.945575 1.007290 0
-0.656355 6.948882 1.007289 0
-0.635733 6.948431 1.007260 0
-0.613021 6.947439 1.007225 0
-0.592377 6.946838 1.007194 0
-0.570553 6.941786 1.007126 0
-0.547016 6.948576 1.007153 0
-0.532780 6.916387 1.006872 0
-0.502784 6.958503 1.007181 0
-0.487586 6.921808 1.006861 0
-0.461025 6.939905 1.006977 0
-0.435414 6.962296 1.007129 0
-0.412531 6.960540 1.007087 0
-0.390681 6.958971 1.007048 0
-0.378099 6.922538 1.006733 0
-0.343827 6.967176 1.007058 0
-0.334583 6.923207 1.006686 0
-0.309600 6.932913 1.006735 0
-0.288865 6.927117 1.006662 0
-0.260528 6.944030 1.006766 0
-0.240721 6.942504 1.006729 0
-0.215543 6.947680 1.006741 0
-0.194756 6.941555 1.006665 0
-0.172841 6.939188 1.006619 0
-0.151958 6.937056 1.006576 0
-0.130173 6.930389 1.006495 0
-0.102303 6.946877 1.006596 0
-0.070524 6.978830 1.006819 0
-0.041281 6.994726 1.006914 0
-0.021378 6.988330 1.006837 0
0.003279 6.992932 1.006845 0
0.021708 6.978448 1.006703 0
0.045364 6.983224 1.006714 0
0.067317 6.975834 1.006626 0
0.086904 6.964937 1.006513 0
0.109058 6.961536 1.006458 0
0.132816 6.965968 1.006465 0
0.163010 6.985020 1.006585 0
0.187969 6.988870 1.006586 0
0.210258 6.985097 1.006528 0
0.236671 6.992510 1.006556 0
0.250672 6.966049 1.006322 0
0.279925 6.980776 1.006407 0
0.306479 6.987888 1.006433 0
0.355941 7.054675 1.006920 0
0.380358 7.058157 1.006919 0
0.400074 7.046225 1.006797 0
0.424539 7.049532 1.006794 0
0.462995 7.081635 1.007011 0
0.482753 7.069429 1.006886 0
0.505464 7.064572 1.006819 0
0.544860 7.100342 1.007064 0
0.573825 7.110040 1.007108 0
0.619861 7.160203 1.007464 0
0.642940 7.154846 1.007391 0
18.913191 49.948784 1.336118 29
16.019556 42.777016 1.280822 29
16.285980 42.574039 1.278831 29
16.387291 42.411354 1.277373 29
16.631365 42.569805 1.278374 29
20.123180 49.920204 1.334405 29
16.902363 42.416821 1.276788 29
20.524212 49.917778 1.333895 29
20.737064 49.907612 1.333552 29
17.275810 42.090240 1.273653 29
21.115639 49.849651 1.332614 29
21.322191 49.844635 1.332320 29
21.648731 49.652126 1.330342 29
21.727013 49.382607 1.328036 29
21.914326 49.379700 1.327783 59
22.116961 49.364109 1.327407 29
19.322712 43.360035 1.281569 29
19.311392 42.971504 1.278395 29
19.692631 43.356461 1.281087 29
23.080666 49.566444 1.327890 29
23.225016 49.451199 1.326768 29
18.996452 40.955887 1.262245 29
23.748947 49.197987 1.324051 29
19.796520 41.445862 1.265287 29
19.817480 41.148155 1.262820 29
24.370625 49.162361 1.322999 29
20.188793 41.177658 1.262608 29
24.899920 49.345684 1.323856 29
25.779409 49.700024 1.325688 29
25.977158 49.651470 1.325048 29
26.857864 50.403473 1.330141 59
27.081369 50.369926 1.329593 29
27.304098 50.373150 1.329347 29
22.422228 41.809433 1.265062 29
27.765751 50.362980 1.328700 29
28.012621 50.382027 1.328555 29
28.459566 50.338432 1.327651 29
28.629292 49.846870 1.323411 29
28.665245 49.545563 1.320895 29
28.918127 49.551132 1.320632 29
28.858704 49.086063 1.316890 29
24.367922 41.763672 1.262309 29
29.172657 48.873913 1.314766 29
29.797081 49.096050 1.315825 29
30.004690 49.044857 1.315152 29
30.185604 48.952927 1.314176 29
27.950916 45.283554 1.286806 29
27.973917 45.002216 1.284470 29
30.879921 48.878494 1.312717 29
31.143835 48.939674 1.312897 29
27.476179 43.310482 1.271200 29
31.909330 49.323246 1.315108 29
28.751339 44.492725 1.279341 29
32.493996 49.434410 1.315306 29
27.670504 42.345879 1.263050 29
32.948414 49.354874 1.314098 29
33.159370 49.290966 1.313316 29
33.417580 49.290710 1.312999 29
33.695210 49.314991 1.312859 29
33.959122 49.318657 1.312566 29
34.185139 49.269833 1.311890 30
34.443768 49.280666 1.311662 30
34.708874 49.280731 1.311339 30
32.387501 45.864815 1.286154 29
32.486813 45.702827 1.284703 29
32.672108 45.620239 1.283800 29
32.549664 45.127483 1.279907 29
35.966709 49.167740 1.308875 31
36.241516 49.169838 1.308557 32
37.938286 50.932709 1.320945 36
38.192619 50.892864 1.320307 36
31.574543 42.371143 1.258488 29
32.414577 42.525940 1.258731 29
31.214848 40.792583 1.245978 29
31.381090 40.695236 1.244976 29
31.522070 40.581669 1.243872 29
40.535168 50.885136 1.317382 39
40.666550 50.704475 1.315739 38
33.742252 42.335861 1.255550 29
33.907360 42.235138 1.254522 29
35.224308 43.464272 1.262995 29
35.292992 43.244209 1.261106 29
41.752869 50.223808 1.310469 39
37.658661 45.299999 1.275080 29
37.938889 45.301147 1.274747 29
3.582256 7.017016 1.002670 21
3.206816 6.530601 0.999138 0
3.206958 6.492122 0.998822 2
3.206894 6.453710 0.998507 2
3.203867 6.412468 0.998173 2
3.201504 6.376004 0.997876 2
3.198053 6.334929 0.997544 2
3.202741 6.302549 0.997272 2
3.207266 6.270202 0.997002 2
3.211628 6.237889 0.996731 2
3.215828 6.205609 0.996461 2
3.211383 6.164876 0.996132 2
3.212392 6.129878 0.995844 2
3.216067 6.097744 0.995576 2
3.219581 6.065648 0.995308 2
3.234400 6.044748 0.995119 2
3.219499 5.996915 0.994745 7
3.263014 5.968915 0.994462 7
3.283074 5.918633 0.994025 0
3.361651 5.957622 0.994249 0
3.376025 5.936296 0.994056 0
3.437403 5.958276 0.994162 0
3.566386 5.971114 0.994109 44
3.571818 5.941123 0.993857 38
3.580098 5.913813 0.993622 39
3.588255 5.886504 0.993388 39
3.589423 5.854896 0.993128 42
3.594303 5.824990 0.992876 42
3.596016 5.792495 0.992608 44
3.604474 5.764286 0.992366 42
3.617231 5.743213 0.992178 39
3.621576 5.713381 0.991928 39
3.689215 5.669987 0.991489 2
3.693161 5.640075 0.991239 1
3.683143 5.531977 0.990364 21
3.682552 5.500751 0.990109 24
3.688772 5.441445 0.989615 48
3.713727 5.429095 0.989483 35
3.748142 5.423986 0.989399 35
3.785757 5.421134 0.989330 36
3.823422 5.418073 0.989258 36
3.864319 5.417224 0.989202 37
3.894931 5.409936 0.989104 41
3.932730 5.406264 0.989028 42
3.960947 5.395219 0.988903 41
3.992375 5.386407 0.988792 40
4.023815 5.377430 0.988680 37
4.048795 5.363578 0.988536 34
4.080237 5.354291 0.988421 30
4.108436 5.342506 0.988290 27
4.139885 5.332897 0.988173 26
4.190939 5.336973 0.988144 25
4.232273 5.333854 0.988068 20
4.276942 5.332784 0.988005 9
4.321678 5.331455 0.987939 8
4.376377 5.336655 0.987915 23
4.424574 5.337023 0.987859 18
4.481274 5.346075 0.987864 15
4.533735 5.346953 0.987807 15
4.595515 5.355298 0.987800 14
4.654095 5.361059 0.987776 11
4.739553 5.384014 0.987860 7
4.808489 5.395515 0.987870 11
4.894386 5.417439 0.987945 25
4.932600 5.409800 0.987835 19
4.989254 5.410270 0.987770 17
5.048615 5.413742 0.987726 18
5.101304 5.412606 0.987652 18
5.160865 5.415379 0.987602 20
5.220530 5.417790 0.987549 18
5.280299 5.419838 0.987493 18
5.342040 5.426147 0.987469 18
5.403564 5.424905 0.987384 18
5.473939 5.432003 0.987356 16
5.523808 5.426425 0.987249 16
5.597864 5.434747 0.987227 38
5.668613 5.440590 0.987189 17
5.724093 5.440660 0.987122 17
5.798543 5.447688 0.987088 17
5.866962 5.448923 0.987015 15
5.931234 5.449125 0.986938 16
6.013048 5.458711 0.986917 17
6.077544 5.458063 0.986832 16
6.148357 5.462296 0.986781 15
6.238396 5.472847 0.986757 16
6.308689 5.477598 0.986710 15
6.384965 5.479480 0.986633 16
6.474698 5.489863 0.986608 16
6.549675 5.493677 0.986548 13
6.636182 5.501121 0.986503 15
6.709438 5.499117 0.986397 6
7.002361 5.532873 0.986316 19
7.068202 5.526706 0.986185 21
7.134108 5.520134 0.986051 17
7.196491 5.511387 0.985903 12
7.272506 5.510904 0.985806 7
7.367398 5.517074 0.985741 5
7.458841 5.520903 0.985660 3
7.525148 5.512098 0.985507 1
87.565956 43.289116 1.197609 63
87.847099 43.039124 1.195215 63
96.052666 45.223351 1.203107 63
95.950859 44.766678 1.199485 63
96.231079 44.481350 1.196802 63
36.979164 12.553892 1.007287 29
36.361576 12.072714 1.004094 29
21.133715 7.581507 0.985856 8
11.945512 4.493169 0.971748 3
11.926598 4.436902 0.971309 3
11.884148 4.375108 0.970854 6
11.860880 4.318336 0.970417 9
11.844264 4.215086 0.969590 15
11.859336 4.167779 0.969184 27
11.850837 4.115109 0.968762 27
11.885088 4.072098 0.968368 39
11.852780 4.014341 0.967933 45
11.843700 3.961900 0.967514 54
11.861817 3.915356 0.967110 75
11.856279 3.863834 0.966694 87
11.858389 3.813989 0.966283 69
11.868162 3.765738 0.965875 27
11.857193 3.718409 0.965500 45
11.843071 3.665596 0.965084 75
11.887691 3.624127 0.964690 55
11.885456 3.571157 0.964258 55
11.901809 3.526672 0.963873 55
11.903138 3.474439 0.963443 48
11.919180 3.429840 0.963057 100
11.931554 3.382059 0.962650 81
11.955596 3.336215 0.962245 48
11.964102 3.285198 0.961816 33
11.990987 3.244635 0.961450 15
11.998772 3.195925 0.961041 6
12.041965 3.152683 0.960634 6
12.081071 3.108570 0.960224 3
12.135867 3.066542 0.959812 3
12.321198 3.042939 0.959392 3
12.930389 3.077488 0.958932 3
14.866994 3.109875 0.956831 4
184.609085 9.431015 0.801299 65
127.576355 5.967419 0.842567 33
127.612923 5.515936 0.838819 5
77.750458 2.660440 0.876315 63
77.763306 2.410165 0.874246 63
77.831963 2.118870 0.871773 63
77.909996 1.548389 0.866998 63
52.979763 -2.052104 0.867921 29
52.933231 -2.434072 0.864845 59
52.920940 -2.625658 0.863288 29
47.197128 -7.279423 0.832105 29
-13.675990 0.996017 0.974364 2
-13.835896 1.037553 0.974900 2
-54.492786 1.567106 1.028917 29
-54.598438 1.752033 1.030563 29
-54.691441 1.937490 1.032198 29
-36.583862 1.739078 1.008447 20
-36.057899 2.323364 1.012598 19
-36.017574 2.428956 1.013415 19
-23.961308 2.073486 0.995769 20
-23.817421 2.219414 0.996790 20
-23.765081 2.292838 0.997328 20
-23.724230 2.370467 0.997915 20
-23.703314 2.445359 0.998504 20
-23.678150 2.519841 0.999084 20
-23.656721 2.594459 0.999670 19
-23.635326 2.665164 1.000224 19
-23.617081 2.743626 1.000845 19
-23.606840 2.818873 1.001450 13
-23.608955 2.887566 1.002016 19
-23.610167 2.963848 1.002643 19
-23.626678 3.045450 1.003333 19
-23.635294 3.122633 1.003977 20
-23.640039 3.195711 1.004582 20
-23.660053 3.274304 1.005251 20
-23.687735 3.353929 1.005938 20
-23.731026 3.435561 1.006661 20
-23.813744 3.522127 1.007472 13
-23.864347 3.605507 1.008218 13
-23.994036 3.699033 1.009143 7
-62.326817 8.625951 1.096394 31
-60.919418 8.657113 1.094930 29
-60.854019 8.847291 1.096410 29
-59.207962 8.841343 1.094350 29
-58.813229 8.979367 1.095000 29
-57.605179 9.007771 1.093757 29
-56.912060 9.103796 1.093698 29
-55.984180 9.169224 1.093101 29
-55.189896 9.229618 1.092626 29
-54.576096 9.322769 1.092641 29
-53.725388 9.373368 1.092016 29
-52.415352 9.523098 1.091644 29
-51.465897 9.522581 1.090480 29
-50.939434 9.607994 1.090537 29
-107.259712 19.896788 1.243749 124
-107.326843 20.288727 1.247046 123
-107.368927 20.676958 1.250282 11
-47.220440 9.934643 1.088673 29
-46.239967 9.901587 1.087204 29
-45.550270 9.921210 1.086522 29
-45.099838 9.985939 1.086503 29
-44.442112 10.003632 1.085844 29
-43.859081 10.032877 1.085372 29
-43.276375 10.058164 1.084867 29
-42.815029 10.106500 1.084700 29
-42.230621 10.116385 1.084067 29
-41.652805 10.131219 1.083483 29
-41.355804 10.207745 1.083748 29
-40.692951 10.195371 1.082837 29
-40.209534 10.221652 1.082462 28
-39.745834 10.249432 1.082123 27
-9.186595 2.841308 0.984016 1
-9.137504 2.855454 0.984072 0
-8.975063 2.890560 0.984162 30
-8.925289 2.905812 0.984226 30
-8.876848 2.915882 0.984249 34
-8.823888 2.926977 0.984276 35
-8.778625 2.939926 0.984326 34
-8.733357 2.952583 0.984375 31
-8.688085 2.964948 0.984421 30
-8.654311 2.980440 0.984507 33
-8.609021 2.992261 0.984549 32
-8.563730 3.003791 0.984588 35
-8.522264 3.016208 0.984639 39
-8.488425 3.030748 0.984717 33
-8.446939 3.042662 0.984764 33
-8.413069 3.056753 0.984838 35
-8.379179 3.070632 0.984911 37
-8.360475 3.089285 0.985041 36
-8.345884 3.107980 0.985176 28
-8.273614 3.109727 0.985102 21
-8.209364 3.112457 0.985046 37
-8.186785 3.129060 0.985155 36
-8.156609 3.142905 0.985232 38
-8.123017 3.154165 0.985283 39
-8.092808 3.167633 0.985357 42
-8.051287 3.176862 0.985381 50
-8.013535 3.187193 0.985420 50
-7.979543 3.198665 0.985473 50
-7.949294 3.211318 0.985540 50
-7.922776 3.225190 0.985621 52
-7.892493 3.237487 0.985685 53
-7.866328 3.250000 0.985756 55
-7.828160 3.260087 0.985792 55
-7.794519 3.269344 0.985826 56
-7.760483 3.279417 0.985868 53
-7.722731 3.287797 0.985890 52
-7.696124 3.300426 0.985961 52
-7.669498 3.312897 0.986031 55
-7.642855 3.325211 0.986099 64
-7.630974 3.343500 0.986235 70
-7.597313 3.351474 0.986259 72
-7.570201 3.364324 0.986332 72
-7.532868 3.370345 0.986335 72
-7.509416 3.384416 0.986422 72
-7.472105 3.390030 0.986423 70
-7.426656 3.394114 0.986400 56
-7.410918 3.409935 0.986511 61
-7.398787 3.427311 0.986639 70
-7.376523 3.437796 0.986698 72
-7.338403 3.444346 0.986705 72
-7.315269 3.456412 0.986775 72
-7.288491 3.466660 0.986827 72
-7.254463 3.473354 0.986840 72
-7.235351 3.485765 0.986919 72
-7.211730 3.498188 0.986992 72
-7.185365 3.506910 0.987031 74
-7.161715 3.519048 0.987102 72
-7.138490 3.530143 0.987164 70
-7.122421 3.544656 0.987264 72
-7.099156 3.555514 0.987324 72
-7.066059 3.559061 0.987313 72
-7.042342 3.570514 0.987378 72
-7.023074 3.581885 0.987448 72
-6.992217 3.589410 0.987472 52
-6.965830 3.596845 0.987501 44
-6.953159 3.612442 0.987613 22
-6.933370 3.624238 0.987686 8
-6.844885 3.620104 0.987544 1
-6.824667 3.632262 0.987619 2
-6.823608 3.675827 0.987975 20
-6.796730 3.683058 0.988001 17
-6.787772 3.699082 0.988122 5
-6.716623 3.702993 0.988067 1
-6.700188 3.715592 0.988150 1
-6.683723 3.728109 0.988233 0
-6.653854 3.459195 1.016818 103
-6.635038 3.469125 1.016806 103
-6.607851 3.477620 1.016727 102
-6.589014 3.487321 1.016713 101
-6.573678 3.498836 1.016743 101
-6.553930 3.509958 1.016740 101
-6.535046 3.519372 1.016724 101
-6.512656 3.526742 1.016665 103
-6.492866 3.537532 1.016659 73
-6.470024 3.545452 1.016603 62
-6.450656 3.555227 1.016590 56
-6.424343 3.560906 1.016488 32
-6.112976 3.459447 1.013416 0
-6.100898 3.471872 1.013479 0
-6.081938 3.480106 1.013454 0
-6.083468 3.500719 1.013695 0
-6.122404 3.544386 1.014426 0
-6.060787 3.545161 1.014055 2
-6.055229 3.561587 1.014206 1
-6.050058 3.577291 1.014352 0
-6.054036 3.600867 1.014643 0
-6.048719 3.616590 1.014789 0
-6.052955 3.639540 1.015075 0
-6.036516 3.650152 1.015096 0
-6.057752 3.683428 1.015604 0
-6.048324 3.697715 1.015710 0
-6.045500 3.716409 1.015906 0
-6.045915 3.737349 1.016148 0
-6.026364 3.744864 1.016116 0
-6.010597 3.753825 1.016124 0
-5.935615 3.784807 1.016031 108
-5.945911 3.811841 1.016405 114
-5.929029 3.821785 1.016419 117
-5.883392 3.809944 1.016010 109
-5.851337 3.806522 1.015780 104
-5.831785 3.813019 1.015740 101
-5.818188 3.824822 1.015797 59
-5.805053 3.835893 1.015848 40
-5.813873 3.884284 1.016465 3
-5.788301 3.884985 1.016324 5
-5.771808 3.893483 1.016327 5
-5.771678 3.913410 1.016560 6
-5.764102 3.929806 1.016708 6
-5.763284 3.950437 1.016946 8
-5.750297 3.960566 1.016990 9
-5.743564 3.975596 1.017129 9
-5.735725 3.991932 1.017276 10
-5.725748 4.004436 1.017367 12
-5.733353 4.033284 1.017752 11
-5.713392 4.038871 1.017704 11
-5.702725 4.051954 1.017798 10
-5.695637 4.066891 1.017935 9
-5.691030 4.085019 1.018125 9
-5.689410 4.105717 1.018362 8
-5.678510 4.118716 1.018456 7
-5.670617 4.134263 1.018597 6
-5.669297 4.154337 1.018830 6
-5.666773 4.175732 1.019072 5
-5.661677 4.193887 1.019261 4
-5.651031 4.206144 1.019349 3
-5.642223 4.222289 1.019493 3
-5.643472 4.245076 1.019775 3
-5.644037 4.268550 1.020061 3
-5.644483 4.292067 1.020348 2
-5.641840 4.312947 1.020585 2
-5.653896 4.347300 1.021068 2
-5.651005 4.368275 1.021306 2
-5.659776 4.400114 1.021741 2
-5.663105 4.425966 1.022073 2
-5.660459 4.446417 1.022307 2
-5.671677 4.481236 1.022793 2
-5.676889 4.510674 1.023180 2
-5.687729 4.545712 1.023667 2
-5.698370 4.580868 1.024154 2
-5.703060 4.610580 1.024543 2
-5.716184 4.648741 1.025081 2
-5.729732 4.686379 1.025616 3
-5.742419 4.724807 1.026156 3
-5.769065 4.777470 1.026946 3
-5.789736 4.824703 1.027638 3
-5.823526 4.887000 1.028585 3
-5.855485 4.945385 1.029475 2
-5.855636 4.973257 1.029820 2
-5.903011 5.049953 1.031019 1
-5.916579 5.092482 1.031617 0
-43.279377 44.725601 1.718983 43
-43.753120 45.537544 1.731546 44
-50.941231 53.584412 1.869040 55
-43.275387 45.649128 1.730459 44
-43.194992 45.875542 1.732870 44
-34.404079 36.554768 1.571204 13
-34.524113 37.190758 1.579776 28
-33.675457 36.495834 1.566738 27
-33.487614 36.534508 1.566268 40
-33.273453 36.542294 1.565280 27
-33.273888 36.781395 1.568288 13
-33.300888 37.065605 1.572001 27
-33.699879 37.783520 1.583050 27
-33.586853 37.912312 1.584108 13
-34.968513 39.798702 1.614824 17
-38.512897 44.271137 1.688996 33
-36.071701 41.667812 1.643943 23
-32.712456 37.923050 1.579896 13
-32.461006 37.882206 1.578138 40
-32.278736 37.923531 1.577766 27
-32.131927 38.007435 1.578112 27
-32.155998 38.302181 1.581978 27
-31.980463 38.351234 1.581747 27
-31.873856 38.472462 1.582774 27
-31.736959 38.555782 1.583174 27
-31.568531 38.612347 1.583084 27
-42.262486 52.570206 1.812849 49
-31.891054 39.573433 1.596918 14
-34.108829 42.732384 1.647953 22
-30.759838 38.929024 1.583275 27
-30.689804 39.112370 1.585298 13
-30.628424 39.308498 1.587530 27
-30.484940 39.395493 1.587975 13
-40.680622 53.504776 1.817351 48
-40.640934 53.816830 1.821187 49
-40.658520 54.229763 1.826595 49
-40.399876 54.263973 1.825839 49
-40.111187 54.254757 1.824388 49
-39.904148 54.358269 1.824775 49
-39.629971 54.366215 1.823622 48
-39.333256 54.340141 1.821929 48
-39.023479 54.292946 1.819908 48
-38.805367 54.375912 1.819997 48
-38.503494 54.335918 1.818115 48
-38.206848 54.301083 1.816327 48
-37.919842 54.278088 1.814742 47
-29.964312 42.787251 1.629530 15
-29.770473 43.452953 1.637358 16
-27.277201 40.241249 1.584414 26
-26.952431 40.036308 1.580314 26
-26.818113 40.126686 1.580914 26
-8.423973 11.245829 1.122494 3
-27.276634 41.454597 1.600319 13
-27.166861 41.593693 1.601674 13
-29.267361 45.321835 1.659676 20
-34.391495 54.054501 1.796414 45
-24.927713 38.866360 1.556247 12
-24.774731 38.912029 1.556202 12
-24.584808 38.895271 1.555181 12
-33.226543 54.193134 1.793339 90
-33.207100 54.566010 1.798187 91
-23.821703 38.791595 1.550632 24
-23.604637 38.704311 1.548581 24
-23.333714 38.550484 1.545431 24
-21.965092 36.723480 1.515613 22
-21.803745 36.712700 1.514816 33
-21.724762 36.879787 1.516717 33
-21.614689 36.976643 1.517563 22
-21.237991 36.566887 1.510603 33
-21.151539 36.704426 1.512091 33
-20.921413 36.573532 1.509434 32
-20.777130 36.586712 1.509040 32
-20.664421 36.704765 1.510173 21
-20.342403 36.390030 1.504711 32
-20.237019 36.489544 1.505631 32
-20.153748 36.617634 1.507021 21
-20.328257 37.255798 1.516236 22
-20.101908 37.136993 1.513776 33
-19.953413 37.139668 1.513244 33
-19.769482 37.101349 1.512031 32
-19.653849 37.184856 1.512714 32
-19.357506 36.879826 1.507502 21
-19.208929 36.876038 1.506894 31
-19.090427 36.950474 1.507453 31
-18.833899 36.748966 1.503789 31
-18.756905 36.926521 1.505896 31
-18.622498 36.949364 1.505710 31
-18.622028 37.279919 1.510164 32
-18.488329 37.305851 1.510028 32
-18.387972 37.439114 1.511463 32
-18.283314 37.529907 1.512313 21
-19.362734 40.332809 1.554061 11
-19.312754 40.952961 1.562272 36
-19.181040 41.031662 1.562873 24
-20.542688 44.616699 1.616217 13
-18.995880 41.375706 1.566887 24
-18.847082 41.416477 1.566923 24
-23.721666 53.575539 1.748761 68
-23.489355 53.558712 1.747735 34
-18.072023 40.706139 1.554616 23
-17.800249 40.832520 1.555414 23
-17.697680 40.980614 1.557085 23
-22.930534 54.828484 1.763118 36
-22.870497 55.233498 1.768436 37
-22.867762 55.795696 1.776090 39
-22.856884 56.317467 1.783170 40
-22.834427 56.847153 1.790324 42
-22.812683 57.388603 1.797645 43
-17.756744 44.153755 1.600554 13
-18.239363 45.982792 1.627097 13
-17.409706 44.160248 1.599532 12
-17.349232 44.444996 1.603235 13
-17.183239 44.482235 1.603222 13
-17.092800 44.712749 1.606095 13
-16.881800 44.595020 1.603825 13
-16.803827 44.866585 1.607306 13
-19.494823 53.392700 1.732496 29
-16.572792 45.146332 1.610434 13
-19.053968 53.285740 1.729685 28
-15.277834 42.220207 1.566343 12
-15.102307 42.192532 1.565436 12
-14.919924 42.116089 1.563843 11
-14.776276 42.161076 1.564036 11
-15.350037 44.512310 1.598067 12
-14.567805 42.484627 1.567877 12
-18.020473 54.519085 1.743584 31
-14.146010 42.126789 1.561729 11
-19.740299 62.547283 1.859132 47
-14.160107 43.759594 1.584277 12
-16.466700 53.260975 1.721834 26
-3.552556 7.055804 1.048159 1
-3.512330 6.987758 1.047109 0
-3.487484 6.973496 1.046846 0
-3.429313 6.918018 1.045924 10
-3.389759 6.935909 1.046069 16
-3.362543 6.913620 1.045691 13
-3.336530 6.890974 1.045310 19
-3.315027 6.891844 1.045268 18
-3.295146 6.904574 1.045395 6
-3.256561 6.921340 1.045531 0
-3.224921 6.874997 1.044810 0
-3.204369 6.879376 1.044821 0
-3.178320 6.852143 1.044380 0
-3.165278 6.887500 1.044840 0
-3.142322 6.879907 1.044680 0
-3.120724 6.884202 1.044689 0
-3.095587 6.864656 1.044358 0
-3.080574 6.891966 1.044703 0
-3.060696 6.899774 1.044766 0
-3.037591 6.895899 1.044660 0
-3.012360 6.867945 1.044214 0
-2.994598 6.887340 1.044444 0
-2.974356 6.886797 1.044392 0
-2.954062 6.898364 1.044508 0
-2.933812 6.897682 1.044455 0
-2.909362 6.877354 1.044119 0
-2.890673 6.892484 1.044290 0
-2.871465 6.911668 1.044517 0
-2.848844 6.894883 1.044235 0
-2.828807 6.901907 1.044291 0
-2.809764 6.908715 1.044347 0
-2.790206 6.919567 1.044459 0
-2.765766 6.902756 1.044175 0
-2.744067 6.897603 1.044060 0
-2.724471 6.900171 1.044057 0
-2.702304 6.898965 1.043996 0
-2.683189 6.905364 1.044049 0
-2.660177 6.887994 1.043762 0
-2.639125 6.886429 1.043700 0
-2.618981 6.892739 1.043751 0
-2.593906 6.863303 1.043293 0
-2.575673 6.877307 1.043455 0
-2.556145 6.879316 1.043447 0
-2.535330 6.889423 1.043551 0
-2.513235 6.875468 1.043317 0
-2.491965 6.869397 1.043195 1
-2.471437 6.871218 1.043185 0
-2.430681 6.878633 1.043219 1
-2.411455 6.884150 1.043264 1
-2.389419 6.865745 1.042970 1
-2.369460 6.875188 1.043069 1
-2.347885 6.876650 1.043055 1
-2.328860 6.885888 1.043154 0
-2.308511 6.891132 1.043195 0
-2.290349 6.936241 1.043799 0
-2.269589 6.937358 1.043783 0
-2.248243 6.926418 1.043597 0
-2.227698 6.931384 1.043636 0
-2.207121 6.936279 1.043674 0
-2.185601 6.917122 1.043375 0
-2.165666 6.909843 1.043244 0
-2.124581 6.883121 1.042812 1
-2.104008 6.883659 1.042791 1
-2.083349 6.880128 1.042714 1
-2.062716 6.876524 1.042636 1
-2.042110 6.872848 1.042557 1
-2.021657 6.881098 1.042646 1
-2.001119 6.885277 1.042679 1
-1.980525 6.881385 1.042598 1
-1.959958 6.881422 1.042574 1
-1.939392 6.881386 1.042548 1
-1.918825 6.881278 1.042522 1
-1.899247 6.885109 1.042553 1
-1.878667 6.884861 1.042526 1
-1.858159 6.880543 1.042442 0
-1.837346 6.892148 1.042582 0
-1.816743 6.891685 1.042553 0
-1.795920 6.899145 1.042635 0
-1.775417 6.894539 1.042549 0
-1.753834 6.921839 1.042909 0
-1.733127 6.921084 1.042878 0
-1.711089 6.952225 1.043292 0
-1.690096 6.955316 1.043315 0
-1.671284 6.934414 1.043004 0
-1.650742 6.929376 1.042915 0
-1.630010 6.928261 1.042880 0
-1.608575 6.939051 1.043012 0
-1.588059 6.933797 1.042921 0
-1.567312 6.932463 1.042885 0
-1.545181 6.951006 1.043126 0
-1.524957 6.941544 1.042977 0
-1.505832 6.932093 1.042830 0
-1.485091 6.930472 1.042791 0
-1.462986 6.932678 1.042805 0
-1.440160 6.954814 1.043099 0
-1.420742 6.949074 1.043005 0
-1.401814 6.927246 1.042686 0
-1.380703 6.929242 1.042700 0
-1.359571 6.931164 1.042713 0
-1.339251 6.925054 1.042615 0
-1.315526 6.950687 1.042959 0
-1.294278 6.952376 1.042970 0
-1.276671 6.922203 1.042538 0
-1.234785 6.921259 1.042503 2
-1.212087 6.934565 1.042677 2
-1.191339 6.931919 1.042630 2
-1.169547 6.937129 1.042693 2
-1.084588 6.953520 1.042886 0
-1.065117 6.934452 1.042613 0
-1.042974 6.947264 1.042784 0
-1.021767 6.939912 1.042674 0
-1.003549 6.920807 1.042402 0
-0.966586 7.016092 1.043720 0
-0.945556 7.012588 1.043666 0
-0.925588 7.009192 1.043613 0
-0.917369 6.926573 1.042461 0
-0.883588 7.001824 1.043502 0
-0.860121 7.005708 1.043551 0
-0.838394 7.005764 1.043548 0
-0.819942 6.994153 1.043384 0
-0.796240 7.009975 1.043601 0
-0.773906 7.001539 1.043482 0
-0.758700 6.974044 1.043098 0
-0.731659 7.005297 1.043530 0
-0.707989 7.008587 1.043575 0
-0.686986 7.004180 1.043513 0
-0.665999 6.999701 1.043451 0
-0.639038 7.022497 1.043768 0
-0.625119 6.990755 1.043328 0
-0.598886 7.009466 1.043589 0
-0.580568 6.992984 1.043361 0
-0.559621 6.988133 1.043296 0
-0.533280 7.010700 1.043611 0
-0.508412 7.017096 1.043703 0
-0.491181 6.996452 1.043420 0
-0.471185 6.987407 1.043298 0
-0.441539 7.021224 1.043772 0
-0.427367 6.984618 1.043268 0
-0.402433 6.994719 1.043413 0
-0.378459 7.004993 1.043561 0
-0.363641 6.972106 1.043111 0
-0.333370 7.005390 1.043579 0
-0.313438 6.995818 1.043453 0
-0.276418 7.047839 1.044183 0
-0.274761 6.976773 1.043203 0
-0.246240 6.993632 1.043446 0
-0.205290 7.056773 1.044333 0
-0.185246 7.046773 1.044203 0
-0.160620 7.056193 1.044343 0
-0.141756 7.042215 1.044159 0
-0.114818 7.054964 1.044347 0
-0.093657 7.048487 1.044268 0
-0.073710 7.038117 1.044135 0
-0.042974 7.062009 1.044479 0
-0.027876 7.036232 1.044133 0
-0.009243 7.021841 1.043946 0
0.027975 7.064411 1.044552 0
0.045596 7.050192 1.044367 0
0.066739 7.043155 1.044284 0
0.097062 7.066709 1.044626 0
0.118026 7.055346 1.044484 0
0.139187 7.048055 1.044398 0
0.165613 7.055790 1.044522 0
0.220173 7.142583 1.045749 0
0.203865 7.029508 1.044190 0
0.268525 7.142256 1.045780 0
0.280361 7.108150 1.045323 0
0.307259 7.115297 1.045442 0
0.338767 7.137716 1.045773 0
0.364796 7.145026 1.045894 0
0.394125 7.151000 1.046001 0
0.428584 7.176326 1.046376 0
0.496682 7.287188 1.047946 0
0.527450 7.300901 1.048160 0
14.736311 42.941803 1.546193 12
15.134800 43.510429 1.554300 12
14.774140 42.176510 1.535824 12
18.128431 49.965805 1.644910 22
18.354385 50.028416 1.645984 23
18.516190 49.935074 1.644881 23
18.728186 49.984818 1.645774 23
18.929607 49.960171 1.645651 47
16.058500 42.844475 1.546197 12
16.187645 42.762489 1.545227 12
19.519073 49.962326 1.646321 24
19.721115 49.934475 1.646171 24
19.935926 49.957085 1.646721 24
20.134706 49.942337 1.646753 50
17.037273 42.690918 1.545230 25
17.133711 42.536842 1.543267 12
20.757267 49.947754 1.647571 51
20.944998 49.904385 1.647218 52
21.160044 49.918163 1.647673 78
21.359972 49.898540 1.647663 53
21.560045 49.878120 1.647646 53
21.587610 49.522778 1.642908 51
21.749857 49.425922 1.641822 77
21.940454 49.408005 1.641837 52
22.141426 49.388733 1.641852 52
22.349201 49.360832 1.641765 52
19.304226 42.936298 1.551471 13
22.921227 49.649345 1.646432 27
23.079941 49.540874 1.645208 27
19.209204 41.703758 1.534850 12
23.429453 49.386143 1.643651 27
23.584206 49.291080 1.642613 27
23.775251 49.243977 1.642272 27
23.962492 49.189079 1.641825 28
19.996675 41.475796 1.532994 13
19.940212 41.037460 1.527073 12
24.666697 49.279263 1.644123 29
24.982815 49.451710 1.646918 30
25.567827 49.719925 1.651426 63
25.785860 49.688213 1.651364 63
25.987568 49.646564 1.651148 32
26.875921 50.431007 1.663031 70
27.117264 50.447285 1.663660 71
22.047052 41.499077 1.536678 13
22.543173 42.009068 1.544278 27
27.784225 50.390240 1.664074 73
22.789537 41.772049 1.541591 13
28.245005 50.391388 1.664915 37
24.066450 43.208721 1.562812 14
28.578629 50.162342 1.662512 37
28.571850 49.770657 1.657355 72
28.680073 49.565685 1.654867 35
24.159060 42.079655 1.548160 14
29.096140 49.471855 1.654426 36
29.308582 49.430370 1.654291 36
29.460047 49.294109 1.652802 72
29.650408 49.217598 1.652174 73
29.825188 49.116982 1.651205 73
30.021809 49.049034 1.650710 73
30.202751 48.957043 1.649874 73
30.417027 48.914085 1.649748 74
30.638784 48.899055 1.650004 74
27.182775 43.500084 1.572694 18
27.424799 43.518036 1.573429 19
28.826756 45.232616 1.598614 25
32.014046 49.451260 1.660038 40
28.644058 44.305599 1.586211 23
32.513882 49.441036 1.660971 41
27.613472 41.930393 1.553270 31
33.251369 49.378532 1.661765 42
33.495747 49.358562 1.662047 43
33.760475 49.382320 1.662941 43
33.986469 49.334377 1.662830 43
34.229351 49.307854 1.663036 43
34.491753 49.305767 1.663605 44
34.767853 49.302399 1.664194 44
35.035984 49.304108 1.664833 44
35.275265 49.266525 1.664907 44
35.535748 49.272312 1.665589 44
31.122971 43.284496 1.578642 25
36.065002 49.254444 1.666609 44
36.289486 49.209564 1.666571 45
31.067440 42.329128 1.566316 22
38.317772 51.044777 1.694841 47
31.498804 42.274685 1.566668 23
32.521107 42.636822 1.573783 26
31.026928 40.550182 1.543612 18
32.852196 42.444107 1.572170 26
31.483130 40.532719 1.544539 19
32.725807 41.712887 1.562606 24
40.802570 50.841831 1.698463 49
33.898888 42.514191 1.575720 28
35.091339 43.608501 1.592586 33
34.035816 42.103649 1.570907 27
35.385345 43.345814 1.590049 33
37.580517 45.521168 1.623136 41
37.687740 45.329216 1.621012 41
3.577332 7.053553 1.050704 32
3.571391 7.004747 1.050079 10
3.195870 6.518446 1.042991 2
3.192275 6.477991 1.042478 2
3.194915 6.442534 1.042044 3
3.197371 6.407127 1.041611 2
3.191338 6.363108 1.041048 3
3.198951 6.333584 1.040704 5
3.200845 6.298337 1.040273 4
3.205355 6.266001 1.039886 4
3.209701 6.233698 1.039500 7
3.202613 6.190075 1.038941 6
3.209423 6.160709 1.038599 5
3.216091 6.131359 1.038257 4
3.216923 6.096408 1.037830 5
3.220430 6.064312 1.037446 5
3.226645 6.035044 1.037105 6
3.243551 5.983009 1.036518 21
3.255159 5.959298 1.036263 17
3.339084 5.934432 1.036212 0
3.400322 5.956683 1.036669 0
3.438231 5.956900 1.036787 0
3.587546 5.953054 1.037201 57
3.590748 5.919410 1.036804 61
3.592067 5.887746 1.036427 60
3.591928 5.851555 1.035991 60
3.598967 5.825244 1.035697 62
3.600677 5.792738 1.035311 63
3.605265 5.762885 1.034968 61
3.603622 5.727870 1.034543 61
3.658262 5.675456 1.034093 10
3.693069 5.671123 1.034155 12
3.647585 5.600557 1.033166 12
3.654781 5.541150 1.032484 52
3.673751 5.524032 1.032344 36
3.683295 5.499346 1.032083 48
3.689602 5.472163 1.031783 60
3.711499 5.457366 1.031681 52
3.742814 5.449862 1.031697 48
3.777304 5.444648 1.031752 47
3.811828 5.439246 1.031805 45
3.843207 5.431227 1.031817 50
3.884154 5.430302 1.031945 47
3.930776 5.434991 1.032159 49
3.958289 5.425027 1.032137 50
3.996973 5.420015 1.032212 48
4.028491 5.411074 1.032216 48
4.060019 5.401966 1.032219 43
4.085088 5.387986 1.032143 38
4.116618 5.378568 1.032144 34
4.154656 5.373644 1.032220 29
4.191970 5.369582 1.032303 29
4.230851 5.363160 1.032366 26
4.282105 5.366784 1.032589 25
4.333459 5.370102 1.032809 23
4.378330 5.368569 1.032951 21
4.426565 5.369038 1.033128 21
4.487342 5.379349 1.033464 18
4.541629 5.384826 1.033722 18
4.604970 5.391011 1.034021 18
4.670246 5.401304 1.034374 17
4.742349 5.415602 1.034798 20
4.801249 5.420681 1.035070 26
4.862844 5.428773 1.035387 32
4.927927 5.438676 1.035737 34
4.983826 5.440507 1.035963 33
5.030472 5.434342 1.036065 32
5.086539 5.435525 1.036285 34
5.159651 5.446982 1.036685 32
5.215940 5.447431 1.036899 30
5.268134 5.446702 1.037085 31
5.328004 5.448581 1.037329 31
5.394034 5.455530 1.037654 31
5.451472 5.453310 1.037845 30
5.511646 5.454082 1.038080 30
5.581457 5.461924 1.038431 30
5.641840 5.461938 1.038659 32
5.710006 5.464279 1.038944 28
5.780971 5.469533 1.039273 29
5.851282 5.475710 1.039609 28
5.923286 5.478718 1.039918 25
5.977219 5.472811 1.040059 27
6.062613 5.484176 1.040513 27
6.144685 5.493056 1.040927 23
6.208614 5.493191 1.041176 26
6.297987 5.504946 1.041651 24
6.366441 5.504693 1.041914 21
6.442040 5.507804 1.042243 21
6.535409 5.519852 1.042739 21
6.611284 5.521955 1.043059 21
6.707737 5.536239 1.043593 20
6.882267 5.547400 1.044401 9
7.067300 5.563290 1.045305 18
7.165421 5.573041 1.045800 17
7.245017 5.574856 1.046136 11
7.343457 5.583426 1.046621 7
7.463624 5.601914 1.047300 4
7.645213 5.649295 1.048536 3
87.597847 43.280010 1.773150 44
88.244766 43.220238 1.775125 44
92.553314 44.435501 1.805519 63
96.256699 44.897953 1.825502 63
96.767799 44.713589 1.825644 63
99.095184 45.344074 1.841828 63
102.147179 45.797916 1.859143 63
36.831181 12.640661 1.243593 11
36.769550 12.327997 1.240243 11
37.024090 12.254924 1.240635 11
37.076622 12.129982 1.239639 11
12.135490 4.490646 1.055910 1
12.116544 4.433820 1.055281 1
12.011823 4.356555 1.054078 1
11.996826 4.298867 1.053460 1
11.988249 4.248019 1.052937 1
11.922132 4.178966 1.051987 2
11.826389 4.058335 1.050417 11
11.821388 4.006773 1.049907 19
11.847478 3.962018 1.049601 34
11.845521 3.913730 1.049137 50
11.863477 3.867154 1.048780 77
11.857762 3.815680 1.048272 83
11.847936 3.763494 1.047739 94
11.861460 3.716054 1.047357 92
11.874820 3.668554 1.046974 100
11.876228 3.618754 1.046517 100
11.893187 3.571908 1.046159 72
11.902118 3.523538 1.045751 42
12.006736 3.391802 1.045008 2
12.078147 3.353662 1.044979 1
12.121835 3.310501 1.044781 1
12.168942 3.270166 1.044625 1
12.216719 3.224596 1.044426 1
12.259632 3.183061 1.044242 1
12.373996 3.149503 1.044454 1
12.622848 3.134964 1.045449 1
13.802218 3.252255 1.051852 1
127.560921 6.413435 1.599704 3
127.607063 5.962382 1.596110 57
127.651627 5.511073 1.592516 99
154.322067 -0.625183 1.664196 112
154.487473 -1.173056 1.660499 72
132.021164 -5.989534 1.518827 108
132.011978 -6.458043 1.515088 10
94.566849 -12.167038 1.300352 46
-14.343691 0.997931 1.047172 1
-28.979095 1.101616 1.150970 4
-55.121117 1.395178 1.337270 23
-55.251358 1.582205 1.339730 23
-55.584770 1.782483 1.343733 24
-55.721642 1.972216 1.346271 25
-37.007908 1.875111 1.213854 8
-36.664921 1.981615 1.212332 7
