# .PCD v.7 - Point Cloud Data file format
VERSION .7
FIELDS x y z intensity
SIZE 4 4 4 1
TYPE F F F U
COUNT 1 1 1 1
WIDTH 1613
HEIGHT 1
VIEWPOINT 0 0 0 1 0 0 0
POINTS 1613
DATA ascii
0.307916 5.299779 0.019808 0
0.322918 5.291833 0.019725 1
0.328627 5.266520 0.023432 0
0.352840 5.275783 0.019556 1
0.368504 5.267273 0.019467 1
0.389062 5.269444 0.017107 1
0.395609 5.247881 0.020060 0
0.414257 5.246489 0.018456 1
0.427148 5.234748 0.019129 1
0.441184 5.226805 0.019047 1
0.457880 5.221804 0.018201 1
0.471384 5.209507 0.018868 0
0.487309 5.204814 0.018025 0
0.496028 5.186074 0.020214 0
0.511362 5.177040 0.020122 0
0.525935 5.168384 0.020033 0
0.542497 5.163045 0.019184 0
0.557021 5.154281 0.019095 0
0.573558 5.148820 0.018245 0
0.585255 5.137045 0.018919 0
0.612083 5.148170 0.014270 1
0.626555 5.139163 0.014179 1
0.630549 5.113479 0.017886 0
0.657503 5.124316 0.013235 0
0.654993 5.088665 0.019221 1
0.684123 5.102631 0.013809 1
0.687759 5.076893 0.017516 0
0.697688 5.061045 0.018942 0
0.729120 5.077987 0.012767 1
0.733251 5.056419 0.015723 0
0.749582 5.050256 0.014868 0
0.765902 5.044028 0.014012 0
0.771198 5.021480 0.016959 1
0.798510 5.031379 0.012300 0
0.803672 5.008779 0.015246 0
0.819892 5.002331 0.014389 0
0.831606 4.989379 0.015053 0
0.841004 4.973183 0.016478 0
0.854863 4.963377 0.016380 0
0.866407 4.950327 0.017044 0
0.884771 4.946810 0.015423 0
0.896235 4.933672 0.016086 0
0.912270 4.926847 0.015226 0
0.937595 4.932614 0.011320 1
0.937293 4.903535 0.015789 0
0.964310 4.912793 0.011125 1
0.963810 4.883717 0.015594 0
0.977357 4.873483 0.015493 0
1.009905 4.888191 0.009298 1
1.004341 4.852875 0.015291 1
1.024984 4.851821 0.012904 0
1.038419 4.841374 0.012802 0
1.054240 4.833971 0.011937 0
1.062744 4.817259 0.013359 0
1.073613 4.803608 0.014018 0
1.099155 4.808314 0.010103 0
1.095176 4.776217 0.015336 0
1.116435 4.774131 0.012939 0
1.124623 4.757289 0.014360 0
1.137072 4.747036 0.014261 0
1.152649 4.739220 0.013393 0
1.172593 4.737912 0.011004 0
1.175514 4.714935 0.013950 0
1.204354 4.721382 0.009261 0
1.198838 4.689961 0.014502 0
1.229625 4.699750 0.009053 0
1.224536 4.667811 0.014288 0
1.239908 4.659628 0.013418 0
1.268215 4.666135 0.008730 1
1.267994 4.640134 0.012439 0
1.280688 4.628840 0.012331 0
1.309072 4.635041 0.007640 0
1.308590 4.609034 0.011350 0
1.337026 4.615027 0.006658 0
1.357588 4.612179 0.004256 1
1.354211 4.583256 0.008729 1
1.361362 4.565908 0.010147 1
1.373797 4.554289 0.010037 1
1.391574 4.548343 0.008397 1
1.398543 4.530921 0.009815 0
1.413567 4.522011 0.008939 1
1.425848 4.510210 0.008827 1
1.440819 4.501186 0.007950 1
1.452418 4.489886 0.007843 0
1.467337 4.480752 0.006966 1
1.484994 4.474347 0.005323 1
1.503620 4.444659 0.006625 0
1.518420 4.435307 0.005746 1
1.533196 4.425894 0.004866 1
1.545141 4.413675 0.004752 1
1.542952 4.387748 0.008464 0
1.563246 4.383667 0.006052 0
1.577880 4.374058 0.005171 0
1.598183 4.369796 0.002758 1
1.604219 4.351964 0.004173 1
1.615905 4.339499 0.004057 0
1.624673 4.324318 0.004706 1
1.640871 4.318367 0.003068 1
1.653017 4.305143 0.002945 0
1.659309 4.286587 0.004354 0
1.669623 4.275197 0.004248 0
1.681610 4.261868 0.004124 0
1.698840 4.254360 0.002472 0
1.701369 4.233755 0.004654 0
1.724432 4.231323 0.001468 1
1.738653 4.221022 0.000581 0
1.743950 4.202943 0.001995 1
1.752140 4.187428 0.002643 0
1.763251 4.174448 0.002523 0
1.771324 4.158887 0.003170 0
1.784786 4.149024 0.002288 0
1.796310 4.135273 0.002161 0
1.804220 4.119629 0.002807 0
1.821148 4.111465 0.001151 0
1.831452 4.098906 0.001035 0
1.842792 4.084985 0.000907 0
1.838278 4.059351 0.004625 0
1.847877 4.047400 0.004515 0
1.874910 4.044982 0.000540 0
1.891680 4.036444 -0.001120 0
1.905350 4.025402 -0.002012 1
1.928971 4.001418 -0.003022 1
1.939431 3.987821 -0.003146 1
1.944122 3.968742 -0.001739 1
1.960726 3.959833 -0.003402 1
1.960602 3.940417 -0.001207 1
1.977651 3.930721 -0.002877 1
1.981048 3.912967 -0.001457 1
1.988544 3.896172 -0.000820 1
1.998134 3.883059 -0.000939 1
2.001826 3.864611 0.000474 1
2.025048 3.859241 -0.002736 1
2.022238 3.836180 0.000216 1
2.031628 3.822956 0.000096 1
2.044673 3.811262 -0.000801 1
2.054957 3.796561 -0.000934 1
2.074377 3.789239 -0.003371 1
2.074397 3.768456 -0.001188 1
2.071082 3.745493 0.001766 1
2.157570 3.764754 -0.014656 1
2.148105 3.736551 -0.010169 0
2.082416 3.672278 0.007427 1
2.104373 3.667491 0.004223 1
2.114130 3.652573 0.004089 1
2.113493 3.631925 0.006274 1
2.129263 3.621934 0.004603 1
2.128020 3.602016 0.006795 1
2.134222 3.584911 0.007432 1
2.149872 3.574779 0.005760 1
2.151736 3.556975 0.007181 1
2.164425 3.543951 0.006274 1
2.166158 3.526146 0.007695 1
2.185010 3.517854 0.005251 1
2.193781 3.503366 0.005121 1
2.205431 3.491596 0.004226 1
2.214543 3.476308 0.004089 1
2.212603 3.456456 0.006282 1
2.218200 3.439158 0.006918 1
2.229665 3.427259 0.006022 0
2.241519 3.414578 0.005119 0
2.267380 3.408904 0.001118 1
2.251878 3.380569 0.006396 0
2.263589 3.367774 0.005492 0
2.261556 3.347273 0.007680 0
2.273165 3.334420 0.006776 1
2.284329 3.322257 0.005878 0
2.288970 3.305545 0.006520 0
2.297000 3.290696 0.006388 0
2.291141 3.268403 0.009351 0
2.302506 3.255388 0.008445 0
2.320776 3.245981 0.005992 0
2.311206 3.221934 0.009729 0
2.322428 3.208813 0.008824 0
2.330120 3.193847 0.008691 0
2.313280 3.166388 0.013978 0
2.352352 3.167374 0.006878 0
2.331451 3.139001 0.012947 0
2.352959 3.130984 0.009717 0
2.363529 3.118400 0.008816 0
2.360691 3.097374 0.011001 0
2.374695 3.086449 0.009325 0
2.378222 3.033331 0.012807 10
2.381744 3.016513 0.013450 10
2.403362 3.007169 0.010208 21
2.396425 2.984625 0.013170 15
2.399760 2.967781 0.013812 13
2.410189 2.954156 0.012903 12
2.413407 2.937289 0.013545 15
2.420150 2.922008 0.013412 13
2.454157 2.882978 0.009912 0
2.442327 2.860654 0.013666 0
2.456359 2.847545 0.011972 0
2.458846 2.831377 0.012621 0
2.472474 2.818931 0.010933 1
2.475486 2.801186 0.011569 0
2.481754 2.785689 0.011434 0
2.491301 2.772405 0.010529 0
2.486525 2.752515 0.012725 0
2.492927 2.736202 0.012583 0
2.487994 2.716385 0.014780 1
2.483711 2.661414 0.019041 13
2.492593 2.648812 0.018143 14
2.494932 2.631122 0.018779 18
2.500607 2.615557 0.018645 13
2.524682 2.606627 0.014619 29
2.515211 2.586469 0.017604 10
2.505929 2.565613 0.020582 15
2.533874 2.556982 0.015770 8
2.554126 2.546398 0.012520 4
2.546237 2.508574 0.016142 0
2.551483 2.492831 0.016007 0
2.556416 2.477859 0.015878 0
2.550363 2.458438 0.018079 0
2.581578 2.451092 0.012490 0
2.590362 2.436415 0.011574 0
2.580384 2.415817 0.014555 0
2.604041 2.405768 0.010521 0
2.601426 2.387526 0.011944 0
2.602254 2.371252 0.012594 0
2.591985 2.350820 0.015577 0
2.615494 2.340472 0.011541 0
2.609084 2.320399 0.013737 0
2.624985 2.307689 0.011260 0
2.621980 2.289532 0.012684 0
2.592238 2.264806 0.019578 0
2.611759 2.253083 0.016320 0
2.604758 2.234020 0.018526 0
2.635566 2.225203 0.012924 0
2.628446 2.206135 0.015130 0
2.640227 2.192091 0.013431 0
2.651966 2.177980 0.011732 0
2.637045 2.157044 0.015501 0
2.636859 2.141639 0.016160 0
2.633207 2.123703 0.017586 0
2.637303 2.106857 0.017443 0
2.660414 2.094556 0.013391 0
2.664214 2.078418 0.013254 0
2.656122 2.061222 0.015476 0
2.640866 2.039928 0.019243 0
2.671088 2.030683 0.013638 0
2.663175 2.011967 0.015848 0
2.662853 1.994986 0.016494 0
2.689323 1.983760 0.011662 0
2.681219 1.965101 0.013873 0
2.669366 1.944910 0.016859 0
2.680170 1.931110 0.015164 0
2.691254 1.915624 0.013454 0
2.667168 1.895729 0.018812 0
2.682139 1.880168 0.016313 0
2.654051 1.859764 0.022456 0
2.699461 1.851494 0.013703 0
2.691125 1.831498 0.015903 0
2.685997 1.815506 0.017347 0
2.685238 1.796986 0.017980 0
2.684133 1.780105 0.018627 0
2.678830 1.764216 0.020073 0
2.689219 1.749280 0.018368 0
2.691814 1.733043 0.018232 0
2.690477 1.716192 0.018880 0
2.677447 1.697585 0.021881 0
2.656703 1.677115 0.026446 0
2.678455 1.663811 0.022387 0
2.684635 1.648163 0.021467 0
2.667450 1.629259 0.025255 0
2.692734 1.617862 0.020424 0
2.687197 1.599781 0.021851 0
2.685380 1.583055 0.022501 0
2.687494 1.566022 0.022359 0
2.693344 1.550261 0.021438 0
2.679475 1.533810 0.024458 0
2.681318 1.517608 0.024323 0
2.690989 1.501447 0.022609 0
2.696534 1.486434 0.021695 0
2.707638 1.454684 0.019852 0
2.697493 1.437260 0.022075 0
2.714694 1.421625 0.018787 0
2.680915 1.402989 0.025736 0
2.694025 1.387785 0.023242 0
2.679788 1.369442 0.026247 0
2.692725 1.354971 0.023759 0
2.678300 1.337552 0.026772 0
2.702929 1.323032 0.021916 0
2.692298 1.305953 0.024142 0
2.689432 1.289456 0.024795 0
2.682545 1.273555 0.026242 0
2.687441 1.256758 0.025313 0
2.684401 1.240320 0.025967 0
2.681263 1.224716 0.026627 0
2.685945 1.208694 0.025705 0
2.686653 1.192472 0.025571 0
2.695142 1.176562 0.023861 0
2.672224 1.159448 0.028456 0
2.700196 1.144181 0.022805 0
2.708519 1.128142 0.021094 0
2.677584 1.111023 0.027268 0
2.685793 1.095008 0.025557 0
2.678263 1.078637 0.027001 0
2.670675 1.062320 0.028446 0
2.682636 1.046295 0.025946 0
2.674935 1.030018 0.027391 0
2.678941 1.013855 0.026469 0
2.686812 0.999294 0.024771 0
-6.561973 1.014365 0.045608 1
-6.561892 1.029621 0.045734 1
-6.549974 1.046338 0.048210 1
-6.573313 1.062727 0.043666 1
-6.569149 1.077946 0.044570 1
-6.576685 1.094207 0.043143 1
-6.576319 1.110317 0.043275 0
-6.571976 1.126310 0.044186 1
-6.567577 1.142274 0.045096 1
-6.578806 1.158782 0.042891 1
-6.566454 1.174428 0.045358 1
-6.585407 1.191355 0.041598 1
-6.584702 1.207495 0.041729 1
-6.587860 1.223831 0.041082 1
-6.594878 1.240402 0.039658 1
-6.582251 1.255899 0.042123 1
-6.561834 1.269227 0.046130 1
-6.553026 1.284782 0.047816 1
-6.555857 1.301875 0.047175 1
-6.558736 1.317388 0.046521 1
-6.553679 1.333142 0.047429 1
-6.556391 1.349476 0.046782 1
-6.543338 1.365355 0.049249 1
-6.549912 1.381214 0.047819 1
-6.548545 1.397229 0.047948 1
-6.551029 1.413600 0.047301 1
-6.545642 1.429244 0.048207 1
-6.540203 1.444856 0.049113 1
-6.542516 1.461239 0.048466 1
-6.544772 1.477642 0.047819 1
-6.547055 1.493267 0.047165 1
-6.541397 1.508830 0.048071 1
-6.535687 1.524359 0.048975 1
-6.564892 1.544877 0.042903 1
-6.601895 1.565774 0.035275 0
-6.594029 1.596838 0.036305 2
-6.584131 1.611960 0.037986 1
-6.578072 1.627556 0.038891 1
-6.583615 1.644768 0.037470 1
-6.581328 1.660900 0.037599 1
-6.563458 1.674713 0.040829 1
-6.564946 1.691364 0.040183 1
-6.558619 1.706826 0.041086 1
-6.563993 1.723302 0.039659 1
-6.557558 1.738733 0.040562 1
-6.558681 1.756219 0.039923 1
-6.556005 1.772262 0.040051 1
-6.553411 1.787495 0.040173 1
-6.550626 1.803519 0.040301 1
-6.547784 1.819534 0.040429 1
-6.541028 1.834827 0.041330 1
-6.534221 1.850083 0.042232 1
-6.535071 1.866779 0.041585 1
-6.543564 1.884996 0.039392 1
-6.532741 1.899455 0.041066 1
-6.541104 1.917743 0.038873 1
-6.530177 1.932140 0.040546 1
-6.523046 1.947276 0.041446 1
-6.523541 1.964013 0.040800 1
-6.508634 1.977435 0.043245 1
-6.516683 1.995840 0.041052 1
-6.505688 2.009224 0.042718 1
-6.490649 2.022465 0.045162 1
-6.487044 2.038269 0.045287 1
-6.487020 2.055749 0.044646 1
-6.475851 2.068927 0.046309 1
-6.471894 2.085466 0.046440 1
-6.479694 2.103234 0.044242 1
-6.471999 2.118048 0.045138 1
-6.468060 2.133786 0.045263 0
-6.467868 2.150489 0.044615 1
-6.452423 2.163238 0.047054 1
-6.455915 2.180918 0.045634 1
-6.459338 2.198637 0.044215 1
-6.447544 2.212267 0.045881 0
-6.443276 2.227920 0.046005 1
-6.438954 2.243558 0.046128 1
-6.431241 2.256549 0.047009 0
-6.437914 2.276174 0.044825 1
-6.437192 2.292890 0.044177 1
-6.425114 2.306286 0.045841 1
-6.416757 2.320737 0.046734 1
-6.415868 2.337417 0.046085 1
-6.396152 2.348362 0.049288 1
-6.406405 2.368483 0.046328 1
-6.405338 2.385167 0.045679 1
-6.392985 2.398294 0.047341 1
-6.388069 2.413755 0.047462 1
-6.394296 2.432842 0.045272 1
-6.389512 2.447535 0.045387 1
-6.362078 2.455544 0.050126 1
-6.360425 2.472918 0.049482 1
-6.362678 2.490798 0.048063 1
-6.361677 2.505896 0.047401 1
-6.348440 2.520196 0.049071 1
-6.365849 2.541796 0.044562 1
-6.337703 2.550787 0.049309 1
-6.339640 2.568717 0.047889 1
-6.341505 2.586679 0.046470 1
-6.332248 2.600602 0.047357 0
-6.326625 2.615850 0.047475 1
-6.324624 2.632460 0.046825 1
-6.315796 2.644766 0.047699 1
-6.309730 2.660715 0.047823 1
-6.304190 2.675126 0.047934 1
-6.298308 2.690276 0.048051 1
-6.292373 2.705404 0.048168 1
-6.286084 2.721267 0.048291 1
-6.280041 2.736353 0.048407 1
-6.273945 2.751418 0.048523 0
-6.268105 2.765710 0.048633 1
-6.265219 2.782992 0.047987 1
-6.262579 2.799527 0.047335 1
-6.245423 2.809927 0.049753 1
-6.254142 2.829561 0.046786 0
-6.243796 2.843723 0.047674 1
-6.230131 2.855518 0.049323 1
-6.220354 2.868080 0.050199 0
-6.217385 2.884531 0.049546 1
-6.210772 2.899377 0.049660 1
-6.207683 2.915820 0.049006 1
-6.208101 2.933898 0.047586 1
-6.201316 2.948710 0.047699 1
-6.197694 2.965897 0.047051 1
-6.183693 2.977330 0.048697 1
-6.180303 2.993741 0.048043 0
-6.166578 3.004329 0.049682 1
-6.166618 3.022412 0.048261 1
-6.156351 3.034627 0.049134 1
-6.159425 3.055187 0.046953 0
-6.142027 3.063864 0.049356 0
-6.141811 3.081959 0.047935 1
-6.127134 3.093728 0.049583 1
-6.134155 3.114655 0.046625 1
-6.126740 3.129208 0.046735 0
-6.115787 3.141930 0.047611 1
-6.108276 3.156419 0.047720 1
-6.097241 3.169052 0.048595 1
-6.082702 3.179793 0.050234 0
-6.088903 3.201581 0.047283 1
-6.078116 3.213392 0.048151 0
-6.066908 3.225872 0.049024 0
-6.062939 3.241363 0.048362 1
-6.065388 3.261369 0.046176 1
-6.057063 3.276396 0.046289 1
-6.042639 3.286116 0.047920 0
-6.030809 3.299123 0.048796 1
-6.029567 3.317212 0.047374 1
-6.011240 3.325516 0.049774 0
-6.013273 3.345558 0.047587 0
-5.994889 3.353734 0.049985 1
-5.993402 3.371792 0.048562 1
-5.995212 3.391877 0.046376 0
-5.980095 3.401904 0.048009 1
-5.969162 3.412487 0.048867 0
-5.966990 3.431246 0.047449 0
-5.951778 3.441105 0.049080 1
-5.950332 3.458456 0.047652 1
-5.934622 3.468904 0.049287 1
-5.935944 3.489028 0.047100 0
-5.930978 3.504295 0.046435 0
-5.905215 3.508265 0.050359 0
-7.074440 3.926985 0.073479 1
-7.068635 3.945014 0.073005 0
-7.065149 3.966809 0.071950 0
-7.043482 3.980368 0.073879 0
-7.039843 4.002125 0.072824 0
-7.036114 4.023893 0.071768 1
-7.022130 4.039548 0.072494 0
-7.025005 4.065407 0.070250 0
-7.001843 4.073046 0.072744 1
-6.991076 4.090622 0.072875 0
-6.980248 4.108160 0.073006 0
-6.982771 4.134057 0.070762 0
-6.965100 4.147345 0.072079 0
-6.944059 4.158425 0.073989 0
-6.946319 4.184335 0.071744 0
-6.931840 4.199571 0.072467 0
-6.923948 4.219059 0.072002 0
-6.919289 4.240700 0.070944 0
-6.891433 4.247086 0.074037 0
-6.893233 4.273042 0.071792 1
-6.879057 4.287177 0.072506 0
-6.876222 4.312681 0.070867 1
-6.871741 4.333413 0.069802 1
-6.844337 4.338495 0.072884 0
-6.842410 4.362264 0.071232 0
-6.824141 4.374763 0.072542 0
-6.822039 4.398530 0.070890 0
-6.810138 4.415476 0.071014 0
-6.794953 4.430088 0.071731 0
-6.781737 4.448622 0.071867 0
-6.761250 4.456802 0.073753 0
-6.755543 4.478190 0.072692 0
-6.749745 4.499580 0.071631 0
-6.731739 4.510743 0.072930 0
-6.722004 4.530564 0.072466 0
-6.712189 4.550362 0.072001 0
-6.704162 4.567651 0.071518 0
-6.701121 4.591364 0.069864 0
-6.688548 4.607888 0.069985 0
-6.663382 4.614707 0.072469 0
-6.653852 4.633525 0.071997 0
-6.644247 4.652319 0.071525 0
-6.637677 4.673539 0.070461 0
-6.612418 4.680007 0.072943 0
-6.614990 4.708566 0.070106 0
-6.592760 4.717348 0.071995 0
-6.582820 4.735983 0.071521 0
-6.572807 4.754594 0.071047 0
-6.553552 4.765645 0.072344 0
-6.546465 4.786697 0.071278 0
-6.527796 4.796816 0.072568 0
-6.520566 4.817820 0.071501 0
-6.515596 4.842168 0.069850 0
-6.487759 4.844428 0.072909 1
-6.483314 4.867929 0.071252 0
-6.469775 4.883691 0.071365 0
-6.459168 4.902001 0.070887 0
-6.454440 4.925497 0.069229 0
-6.422897 4.925457 0.072880 0
-6.418034 4.948888 0.071221 0
-6.399698 4.957597 0.072500 0
-6.400551 4.986299 0.069662 0
-6.391763 5.007858 0.068598 0
-6.363128 5.009961 0.071655 0
-6.361450 5.035245 0.069401 0
-6.337912 5.043282 0.071283 0
-6.346912 5.080119 0.066677 0
-6.344889 5.105470 0.064422 0
-6.318303 5.110637 0.066892 0
-6.307506 5.127790 0.066405 0
-6.295918 5.145674 0.065922 0
-6.280685 5.161533 0.066034 0
-6.266852 5.175834 0.066134 0
-6.259990 5.199891 0.064478 0
-6.242478 5.212093 0.065172 0
-6.232025 5.228309 0.064677 0
-6.210152 5.239081 0.065969 0
-6.198109 5.256694 0.065484 0
-6.181928 5.267168 0.066165 0
-6.171039 5.288995 0.065101 0
-6.158792 5.306500 0.064614 0
-6.145234 5.319666 0.064706 0
-6.129364 5.334972 0.064812 0
-6.108740 5.343766 0.066089 0
-6.098982 5.363965 0.065013 0
-6.087189 5.380545 0.064519 0
-6.068398 5.392745 0.065211 0
-6.058409 5.412859 0.064134 0
-6.040292 5.424223 0.064820 0
-6.028260 5.440646 0.064325 0
-6.004748 5.446026 0.066186 0
-5.997922 5.468226 0.064515 0
-5.981509 5.482991 0.064616 0
-5.963199 5.494040 0.065299 0
-5.947478 5.507982 0.065394 0
-5.931710 5.521869 0.065489 0
-5.921880 5.540979 0.064404 0
-5.905997 5.554777 0.064497 0
-5.864294 5.538496 0.070462 0
-5.853552 5.558115 0.069380 0
-5.837609 5.571674 0.069472 0
-5.836892 5.603352 0.066041 0
-5.808115 5.601662 0.069067 0
-5.809691 5.636390 0.065049 0
-5.775878 5.628407 0.069247 0
-5.757997 5.637967 0.069918 0
-5.758410 5.673363 0.065905 0
-5.742884 5.685929 0.065989 0
-5.711666 5.680562 0.069596 0
-5.710060 5.712216 0.066164 0
-5.693580 5.725273 0.066251 0
-5.679493 5.741388 0.065751 0
-5.665339 5.757463 0.065251 0
-5.646284 5.767231 0.065923 0
-5.630447 5.779425 0.066004 0
-5.616128 5.795352 0.065502 0
-5.598519 5.808716 0.065590 0
-5.588822 5.830882 0.063915 0
-5.573620 5.842254 0.063990 0
-5.553487 5.852280 0.064662 0
-5.543541 5.874361 0.062987 0
-5.519507 5.877240 0.064826 0
-5.507089 5.896044 0.063735 0
-5.485354 5.901962 0.064987 0
-5.470509 5.917457 0.064481 0
-5.458745 5.935527 0.063385 0
-5.436076 5.941836 0.064639 0
-5.423320 5.960429 0.063546 0
-5.408226 5.975738 0.063038 0
-5.389459 5.983879 0.063697 0
-5.373388 5.999681 0.063192 0
-5.349256 6.001728 0.065024 0
-5.344550 6.028770 0.062165 0
-5.320383 6.030673 0.063996 0
-5.311943 6.060038 0.061152 0
-5.293850 6.067232 0.061804 0
-5.268767 6.069466 0.063636 0
-5.253191 6.084304 0.063124 0
-5.239688 6.102425 0.062026 0
-5.221849 6.113838 0.062098 0
-5.201857 6.121843 0.062754 0
-5.186051 6.136477 0.062240 0
-5.170183 6.151062 0.061726 0
-5.142682 6.144840 0.064716 0
-5.129994 6.166590 0.063034 0
-5.119907 6.186663 0.061341 0
-5.098823 6.194817 0.061997 0
-5.082694 6.209133 0.061480 0
-5.064483 6.219997 0.061547 0
-5.046235 6.230798 0.061613 0
-5.025952 6.238118 0.062263 0
-5.012527 6.255099 0.061157 0
-4.998101 6.272579 0.060052 0
-4.976787 6.280236 0.060704 0
-4.955355 6.283319 0.061933 0
-4.949434 6.313921 0.058487 0
-4.933778 6.331753 0.057385 0
-4.905577 6.324776 0.060368 0
-4.894566 6.348905 0.058092 0
-4.870203 6.348680 0.059905 0
-4.855259 6.365769 0.058798 0
-4.840231 6.382820 0.057689 0
-4.818652 6.385344 0.058913 0
-4.792466 6.381273 0.061308 0
-4.786454 6.415689 0.057278 0
-4.767601 6.421023 0.057914 0
-4.775616 6.488114 0.048635 0
-4.727770 6.441450 0.058033 0
-4.710530 6.454608 0.057505 0
-4.698677 6.473839 0.055803 0
-4.672522 6.469176 0.058193 0
-4.656893 6.485712 0.057079 0
-4.661952 6.544908 0.048962 0
-4.641602 6.554770 0.049018 0
-4.595862 6.506498 0.058405 0
-4.583391 6.529968 0.056123 0
-4.584943 6.586116 0.048591 0
-4.569043 6.597919 0.048054 0
-4.550155 6.611033 0.047523 0
-4.500961 6.555241 0.058074 0
-4.509273 6.625365 0.048206 0
-4.460481 6.569225 0.058754 0
-4.446811 6.588332 0.057050 0
-4.424092 6.589730 0.058263 0
-4.401022 6.595517 0.058897 0
-4.411658 6.668550 0.048441 0
-4.390292 6.673431 0.049070 0
-4.368922 6.678232 0.049698 0
-4.332243 6.646459 0.056157 1
-4.310006 6.651457 0.056785 0
-4.290256 6.659621 0.056828 0
-4.268483 6.659983 0.058034 0
-4.275333 6.734069 0.047582 0
-4.250896 6.731085 0.049372 0
-4.231319 6.743120 0.048832 0
-4.213258 6.750223 0.048868 0
-4.194593 6.761740 0.048325 0
-4.174459 6.769501 0.048364 0
-4.151887 6.773873 0.048987 0
-4.117429 6.740350 0.055435 0
-4.097371 6.747841 0.055471 0
-4.080014 6.762693 0.054342 0
-4.058526 6.766334 0.054961 0
-4.034362 6.762448 0.056744 0
-4.015551 6.773378 0.056196 0
-3.998002 6.787981 0.055064 1
-3.978790 6.794703 0.055096 0
-3.958542 6.801711 0.055129 0
-3.938269 6.808648 0.055161 0
-3.913177 6.804601 0.056942 0
-3.903891 6.841086 0.052310 0
-3.878544 6.832793 0.054671 0
-3.869157 6.873327 0.049458 0
-3.852260 6.891256 0.047739 0
-3.829286 6.890276 0.048933 0
-3.808706 6.896761 0.048961 0
-3.789272 6.906956 0.048406 0
-3.769789 6.917086 0.047851 0
-3.746830 6.915785 0.049042 0
-3.728229 6.921366 0.049065 0
-3.705471 6.928107 0.049092 0
-3.685862 6.937960 0.048534 0
-3.670464 6.954762 0.046808 0
-3.645350 6.945460 0.049161 0
-3.627770 6.962738 0.047437 0
-3.605887 6.964704 0.048041 0
-3.586086 6.974227 0.047480 0
-3.563166 6.972218 0.048665 0
-3.542301 6.977773 0.048685 0
-3.523412 6.990915 0.047540 0
-3.500514 6.988666 0.048724 0
-3.480563 6.997839 0.048160 0
-3.461524 7.010786 0.047013 0
-3.437693 7.004457 0.048776 0
-3.420440 7.024960 0.046464 0
-3.397690 7.018218 0.048226 0
-3.377571 7.027048 0.047658 0
-3.355624 7.028100 0.048255 0
-3.333688 7.029072 0.048851 0
-3.314355 7.041550 0.047700 0
-3.294101 7.050101 0.047131 0
-3.273803 7.058585 0.046561 0
-3.252638 7.063130 0.046572 0
-3.230648 7.063728 0.047165 0
-3.207872 7.060369 0.048339 0
-3.188268 7.072443 0.047185 0
-3.166576 7.068715 0.048357 0
-3.145377 7.072886 0.048366 0
-3.124907 7.080870 0.047791 0
-3.105125 7.092674 0.046634 0
-3.084559 7.100522 0.046058 0
-3.063952 7.108301 0.045482 0
-3.040548 7.100422 0.047234 0
-3.018173 7.104337 0.047238 0
-2.999241 7.115612 0.046078 0
-2.977879 7.119198 0.046081 0
-2.955870 7.118804 0.046666 0
-2.934497 7.122239 0.046668 0
-2.913574 7.121523 0.047252 0
-2.892192 7.124810 0.047252 0
-2.873122 7.143681 0.044924 0
-2.849962 7.135077 0.046670 0
-2.829087 7.142061 0.046087 0
-2.808173 7.148973 0.045503 0
-2.785118 7.140126 0.047247 0
-2.764697 7.150813 0.046080 0
-2.743213 7.153580 0.046077 0
-2.721721 7.156272 0.046072 0
-2.699276 7.151031 0.047232 0
-2.680081 7.173225 0.044316 0
-2.656744 7.159967 0.046638 0
-2.637381 7.162122 0.046632 0
-2.616035 7.176365 0.044878 0
-2.593656 7.170740 0.046035 0
-2.573963 7.180680 0.044862 0
-2.551674 7.186824 0.044270 0
-2.530428 7.192788 0.043679 0
-2.510231 7.198584 0.043086 0
-2.485491 7.176896 0.046568 0
-2.464560 7.186577 0.045392 0
-2.444959 7.200048 0.043634 0
-2.422223 7.201780 0.043620 0
-2.400284 7.199404 0.044189 0
-2.378633 7.200900 0.044175 0
-2.356725 7.198370 0.044742 0
-2.337004 7.195632 0.045310 0
-2.313203 7.197030 0.045293 0
-2.294150 7.206008 0.044113 0
-2.271591 7.211140 0.043513 0
-2.250616 7.204229 0.044660 0
-2.228607 7.197294 0.045806 0
-2.205268 7.210138 0.044039 0
-2.183723 7.214908 0.043436 0
-2.161763 7.207736 0.044581 0
-2.142717 7.224159 0.042232 0
-2.119692 7.216870 0.043374 0
-2.098157 7.225298 0.042187 0
-2.075753 7.190129 0.047406 0
-2.055218 7.190475 0.047383 0
-2.032658 7.202650 0.045611 0
-2.011161 7.222648 0.042674 0
-1.991585 7.218817 0.043234 0
-1.969863 7.214928 0.043790 0
-1.945955 7.230745 0.041431 0
-1.924175 7.234612 0.040821 0
-1.902477 7.226530 0.041958 0
-1.882958 7.222358 0.042515 0
-1.859954 7.233900 0.040737 0
-1.838573 7.213726 0.043620 0
-1.817780 7.221198 0.042426 0
-1.794866 7.224587 0.041811 0
-1.773013 7.227924 0.041197 0
-1.752354 7.227266 0.041166 0
-1.730901 7.218590 0.042298 0
-1.709187 7.217749 0.042265 0
-1.687304 7.220785 0.041648 0
-1.665396 7.223744 0.041031 0
-1.643665 7.222674 0.040995 0
-1.622581 7.209673 0.042708 0
-1.599987 7.224257 0.040340 0
-1.578255 7.222959 0.040303 0
-1.556527 7.221584 0.040265 0
-1.536428 7.212312 0.041394 0
-1.513890 7.222633 0.039607 0
-1.493645 7.201303 0.042482 0
-1.471684 7.203579 0.041859 0
-1.449700 7.205777 0.041235 0
-1.427696 7.207897 0.040610 0
-1.406373 7.202055 0.041151 0
-1.384719 7.200081 0.041109 0
-1.362315 7.205910 0.039899 0
-1.341433 7.195906 0.041022 0
-1.321288 7.189881 0.041562 0
-1.298839 7.195479 0.040351 0
-1.279155 7.185382 0.041474 0
-1.256034 7.186773 0.040842 0
-1.234435 7.184274 0.040795 0
-1.212370 7.185629 0.040165 1
-1.191751 7.175123 0.041283 0
-1.171347 7.180527 0.040073 0
-1.148643 7.169602 0.041185 0
-1.126047 7.174572 0.039968 0
-1.105576 7.163780 0.041085 0
-1.088428 7.145389 0.043373 0
-1.062550 7.157657 0.040982 0
-1.040470 7.158397 0.040346 0
-1.021957 7.135586 0.043211 0
-1.003288 7.128695 0.043747 0
-0.982516 7.121407 0.044276 0
-0.954342 7.152929 0.038966 0
-0.935887 7.137846 0.040665 0
-0.912060 7.141850 0.039439 0
-0.891976 7.130353 0.040550 0
-0.868501 7.138273 0.038741 0
-0.847073 7.134421 0.038683 0
-0.827448 7.126802 0.039212 0
-0.803526 7.130383 0.037982 0
-0.781706 7.134284 0.036758 0
-0.762260 7.114386 0.039030 0
-0.740916 7.110164 0.038970 0
-0.719082 7.113841 0.037743 0
-0.699339 7.101717 0.038849 0
-0.676414 7.105021 0.037619 0
-0.655104 7.100499 0.037556 0
-0.634649 7.092036 0.038076 0
-0.614447 7.087604 0.038015 0
-0.593003 7.078766 0.038531 0
-0.571965 7.078054 0.037885 0
-0.551643 7.069314 0.038403 0
-0.529399 7.064107 0.038333 0
-0.507312 7.062921 0.037682 0
-0.488140 7.054221 0.038202 0
-0.465115 7.056727 0.036964 0
-0.444934 7.047630 0.037480 0
-0.425773 7.034630 0.038580 0
-0.403723 7.033066 0.037925 0
-0.380664 7.035250 0.036685 0
-0.360652 7.029976 0.036617 0
-0.341635 7.012605 0.038296 0
-0.321689 7.003098 0.038809 0
-0.295469 7.016409 0.035811 0
-0.274470 7.010559 0.035738 0
-0.257778 6.993512 0.037422 0
-0.235767 6.991333 0.036763 0
-0.212644 6.992873 0.035517 0
-0.193967 6.979142 0.036612 0
-0.174231 6.969146 0.037120 0
-0.146524 6.985597 0.033532 0
-0.130269 6.964093 0.035795 0
-0.107110 6.965225 0.034547 0
-0.088516 6.955268 0.035057 0
-0.066693 6.948365 0.034974 0
-0.048182 6.938283 0.035483 0
-0.028493 6.931908 0.035407 0
-0.007791 6.925126 0.035326 0
0.017671 6.929189 0.033484 0
0.037100 6.918496 0.033987 0
0.052896 6.900600 0.035666 0
0.072200 6.889793 0.036168 0
0.092755 6.882660 0.036085 0
0.117514 6.890746 0.033661 0
0.134091 6.872272 0.035334 0
0.157264 6.872368 0.034077 0
0.173366 6.849693 0.036331 0
0.197535 6.849257 0.035068 0
0.220044 6.853572 0.033231 0
0.236296 6.834812 0.034902 0
0.264316 6.841125 0.032460 0
0.281245 6.830411 0.032966 0
0.298730 6.815171 0.034050 0
0.321909 6.814615 0.032787 0
0.343213 6.806209 0.032692 0
0.356126 6.779761 0.035534 0
0.380742 6.782643 0.033683 0
0.404396 6.785837 0.031835 0
0.423079 6.773886 0.032329 0
0.445754 6.768762 0.031644 0
0.464350 6.756678 0.032138 0
0.484437 6.748177 0.032043 0
0.503493 6.740036 0.031953 0
0.522951 6.727333 0.032440 0
0.542521 6.723127 0.031767 0
0.559300 6.707112 0.032845 0
0.583427 6.705065 0.031569 0
0.601712 6.692540 0.032059 0
0.625482 6.694821 0.030203 0
0.646998 6.689356 0.029517 0
0.665191 6.676625 0.030006 0
0.683327 6.663837 0.030493 0
0.703089 6.654572 0.030393 0
0.717731 6.634513 0.032056 0
0.742515 6.635835 0.030191 0
0.759719 6.618763 0.031260 0
0.784524 6.619901 0.029395 0
0.796170 6.596562 0.031649 0
0.817455 6.590448 0.030957 0
0.836960 6.580716 0.030854 0
0.860804 6.582004 0.028990 0
0.871308 6.554489 0.031827 0
0.900691 6.561669 0.028775 0
0.920944 6.555662 0.028086 0
0.934834 6.535046 0.029745 0
0.960641 6.534897 0.027867 0
0.972527 6.510688 0.030114 0
0.989884 6.496927 0.030595 0
1.009062 6.486593 0.030486 0
1.033881 6.486615 0.028611 0
1.048258 6.469717 0.029685 0
1.065424 6.455718 0.030164 0
1.084457 6.445120 0.030054 0
1.105393 6.437904 0.029354 0
1.126316 6.430609 0.028654 0
1.141333 6.412930 0.029720 0
1.168121 6.415778 0.027251 0
1.181050 6.394560 0.028906 0
1.199869 6.383559 0.028793 0
1.222673 6.379306 0.027500 0
1.237541 6.365878 0.027987 0
1.254225 6.351286 0.028462 0
1.276985 6.346803 0.027167 0
1.297695 6.338846 0.026462 0
1.312179 6.320695 0.027525 0
1.332821 6.312602 0.026819 0
1.347166 6.294357 0.027881 0
1.378263 6.302876 0.024224 0
1.384062 6.271133 0.027646 0
1.415218 6.279435 0.023986 0
1.425074 6.254307 0.026228 0
1.441251 6.239135 0.026698 0
1.453037 6.217289 0.028350 0
1.475584 6.211950 0.027048 0
1.495950 6.203219 0.026337 0
1.514099 6.191121 0.026216 0
1.529093 6.176286 0.026691 0
1.547148 6.164072 0.026568 0
1.571854 6.161595 0.024673 0
1.580887 6.136195 0.026913 0
1.605563 6.133554 0.025017 0
1.616673 6.111343 0.026666 0
1.639054 6.105294 0.025359 0
1.656860 6.092697 0.025234 0
1.676921 6.083256 0.024517 0
1.699271 6.076950 0.023208 0
1.698407 6.038515 0.027813 0
1.720645 6.032101 0.026504 0
1.741416 6.021760 0.025778 0
1.761286 6.011983 0.025059 0
1.775527 5.996442 0.025529 0
1.795329 5.986531 0.024809 0
1.811852 5.974047 0.024686 0
1.826801 5.957701 0.025149 0
1.847364 5.946922 0.024420 0
1.861334 5.931136 0.024889 0
1.876101 5.914643 0.025350 0
1.893240 5.901219 0.025219 0
1.912785 5.890839 0.024495 0
1.932305 5.880382 0.023771 0
1.949324 5.866762 0.023638 0
1.968781 5.856161 0.022912 0
1.983220 5.839345 0.023372 0
2.000096 5.825547 0.023238 0
2.021958 5.817794 0.021918 0
2.033703 5.797776 0.022969 0
2.042819 5.774700 0.024613 0
2.069664 5.772796 0.022105 0
2.081188 5.752665 0.023156 0
2.110610 5.753562 0.020053 0
2.124606 5.736322 0.020509 0
2.130758 5.710075 0.022746 0
2.144581 5.692783 0.023202 0
2.163556 5.681395 0.022471 0
2.173822 5.661767 0.023527 0
2.203235 5.662071 0.020419 0
2.219491 5.647507 0.020279 0
2.233043 5.629951 0.020734 0
2.246524 5.612357 0.021188 0
2.265279 5.600558 0.020453 0
2.275954 5.579964 0.021501 0
2.294616 5.568044 0.020766 0
2.310542 5.553161 0.020624 0
2.331843 5.543980 0.019293 0
2.347686 5.528968 0.019150 0
2.366209 5.516759 0.018413 0
2.370985 5.490227 0.020649 0
2.389393 5.477919 0.019911 0
2.405005 5.462706 0.019767 0
2.424553 5.454612 0.018447 0
2.443640 5.441320 0.017699 0
2.443144 5.408336 0.021119 0
2.476584 5.414029 0.016820 0
2.475874 5.381039 0.020240 0
2.499609 5.373843 0.018307 0
2.514857 5.358246 0.018161 0
2.524370 5.337090 0.019205 0
2.539490 5.321406 0.019058 0
2.554554 5.305670 0.018911 0
2.578170 5.298051 0.016975 0
2.590274 5.279467 0.017422 0
2.610967 5.268960 0.016081 0
2.607726 5.237615 0.019517 0
2.637767 5.234255 0.016378 0
2.649611 5.215504 0.016825 0
2.664305 5.199385 0.016675 0
2.678212 5.184023 0.016532 0
2.696467 5.169634 0.015777 0
2.708049 5.150719 0.016222 0
2.724033 5.138653 0.015489 0
2.730985 5.112800 0.017113 0
2.745320 5.096397 0.016961 0
2.765576 5.085124 0.015614 0
2.782101 5.072008 0.014871 0
2.793287 5.052857 0.015315 0
2.813444 5.041356 0.013966 0
2.825207 5.021281 0.014402 0
2.842255 5.007087 0.013650 0
2.851785 4.989450 0.014109 0
2.869434 4.974300 0.013348 0
2.876475 4.953246 0.014397 0
2.897076 4.940480 0.013037 0
2.903970 4.919378 0.014085 0
2.917629 4.902372 0.013929 0
2.941190 4.891855 0.011969 0
2.951650 4.872267 0.012411 0
2.964470 4.855955 0.012261 0
2.971669 4.833876 0.013301 0
2.988823 4.818191 0.012536 0
2.998992 4.798481 0.012977 0
3.018518 4.785940 0.011621 0
3.025404 4.763761 0.012660 0
3.041026 4.749581 0.011910 0
3.050270 4.730607 0.012358 0
3.063918 4.712215 0.012190 0
3.067295 4.687623 0.013829 0
3.089083 4.677926 0.011878 0
3.105740 4.661713 0.011110 0
3.118498 4.644004 0.010949 0
3.134412 4.628550 0.010188 0
3.152875 4.616209 0.008834 0
3.162869 4.595165 0.009264 0
3.168910 4.572728 0.010303 0
3.196984 4.566967 0.007147 0
3.203515 4.543554 0.008176 0
3.215244 4.526408 0.008021 0
3.234075 4.512758 0.006657 0
3.229910 4.483561 0.009497 0
3.244728 4.468525 0.008740 0
2.136806 3.706400 0.212919 0
2.125828 3.658267 0.218072 1
2.131315 3.642550 0.218551 2
2.137202 3.626110 0.219024 2
2.153481 3.615327 0.217686 2
2.155916 3.596718 0.218760 1
2.161621 3.580229 0.219233 2
2.163904 3.561638 0.220307 2
2.182923 3.553467 0.218372 1
2.140836 3.508668 0.227280 2
2.190103 3.519029 0.219926 5
2.432378 3.645698 0.178238 1
2.607760 3.730021 0.148584 0
3.398842 4.179189 0.009868 1
3.413319 4.162471 0.009099 1
3.427745 4.145690 0.008328 1
3.431862 4.122888 0.009366 1
3.442737 4.104044 0.009198 0
3.463845 4.091051 0.007221 2
3.505566 4.089653 0.001624 2
3.522680 4.075386 0.000256 0
3.447069 4.008045 0.015170 1
3.453562 3.988179 0.015614 1
3.464486 3.968314 0.015437 1
3.474307 3.950306 0.015278 1
3.471174 3.922849 0.017516 1
3.491809 3.909470 0.015536 1
3.490454 3.886758 0.017196 1
3.493509 3.864024 0.018236 1
3.503978 3.844014 0.018059 1
3.514373 3.823965 0.017882 2
3.524204 3.804835 0.017713 1
3.558637 3.798223 0.013312 1
3.561318 3.775378 0.014351 0
3.581589 3.761390 0.012367 0
3.573489 3.733245 0.015221 0
3.583004 3.713909 0.015050 0
3.606198 3.702438 0.012468 0
3.579535 3.666759 0.018357 0
3.585713 3.644727 0.018784 0
3.583744 3.621233 0.020439 0
3.610757 3.610277 0.017241 0
3.598791 3.579819 0.020695 0
3.622129 3.567026 0.018102 0
3.609047 3.538625 0.021575 0
3.617882 3.519167 0.021404 0
3.634300 3.501942 0.020013 0
3.639394 3.480788 0.020448 0
3.648027 3.461224 0.020277 0
2.190011 2.768809 0.267270 15
2.203761 2.756672 0.265924 15
2.213527 2.743656 0.265191 7
3.661864 3.307347 0.026377 0
3.710158 3.304139 0.019528 0
3.707575 3.278896 0.021169 0
3.715503 3.259095 0.020996 0
3.704981 3.231993 0.023862 0
3.727470 3.217969 0.021259 0
3.720441 3.192383 0.023518 0
3.735069 3.176365 0.022139 0
3.750031 3.159276 0.020750 0
3.750139 3.136546 0.021794 0
3.746454 3.112463 0.023445 0
3.750091 3.091162 0.023881 0
3.768508 3.075271 0.021884 0
3.772005 3.053920 0.022319 0
3.751809 2.980466 0.028505 12
3.759038 2.959515 0.028325 15
3.765851 2.939536 0.028152 15
3.772594 2.919534 0.027980 12
3.775185 2.899262 0.028426 15
3.796808 2.884170 0.025816 8
3.812479 2.822576 0.025906 0
3.822586 2.803595 0.025123 0
3.851511 2.790415 0.021290 0
3.850173 2.767802 0.022336 0
3.870840 2.754116 0.019739 0
3.876936 2.733748 0.019564 0
3.868092 2.707869 0.021823 0
3.885708 2.689805 0.019808 0
3.227453 2.461164 0.126965 1
3.168065 2.424039 0.137186 4
3.138475 2.397555 0.142540 1
3.002210 2.341316 0.164997 1
2.934337 2.304502 0.176462 1
2.912124 2.280323 0.180595 1
2.901277 2.259311 0.182896 1
2.925015 2.246405 0.179686 1
2.925302 2.229224 0.180160 1
2.937458 2.213223 0.178784 1
2.948932 2.199721 0.177429 0
2.957358 2.181791 0.176657 1
2.968746 2.168173 0.175302 1
2.976654 2.151864 0.174543 0
3.937754 2.310885 0.023400 0
3.888258 2.278381 0.031803 0
3.872939 2.255808 0.034711 0
3.885026 2.237086 0.033313 0
3.893186 2.217483 0.032528 0
3.901279 2.197839 0.031742 0
3.893811 2.175016 0.033408 0
3.894210 2.152779 0.033840 0
3.902086 2.133090 0.033054 0
3.882720 2.108160 0.036563 0
3.902100 2.090673 0.033936 0
3.893844 2.070096 0.035622 0
3.901625 2.049333 0.034827 0
3.901369 2.028173 0.035269 0
3.909001 2.007355 0.034474 0
3.900800 1.984875 0.036144 0
3.896075 1.965156 0.037218 0
3.915020 1.947248 0.034589 0
3.898945 1.922599 0.037481 0
3.917602 1.905595 0.034859 0
3.913075 1.882855 0.035908 0
3.904249 1.861628 0.037589 0
3.907230 1.841149 0.037417 0
3.929850 1.822401 0.034161 0
3.920806 1.801242 0.035844 0
3.915741 1.779653 0.036902 0
3.910730 1.757085 0.037953 0
3.921058 1.738608 0.036559 0
3.919686 1.717586 0.037003 0
3.933936 1.698469 0.034984 0
3.916718 1.675598 0.037892 0
3.903340 1.653300 0.040186 0
3.909411 1.634281 0.039407 0
3.919566 1.613595 0.037995 0
3.921680 1.593064 0.037824 0
3.903958 1.571603 0.040745 0
3.901992 1.550751 0.041191 0
3.907823 1.530645 0.040404 0
3.925395 1.511551 0.037766 0
3.911401 1.489661 0.040063 0
3.917022 1.469481 0.039276 0
3.902873 1.447730 0.041575 0
3.916232 1.428140 0.039553 0
3.921642 1.407902 0.038765 0
3.926981 1.387632 0.037977 0
3.912531 1.366067 0.040278 0
3.933506 1.346756 0.037019 0
3.922852 1.325504 0.038703 0
3.927907 1.305175 0.037915 0
3.917003 1.286077 0.039616 0
3.937806 1.264423 0.036339 0
3.922909 1.243152 0.038642 0
3.927600 1.224823 0.037871 0
3.908611 1.203549 0.040794 0
-7.767253 0.998365 0.063830 1
-7.767214 1.018631 0.063996 1
-7.771058 1.038931 0.063553 1
-7.774851 1.057228 0.063092 1
-7.778560 1.077581 0.062649 1
-7.774274 1.098827 0.063433 1
-7.766001 1.117929 0.064809 1
-7.773448 1.138393 0.063757 1
-7.776873 1.158795 0.063313 1
-7.776242 1.180109 0.063487 1
-7.759800 1.198822 0.066080 1
-7.766963 1.219373 0.065028 1
-7.813549 1.241675 0.057889 0
-7.852152 1.263938 0.051969 1
-7.799856 1.281933 0.060047 1
-7.822514 1.303579 0.056563 1
-7.801674 1.322912 0.059770 1
-7.808455 1.342753 0.058712 1
-7.799323 1.362658 0.060094 1
-7.801957 1.383300 0.059651 1
-7.796560 1.404424 0.060433 1
-7.799046 1.425084 0.059990 1
-7.805479 1.445054 0.058932 1
-7.807822 1.465772 0.058490 1
-7.798272 1.485509 0.059870 1
-7.808348 1.506925 0.058213 1
-7.806533 1.527332 0.058379 1
-7.804648 1.547732 0.058544 1
-7.806626 1.568515 0.058102 1
-7.796731 1.588110 0.059480 1
-7.794633 1.608476 0.059645 1
-7.796505 1.628246 0.059194 1
-7.798196 1.649054 0.058752 0
-7.791842 1.669985 0.059531 1
-7.797309 1.691277 0.058482 1
-7.791052 1.710141 0.059244 1
-7.780684 1.729490 0.060620 1
-7.782014 1.750311 0.060178 0
-7.763675 1.768522 0.062764 0
-7.764865 1.789311 0.062321 0
-7.758151 1.809011 0.063090 0
-7.755282 1.829241 0.063252 1
-7.760165 1.850621 0.062204 0
-7.757152 1.870858 0.062366 0
-7.757974 1.891691 0.061923 1
-7.743103 1.910056 0.063900 0
-7.767200 1.934677 0.059827 0
-7.756093 1.953641 0.061199 0
-7.737127 1.971214 0.063780 0
-7.741658 1.991712 0.062724 1
-7.734258 2.011195 0.063489 0
-7.726793 2.030638 0.064255 0
-7.719078 2.051046 0.065028 0
-7.727211 2.072322 0.063367 0
-7.711582 2.091217 0.065348 0
-7.715685 2.111793 0.064292 0
-7.707881 2.131103 0.065056 0
-7.711641 2.152722 0.064008 0
-7.703700 2.171990 0.064771 0
-7.703435 2.192838 0.064327 0
-7.699227 2.212875 0.064486 0
-7.694949 2.232897 0.064645 0
-7.694463 2.253754 0.064201 0
-7.682325 2.272030 0.065566 0
-7.681697 2.292871 0.065121 0
-7.673746 2.309945 0.065866 0
-7.676596 2.332682 0.064826 0
-7.664207 2.350789 0.066190 1
-7.663291 2.371619 0.065744 0
-7.662300 2.392458 0.065299 0
-7.653559 2.411392 0.066059 0
-7.656255 2.433196 0.065011 0
-7.647378 2.452081 0.065770 0
-7.653745 2.474915 0.064120 1
-7.637084 2.491742 0.066083 0
-7.631833 2.511545 0.066239 0
-7.630329 2.532368 0.065793 0
-7.625207 2.551159 0.065941 0
-7.627367 2.573048 0.064893 0
-7.617749 2.592726 0.065658 0
-7.623549 2.615735 0.064009 0
-7.614639 2.632412 0.064750 0
-7.612113 2.655225 0.064319 0
-7.599297 2.670711 0.065660 0
-7.596616 2.693491 0.065229 0
-7.583098 2.710837 0.066584 0
-7.588415 2.733961 0.064936 1
-7.586092 2.754777 0.064489 0
-7.568616 2.770810 0.066444 0
-7.573687 2.794002 0.064795 0
-7.556731 2.807960 0.066734 0
-7.553814 2.829692 0.066294 0
-7.558966 2.851971 0.064638 0
-7.537465 2.866455 0.067190 0
-7.545882 2.891005 0.064942 0
-7.527687 2.907597 0.066901 0
-7.520985 2.927016 0.067052 0
-7.532866 2.952981 0.064205 0
-7.515173 2.967467 0.066147 0
-7.511636 2.989150 0.065705 1
-7.500934 3.007159 0.066455 0
-7.497596 3.027849 0.066006 0
-7.487483 3.043855 0.066740 0
-7.472540 3.061313 0.068094 0
-7.472697 3.083347 0.067045 0
-7.462057 3.100196 0.067786 0
-7.458371 3.120813 0.067335 0
-7.454608 3.141431 0.066885 0
-7.458123 3.164957 0.065237 0
-7.454196 3.185599 0.064787 0
-7.431855 3.198838 0.067328 0
-7.416425 3.215886 0.068679 0
-7.423275 3.240941 0.066433 0
-7.477487 3.285823 0.056414 0
-7.411524 3.279599 0.066121 0
-7.399883 3.297066 0.066865 0
-7.392228 3.315088 0.067003 0
-7.390957 3.338117 0.065961 0
-7.383165 3.356110 0.066099 0
-7.385757 3.379804 0.064452 0
-7.355307 3.390025 0.068188 0
-7.358168 3.412757 0.066533 0
-7.349704 3.431581 0.066677 0
-7.344771 3.452020 0.066224 0
-7.336171 3.470797 0.066367 0
-7.331089 3.491214 0.065914 0
-7.308033 3.503214 0.068444 0
-7.302827 3.523557 0.067989 0
-7.290853 3.539550 0.068721 0
-7.303320 3.568452 0.065284 0
-7.330330 3.603460 0.059454 0
-7.271494 3.597781 0.067945 0
-7.265471 3.618983 0.067497 0
-7.306284 3.661309 0.059285 0
-7.296485 3.680881 0.059433 0
-7.297662 3.704868 0.057787 0
-7.231871 3.694591 0.067461 0
-7.225937 3.714790 0.067004 0
-7.212913 3.731321 0.067739 0
-7.206838 3.751478 0.067282 0
-7.186711 3.764209 0.069207 0
-7.173534 3.780565 0.069940 0
-7.192616 3.811947 0.065301 0
-7.168367 3.823540 0.067826 0
-7.161939 3.843602 0.067368 0
-7.145548 3.857004 0.068688 0
-7.131578 3.874060 0.069425 0
-7.138744 3.901783 0.066587 0
-7.122202 3.915036 0.067905 0
-7.114908 3.935895 0.067453 0
-8.154726 4.959970 0.064203 1
-8.141552 4.980486 0.064355 0
-8.137596 5.008530 0.063065 0
-8.125470 5.034394 0.062757 0
-8.108028 5.053697 0.063399 0
-8.087222 5.070726 0.064524 0
-8.089453 5.103147 0.062267 0
-8.065935 5.116776 0.063865 1
-8.058806 5.141466 0.063049 0
-8.041029 5.160479 0.063688 0
-8.029727 5.183933 0.063362 0
-8.018336 5.207359 0.063035 0
-8.010106 5.233036 0.062225 0
-7.998528 5.256416 0.061898 0
-7.983624 5.277464 0.062052 0
-7.968648 5.298460 0.062206 0
-7.963255 5.326378 0.060914 0
-7.957740 5.354311 0.059621 1
-7.939293 5.372869 0.060255 0
-7.927178 5.396068 0.059926 0
-7.906186 5.411089 0.061034 0
-7.898728 5.441028 0.059755 0
-7.887130 5.463084 0.059417 0
-7.872289 5.482710 0.059559 0
-7.856596 5.503316 0.059709 0
-7.856557 5.535990 0.057452 0
-7.840679 5.556540 0.057601 0
-7.834113 5.584375 0.056306 0
-7.818066 5.604847 0.056454 0
-7.794919 5.621345 0.057572 0
-7.785758 5.645622 0.056749 0
-7.772592 5.668415 0.056415 0
-7.759337 5.691172 0.056081 0
-7.743741 5.710373 0.056219 0
-7.717227 5.723969 0.057813 1
-7.706810 5.749098 0.056997 0
-7.697122 5.773211 0.056172 0
-7.674335 5.788096 0.057277 0
-7.663642 5.813137 0.056459 0
-7.649822 5.835588 0.056121 0
-7.632899 5.855415 0.056263 0
-7.612902 5.872587 0.056885 0
-7.607836 5.902710 0.055105 0
-7.590679 5.922390 0.055246 0
-7.576432 5.944637 0.054906 0
-7.559130 5.964208 0.055045 0
-7.544718 5.986365 0.054704 0
-7.524320 6.003167 0.055322 0
-7.515636 6.030560 0.054021 0
-7.498034 6.049917 0.054158 0
-7.481250 6.068250 0.054288 0
-7.463516 6.087487 0.054424 0
-7.444824 6.107620 0.054567 0
-7.427848 6.125776 0.054695 0
-7.407029 6.142097 0.055308 0
-7.389039 6.161075 0.055442 0
-7.385312 6.193735 0.053180 0
-7.364284 6.209877 0.053792 0
-7.346057 6.228706 0.053924 0
-7.334356 6.252090 0.053091 0
-7.314074 6.267091 0.053695 0
-7.301284 6.291339 0.052868 0
-7.287463 6.316491 0.052047 0
-7.263267 6.329415 0.053134 0
-7.242767 6.344141 0.053735 0
-7.231472 6.371974 0.052434 0
-7.215449 6.393185 0.052083 0
-7.197528 6.410578 0.052204 0
-7.174904 6.426867 0.052815 0
-7.167830 6.455627 0.051022 0
-7.143287 6.467999 0.052104 0
-7.117765 6.481166 0.053191 0
-7.123936 6.524368 0.049007 1
-7.090152 6.528685 0.051526 0
-7.063715 6.536895 0.053077 0
-7.045318 6.553785 0.053193 0
-7.034619 6.585032 0.051416 0
-7.018721 6.604775 0.051053 0
-7.002748 6.624475 0.050690 0
-6.978468 6.640822 0.051300 0
-6.959727 6.657429 0.051413 0
-6.951400 6.685920 0.049616 0
-6.930518 6.704172 0.049740 0
-6.910569 6.721483 0.049858 0
-6.885387 6.732695 0.050929 0
-6.874069 6.758062 0.049608 0
-6.855487 6.779062 0.049253 1
-6.832723 6.793069 0.049845 0
-6.817550 6.816139 0.049006 0
-6.793162 6.826094 0.050068 0
-6.780355 6.852127 0.048750 0
-6.765939 6.874228 0.047904 0
-6.744369 6.891798 0.048022 0
-6.726255 6.911552 0.047656 0
-6.703104 6.925046 0.048244 0
-6.677447 6.935340 0.049307 0
-6.665106 6.960305 0.047982 0
-6.651606 6.986071 0.046661 0
-6.633111 7.005543 0.046293 0
-6.607260 7.015525 0.047354 0
-6.583811 7.028553 0.047937 0
-6.569942 7.054136 0.046615 0
-6.548772 7.070187 0.046720 0
-6.529929 7.089342 0.046350 0
-6.506267 7.102066 0.046930 0
-6.495438 7.129882 0.045125 0
-6.468236 7.140053 0.046185 0
-6.457192 7.167808 0.044379 0
-6.423996 7.167369 0.046860 0
-6.402433 7.182909 0.046961 0
-6.390030 7.211315 0.045159 0
-6.372899 7.233223 0.044307 0
-6.351106 7.248584 0.044407 0
-6.333799 7.270388 0.043554 0
-6.315233 7.288120 0.043172 0
-6.293249 7.303280 0.043270 0
-6.272345 7.322398 0.042896 0
-6.246898 7.330079 0.043938 0
-6.228089 7.347553 0.043553 0
-6.206989 7.366455 0.043177 0
-6.186923 7.384550 0.042796 0
-6.168960 7.405902 0.041939 0
-6.148733 7.423880 0.041557 0
-6.128431 7.441793 0.041174 0
-6.108056 7.459644 0.040790 0
-6.086604 7.473360 0.040877 0
-6.062842 7.488436 0.040971 0
-6.038052 7.499348 0.041536 0
-6.021623 7.523658 0.040200 0
-5.995789 7.530327 0.041233 0
-5.973892 7.548458 0.040850 0
-5.952147 7.561728 0.040932 0
-5.928307 7.571525 0.041488 0
-5.913492 7.598967 0.039675 0
-5.885218 7.606576 0.040713 0
-5.869326 7.629820 0.039369 0
-5.840987 7.637239 0.040406 0
-5.829731 7.671363 0.037641 0
-5.806413 7.684826 0.037723 0
-5.779114 7.691306 0.038753 0
-5.757680 7.708049 0.038359 0
-5.736176 7.724725 0.037965 0
-5.710742 7.734390 0.038518 0
-5.696057 7.760696 0.036695 0
-5.668614 7.766724 0.037722 0
-5.648042 7.782471 0.037321 0
-5.625033 7.799436 0.036926 0
-5.605009 7.819191 0.036054 0
-5.581176 7.831869 0.036129 0
-5.560990 7.851497 0.035255 0
-5.535211 7.860497 0.035802 0
-5.505147 7.858193 0.037767 0
-5.482987 7.874058 0.037365 0
-5.463150 7.897546 0.036018 0
-5.442035 7.912670 0.035611 0
-5.411994 7.909957 0.037573 0
-5.391916 7.933240 0.036224 0
-5.371181 7.952307 0.035345 0
-5.348620 7.967741 0.034939 0
-5.322547 7.975943 0.035479 0
-5.296458 7.984049 0.036019 0
-5.272051 7.995648 0.036084 0
-5.258942 8.028168 0.033305 0
-5.231035 8.032432 0.034316 0
-5.204367 8.036020 0.035323 0
-5.185957 8.057576 0.033962 0
-5.162097 8.077145 0.033083 0
-5.135744 8.084650 0.033617 0
-5.113836 8.098768 0.033201 0
-5.085475 8.098276 0.034678 0
-5.062257 8.112780 0.034264 0
-5.038976 8.127208 0.033848 0
-5.017192 8.145213 0.032959 0
-4.994070 8.163682 0.032072 0
-4.970290 8.173699 0.032125 0
-4.940656 8.173154 0.033600 0
-4.918611 8.190858 0.032708 0
-4.896239 8.204304 0.032286 0
-4.872774 8.222382 0.031395 0
-4.841654 8.217743 0.033340 0
-4.817893 8.231448 0.032918 0
-4.798406 8.256174 0.031077 0
-4.774321 8.265543 0.031124 0
-4.748935 8.275318 0.031173 0
-4.718024 8.274343 0.032643 0
-4.693879 8.283444 0.032688 0
-4.671193 8.300387 0.031789 0
-4.649790 8.320989 0.030417 0
-4.622857 8.326595 0.030935 0
-4.597319 8.340040 0.030509 0
-4.570345 8.345454 0.031025 0
-4.545966 8.354066 0.031066 0
-4.522878 8.370547 0.030163 0
-4.495837 8.375688 0.030677 0
-4.472622 8.392013 0.029773 0
-4.448088 8.400300 0.029811 0
-4.420983 8.405166 0.030323 0
-4.392635 8.406158 0.031306 0
-4.371587 8.433914 0.028983 0
-4.345704 8.438084 0.029490 0
-4.318520 8.442575 0.029999 0
-4.292518 8.450758 0.030034 0
-4.268833 8.466440 0.029124 0
-4.243907 8.478250 0.028685 0
-4.214345 8.474762 0.030136 0
-4.187100 8.478774 0.030641 0
-4.164520 8.493736 0.029726 0
-4.141660 8.512826 0.028339 0
-4.114322 8.516573 0.028841 0
-4.084592 8.516768 0.029817 0
-4.061779 8.531421 0.028899 0
-4.033364 8.531048 0.029871 0
-4.009135 8.545902 0.028953 0
-3.983801 8.556842 0.028507 0
-3.956390 8.560015 0.029005 0
-3.927982 8.559245 0.029974 0
-3.902562 8.569912 0.029525 0
-3.877092 8.580494 0.029076 0
-3.855776 8.602222 0.027208 0
-3.826761 8.593034 0.029117 0
-3.799448 8.607862 0.028195 0
-3.773283 8.610053 0.028686 0
-3.748937 8.619887 0.028232 0
-3.721427 8.622211 0.028723 0
-3.695683 8.632182 0.028268 0
-3.670756 8.645943 0.027340 0
-3.644901 8.655744 0.026884 0
-3.617321 8.657691 0.027371 0
-3.591399 8.667311 0.026914 0
-3.562182 8.661290 0.028344 0
-3.535422 8.666832 0.028357 0
-3.512567 8.691749 0.026008 0
-3.484159 8.689324 0.026963 0
-3.456544 8.690695 0.027446 0
-3.427449 8.684162 0.028872 0
-3.404146 8.700695 0.027464 0
-3.377967 8.709592 0.027000 0
-3.351040 8.714490 0.027007 0
-3.324096 8.719295 0.027013 0
-3.297135 8.724005 0.027019 0
-3.271484 8.736454 0.026080 0
-3.243165 8.733143 0.027028 0
-3.218063 8.749333 0.025615 0
-3.190998 8.753674 0.025618 0
-3.162092 8.746144 0.027036 0
-3.136228 8.758143 0.026092 0
-3.111070 8.765926 0.025620 0
-3.083379 8.765962 0.026092 0
-3.057365 8.777698 0.025146 0
-3.029662 8.777542 0.025616 0
-3.001446 8.773350 0.026558 0
-2.975324 8.784812 0.025610 0
-2.949135 8.796185 0.024661 0
-2.921032 8.803697 0.024183 0
-2.894198 8.798948 0.025121 0
-2.865587 8.790321 0.026531 0
-2.839270 8.801325 0.025579 0
-2.813317 8.816189 0.024154 0
-2.787804 8.822922 0.023673 0
-2.760081 8.821808 0.024135 0
-2.731596 8.812690 0.025540 0
-2.705065 8.823240 0.024584 0
-2.677745 8.825789 0.024572 0
-2.651114 8.836156 0.023614 0
-2.623414 8.834558 0.024072 0
