# .PCD v.7 - Point Cloud Data file format
VERSION .7
FIELDS x y z intensity
SIZE 4 4 4 1
TYPE F F F U
COUNT 1 1 1 1
WIDTH 1459
HEIGHT 1
VIEWPOINT 0 0 0 1 0 0 0
POINTS 1459
DATA ascii
-0.591890 -4.289103 0.760301 5
-0.604880 -4.290323 0.760489 1
-0.616306 -4.295174 0.760476 1
-0.627750 -4.299984 0.760463 1
-0.641311 -4.301301 0.760651 1
-0.654291 -4.302328 0.760839 1
-0.665759 -4.307005 0.760827 1
-0.683202 -4.296815 0.761621 1
-0.679305 -4.338282 0.759591 5
-0.702038 -4.312911 0.761194 11
-0.714995 -4.313700 0.761384 24
-0.730819 -4.306985 0.761977 34
-0.742878 -4.311615 0.761965 52
-0.755215 -4.312029 0.762156 102
-0.766717 -4.316355 0.762145 105
-0.779620 -4.316894 0.762335 107
-0.795259 -4.309880 0.762930 108
-0.806177 -4.313857 0.762920 107
-0.817685 -4.318005 0.762909 107
-0.829207 -4.322112 0.762899 107
-0.840743 -4.326179 0.762889 107
-0.856219 -4.318882 0.763484 106
-0.867743 -4.322855 0.763474 106
-0.879282 -4.326787 0.763465 107
-0.890834 -4.330679 0.763455 107
-0.902399 -4.334531 0.763446 107
-0.916463 -4.330749 0.763840 108
-0.928029 -4.334512 0.763831 107
-0.939608 -4.338233 0.763823 106
-0.951200 -4.341915 0.763814 106
-0.961614 -4.349370 0.763603 105
-0.974421 -4.349157 0.763797 108
-0.987213 -4.348895 0.763991 108
-0.996543 -4.360062 0.763579 108
-1.006490 -4.367201 0.763369 108
-1.018722 -4.366644 0.763564 108
-1.030997 -4.370218 0.763556 107
-1.042114 -4.373414 0.763549 107
-1.052744 -4.380582 0.763340 106
-1.064000 -4.387881 0.763130 107
-1.074119 -4.394819 0.762921 106
-1.086951 -4.394175 0.763117 106
-1.096238 -4.409079 0.762503 106
-1.106468 -4.415921 0.762295 105
-1.116323 -4.426753 0.761885 105
-1.127234 -4.433688 0.761676 105
-1.136607 -4.444311 0.761266 104
-1.147241 -4.455207 0.760856 104
-1.156393 -4.469805 0.760244 103
-1.165637 -4.484380 0.759632 102
-1.176816 -4.491159 0.759424 61
-1.187123 -4.501792 0.759015 58
-1.195706 -4.520182 0.758201 53
-1.205556 -4.530623 0.757792 46
-1.212609 -4.556772 0.756574 33
-1.220689 -4.579011 0.755558 29
-1.225765 -4.612818 0.753936 37
-1.234805 -4.635173 0.752920 31
-1.240923 -4.669112 0.751298 25
-1.244869 -4.714794 0.749070 23
-1.251619 -4.744694 0.747650 21
-1.258442 -4.778638 0.746029 20
-1.263119 -4.828397 0.743598 18
-1.267550 -4.873991 0.741370 15
-1.270028 -4.935433 0.738333 11
-1.270031 -5.016680 0.734284 12
-1.268492 -5.101656 0.730033 6
-1.175642 -5.714058 0.698677 15
-0.001423 -12.638251 0.343057 34
-0.047307 -12.613643 0.344669 36
-0.087072 -12.612172 0.345068 38
-0.128193 -12.614836 0.345265 65
-0.169308 -12.617354 0.345462 73
-0.209201 -12.627624 0.345256 67
-0.250928 -12.625904 0.345657 61
-0.291459 -12.631940 0.345654 60
-0.333146 -12.629926 0.346056 59
-0.373691 -12.635674 0.346054 61
-0.414255 -12.641281 0.346053 58
-0.454838 -12.646747 0.346052 60
-0.495953 -12.648108 0.346254 59
-0.537059 -12.649325 0.346457 61
-0.575246 -12.674189 0.345446 103
-0.615794 -12.662983 0.346257 105
-0.653502 -12.675447 0.345855 104
-0.694203 -12.680077 0.345857 103
-0.734921 -12.684565 0.345861 97
-0.776487 -12.680964 0.346269 101
-0.819243 -12.685372 0.346274 103
-0.857552 -12.693200 0.346076 102
-0.898314 -12.697118 0.346082 105
-0.939451 -12.696915 0.346290 104
-0.980225 -12.700547 0.346297 104
-1.022719 -12.708188 0.346103 104
-1.062130 -12.703402 0.346515 103
-1.100274 -12.714415 0.346118 105
-1.141401 -12.713501 0.346330 95
-1.183068 -12.704473 0.346946 41
-1.222014 -12.735156 0.345540 34
-1.262419 -12.745776 0.345147 31
-1.301077 -12.752146 0.344955 30
-1.342713 -12.742550 0.345574 30
-1.385273 -12.752860 0.345183 33
-1.426436 -12.750945 0.345398 34
-1.469263 -12.756961 0.345210 32
-1.508028 -12.762649 0.345021 31
-1.547286 -12.756232 0.345440 31
-1.590174 -12.761806 0.345254 33
-1.630920 -12.771152 0.344865 32
-1.670010 -12.768319 0.345083 31
-1.710931 -12.773395 0.344898 32
-1.752052 -12.770339 0.345118 30
-1.795129 -12.771170 0.345138 30
-1.835991 -12.783798 0.344550 30
-1.874967 -12.788273 0.344366 30
-1.916083 -12.784644 0.344588 33
-1.959212 -12.784873 0.344610 33
-2.000287 -12.784945 0.344631 34
-2.039335 -12.792871 0.344248 32
-2.080438 -12.792663 0.344270 33
-2.121581 -12.796306 0.344091 30
-2.162640 -12.791816 0.344316 34
-2.203808 -12.795172 0.344138 34
-2.243027 -12.802421 0.343758 28
-2.284065 -12.797507 0.343985 35
-2.325514 -12.808426 0.343404 34
-2.366545 -12.803226 0.343633 30
-2.407820 -12.805868 0.343458 29
-2.449270 -12.812358 0.343081 29
-2.490604 -12.814711 0.342907 30
-2.530080 -12.821001 0.342530 32
-2.569411 -12.823170 0.342356 31
-2.610823 -12.825101 0.342184 30
-2.652475 -12.830875 0.341810 32
-2.693941 -12.832515 0.341639 30
-2.735427 -12.834009 0.341469 30
-2.776931 -12.835358 0.341299 32
-2.816666 -12.840688 0.340926 30
-2.858799 -12.849720 0.340354 31
-2.900702 -12.854617 0.339984 30
-2.944715 -12.859202 0.339616 30
-2.986376 -12.859815 0.339449 30
-3.028052 -12.860281 0.339283 30
-3.070103 -12.864578 0.338916 30
-3.110501 -12.872898 0.338345 31
-3.152263 -12.872927 0.338181 30
-3.194039 -12.872808 0.338017 30
-3.236657 -12.880489 0.337450 31
-3.277630 -12.872129 0.337691 30
-3.320328 -12.879510 0.337126 30
-3.362638 -12.882768 0.336762 30
-3.404046 -12.877940 0.336803 29
-3.446405 -12.880899 0.336441 29
-3.488801 -12.883707 0.336080 31
-3.531235 -12.886363 0.335719 31
-3.574230 -12.892827 0.335158 32
-3.615673 -12.887261 0.335202 30
-3.656129 -12.889752 0.334841 30
-3.700198 -12.887558 0.334686 31
-3.744523 -12.901315 0.333724 31
-3.784514 -12.899416 0.333566 31
-3.827800 -12.904962 0.333008 33
-3.871146 -12.910349 0.332451 29
-3.914553 -12.915579 0.331894 33
-3.956721 -12.912766 0.331741 31
-4.000218 -12.917684 0.331186 31
-4.043773 -12.922442 0.330631 32
-4.088075 -12.930976 0.329876 30
-4.132462 -12.939346 0.329121 27
-4.174063 -12.931831 0.329173 32
-4.217831 -12.935953 0.328621 30
-4.260165 -12.932065 0.328473 30
-4.305532 -12.943715 0.327519 32
-4.348692 -12.943436 0.327170 30
-4.392664 -12.946916 0.326621 29
-4.436689 -12.950234 0.326072 27
-4.479140 -12.945569 0.325927 29
-4.522414 -12.944660 0.325581 28
-4.565311 -12.951855 0.324830 27
-4.609513 -12.954536 0.324284 30
-4.653766 -12.957055 0.323739 28
-4.697187 -12.955514 0.323396 28
-4.741524 -12.957707 0.322852 29
-4.787725 -12.967519 0.321906 27
-4.833107 -12.973265 0.321162 28
-4.878562 -12.978840 0.320419 28
-4.923142 -12.980363 0.319878 30
-4.967768 -12.981719 0.319337 28
-5.014390 -12.990658 0.318395 28
-5.059133 -12.991676 0.317856 28
-5.103919 -12.992527 0.317318 27
-5.147733 -12.989348 0.316981 27
-5.191562 -12.986009 0.316646 26
-5.237492 -12.990222 0.315908 21
-5.286660 -13.005818 0.314568 26
-5.333836 -13.013519 0.313632 29
-5.380023 -13.017191 0.312897 27
-5.427372 -13.024528 0.311961 26
-5.473704 -13.027843 0.311228 26
-5.518977 -13.027146 0.310696 26
-5.561056 -13.023072 0.310362 24
-5.608689 -13.029699 0.309430 24
-5.654086 -13.028497 0.308900 22
-5.700950 -13.039223 0.307765 21
-5.746458 -13.037674 0.307236 22
-5.795607 -13.047382 0.306106 20
-5.843321 -13.044807 0.305583 23
-5.888969 -13.042723 0.305057 22
-5.938378 -13.051856 0.303930 22
-5.989154 -13.064584 0.302602 20
-6.040066 -13.077103 0.301276 20
-6.081317 -13.067424 0.301150 20
-6.127239 -13.064443 0.300628 23
-6.180528 -13.075658 0.299308 20
-6.224455 -13.073040 0.298783 21
-6.271849 -13.073283 0.298062 22
-6.317948 -13.069582 0.297543 23
-6.368900 -13.072455 0.296627 24
-6.419200 -13.079639 0.295508 22
-6.470271 -13.094892 0.293985 20
-6.514495 -13.091228 0.293464 20
-6.564370 -13.089548 0.292752 23
-6.618573 -13.098860 0.291440 28
-6.667915 -13.101298 0.290526 26
-6.715879 -13.099818 0.289812 23
-6.763888 -13.098149 0.289100 24
-6.814901 -13.103716 0.287987 22
-6.863901 -13.109921 0.286871 23
-6.916610 -13.118778 0.285561 25
-6.967923 -13.123718 0.284451 32
-7.017216 -13.129323 0.283337 24
-7.068717 -13.133850 0.282229 20
-7.121864 -13.141844 0.280922 21
-7.170426 -13.138591 0.280216 21
-7.223769 -13.146153 0.278911 20
-7.272448 -13.142501 0.278207 20
-7.324377 -13.145971 0.277103 21
-7.379632 -13.156531 0.275601 21
-7.433394 -13.163207 0.274299 22
-7.487268 -13.169654 0.272999 21
-7.539597 -13.172238 0.271899 20
-7.586549 -13.168322 0.271195 23
-7.636095 -13.158636 0.270701 25
-7.692001 -13.167830 0.269204 23
-7.748041 -13.176782 0.267709 23
-7.800772 -13.178279 0.266614 24
-7.856657 -13.191377 0.264915 29
-7.907840 -13.188829 0.264022 31
-7.960835 -13.189661 0.262929 28
-8.013906 -13.190270 0.261838 27
-8.070963 -13.193174 0.260553 30
-8.127790 -13.200460 0.259065 32
-8.184422 -13.212140 0.257372 32
-8.237871 -13.211819 0.256285 33
-8.295056 -13.218373 0.254799 22
-8.350518 -13.221132 0.253515 22
-8.402635 -13.211925 0.252834 24
-8.460121 -13.217746 0.251352 22
-8.515844 -13.219790 0.250070 24
-8.573554 -13.225111 0.248590 24
-8.631380 -13.230178 0.247111 24
-8.691027 -13.243165 0.245229 20
-8.745245 -13.240722 0.244150 24
-8.803413 -13.245030 0.242674 25
-8.863648 -13.252565 0.241000 22
-8.924019 -13.259830 0.239328 22
-8.980566 -13.259879 0.238054 21
-9.043171 -13.270073 0.236185 26
-9.095780 -13.267392 0.235106 27
-9.156631 -13.273598 0.233438 25
-9.213558 -13.272642 0.232169 25
-9.274643 -13.278310 0.230503 22
-9.337996 -13.282419 0.228845 21
-9.399257 -13.292233 0.226976 21
-9.460732 -13.297058 0.225314 20
-9.518158 -13.294789 0.224050 21
-9.577757 -13.295670 0.222589 21
-9.645895 -13.309851 0.220334 21
-9.710004 -13.312206 0.218683 21
-9.772085 -13.315613 0.217027 20
-9.829992 -13.316732 0.215563 17
-9.892296 -13.319589 0.213909 17
-9.956883 -13.325515 0.212058 17
-10.023790 -13.334486 0.210010 20
-10.088663 -13.339800 0.208161 17
-10.151466 -13.341479 0.206512 17
-10.214380 -13.342870 0.204864 15
-10.279630 -13.347287 0.203020 17
-10.351727 -13.361325 0.200581 18
-10.415021 -13.361806 0.198937 18
-10.482944 -13.368581 0.196898 19
-10.544196 -13.365177 0.195455 20
-10.612383 -13.371326 0.193419 22
-10.683012 -13.380419 0.191186 19
-10.753810 -13.389169 0.188954 17
-10.817976 -13.392607 0.187113 17
-10.879761 -13.387715 0.185676 17
-10.953145 -13.393929 0.183456 17
-11.027076 -13.409377 0.180827 19
-11.091554 -13.406779 0.179196 23
-11.163248 -13.413519 0.176973 22
-11.232714 -13.416704 0.174949 19
-11.304710 -13.422751 0.172729 20
-11.374453 -13.425259 0.170708 23
-11.449165 -13.433788 0.168293 19
-11.524052 -13.441947 0.165880 23
-11.596667 -13.446571 0.163666 26
-11.664808 -13.449373 0.161643 26
-11.740170 -13.456451 0.159234 23
-11.820347 -13.464578 0.156638 23
-11.896053 -13.470882 0.154233 24
-11.966928 -13.470572 0.152224 26
-12.037923 -13.469919 0.150216 28
-12.119107 -13.481327 0.147421 28
-12.200494 -13.492319 0.144627 25
-12.274460 -13.493643 0.142427 24
-12.346007 -13.491527 0.140426 25
-12.427912 -13.501328 0.137638 24
-12.507830 -13.512541 0.134842 25
-12.579789 -13.509320 0.132846 24
-12.664407 -13.516045 0.130071 22
-12.741826 -13.518133 0.127684 24
-12.827232 -13.528894 0.124707 21
-12.904968 -13.530176 0.122323 25
-12.996024 -13.546081 0.118957 24
-13.071446 -13.543541 0.116773 22
-13.150110 -13.548541 0.114188 22
-13.239116 -13.560122 0.111024 22
-13.325174 -13.563327 0.108264 24
-13.417279 -13.576927 0.104908 22
-13.493935 -13.577311 0.102527 24
-13.573425 -13.580260 0.099951 24
-13.671037 -13.593394 0.096413 22
-13.753061 -13.593440 0.093850 22
-13.848920 -13.607613 0.090307 22
-13.942271 -13.618368 0.086962 21
-14.017092 -13.613383 0.084788 22
-14.108048 -13.620334 0.081643 19
-14.201978 -13.629673 0.078305 22
-14.287754 -13.629925 0.075557 24
-14.389876 -13.641828 0.071840 22
-14.484426 -13.649648 0.068508 19
-14.574158 -13.656323 0.065364 17
-14.674760 -13.668799 0.061644 21
-14.763621 -13.664437 0.058916 21
-14.864655 -13.675845 0.055201 17
-14.960206 -13.681118 0.051879 17
-15.055950 -13.685877 0.048560 17
-15.160517 -13.698437 0.044656 17
-15.253782 -13.699373 0.041537 21
-15.345000 -13.702142 0.038409 22
-15.453124 -13.715810 0.034316 22
-15.552062 -13.715584 0.031019 22
-15.663587 -13.730790 0.026735 20
-15.763644 -13.734529 0.023236 24
-15.778513 -13.659402 0.025407 13
-15.696334 -13.500624 0.033818 15
-15.722054 -13.436657 0.035205 22
-15.766136 -13.393757 0.035214 20
-15.833102 -13.366915 0.033868 15
-16.401590 -13.779788 -0.000064 14
-16.515045 -13.790138 -0.004327 18
-16.628748 -13.799851 -0.008587 18
-16.742695 -13.808926 -0.012845 18
-16.850828 -13.812145 -0.016710 18
-16.974344 -13.827748 -0.021547 18
-17.082922 -13.829714 -0.025406 18
-17.198622 -13.841456 -0.029860 18
-17.310678 -13.844768 -0.033909 17
-17.437469 -13.854977 -0.038723 17
-17.553055 -13.859514 -0.042962 19
-17.678974 -13.876268 -0.047989 17
-17.798128 -13.882001 -0.052416 19
-17.929941 -13.897104 -0.057619 18
-18.049585 -13.901441 -0.062041 18
-18.191326 -13.922527 -0.067822 20
-18.308344 -13.922949 -0.072043 20
-18.444412 -13.937517 -0.077428 21
-18.571327 -13.943922 -0.082226 21
-18.704805 -13.954489 -0.087410 19
-18.835390 -13.961846 -0.092397 21
-18.963055 -13.966024 -0.097186 20
-19.106873 -13.981532 -0.102943 20
-19.238234 -13.986587 -0.107920 20
-19.392246 -14.007614 -0.114252 20
-19.533777 -14.018207 -0.119804 21
-19.666885 -14.026316 -0.124979 18
-19.815414 -14.040008 -0.130912 18
-19.957787 -14.048127 -0.136454 19
-20.110157 -14.062416 -0.142573 22
-20.255371 -14.065642 -0.148094 19
-20.392056 -14.066566 -0.153238 16
-20.555101 -14.085096 -0.159927 20
-20.702127 -14.091202 -0.165645 20
-20.869116 -14.110104 -0.172520 20
-21.026592 -14.121200 -0.178810 21
-21.190971 -14.135864 -0.185483 18
-21.340166 -14.143944 -0.191394 15
-21.518429 -14.165631 -0.198833 18
-21.677147 -14.172911 -0.205107 18
-21.839481 -14.181451 -0.211571 15
-21.998775 -14.186820 -0.217837 13
-22.184065 -14.203012 -0.225436 13
-22.360729 -14.217229 -0.232660 22
-22.537737 -14.230373 -0.239879 16
-22.715084 -14.242441 -0.247093 13
-22.900578 -14.263493 -0.254898 13
-23.078604 -14.273398 -0.262103 10
-23.263735 -14.286451 -0.269690 10
-23.449211 -14.298372 -0.277272 10
-23.648645 -14.317523 -0.285620 10
-23.831415 -14.325047 -0.293000 10
-24.038431 -14.345926 -0.301723 11
-24.232155 -14.357301 -0.309671 11
-24.436523 -14.373614 -0.318191 11
-24.648155 -14.392725 -0.327091 11
-24.849850 -14.404462 -0.335408 11
-25.055357 -14.416960 -0.343912 12
-25.278534 -14.438161 -0.353373 12
-25.432770 -14.418303 -0.358982 8
-19.522676 -10.958046 -0.029167 2
-19.482430 -10.858736 -0.024880 2
-19.270788 -10.664353 -0.011182 2
-19.265915 -10.582717 -0.008809 2
-19.291821 -10.435996 -0.005973 78
-19.282410 -10.352800 -0.003411 68
-19.286718 -10.277329 -0.001617 74
-19.289106 -10.204960 0.000164 62
-19.296331 -10.131520 0.001766 60
-19.313879 -10.063693 0.002792 68
-19.306328 -9.982991 0.005159 16
-19.339077 -9.919502 0.005431 6
-19.404112 -9.880083 0.003762 94
-19.461994 -9.756581 0.004474 2
-19.574722 -9.736407 0.000333 2
-19.676765 -9.710263 -0.003231 4
-19.627989 -9.610005 0.001241 2
-19.625498 -9.532783 0.003225 2
-19.842518 -9.560913 -0.006453 2
-20.115067 -9.536440 -0.017194 6
-20.401838 -9.592952 -0.030485 4
-20.436777 -9.527124 -0.030389 2
-20.807940 -9.618880 -0.048059 2
-21.018324 -9.638928 -0.057335 2
-21.229044 -9.657674 -0.066607 2
-21.443119 -9.668330 -0.075844 2
-21.656015 -9.680963 -0.085089 2
-21.842089 -9.684489 -0.093009 2
-22.203794 -9.754401 -0.109852 2
-22.419348 -9.758896 -0.119063 5
-22.611605 -9.756173 -0.127141 8
-30.324684 -8.081755 -0.433354 4
-30.368582 -7.987609 -0.433883 4
-30.506577 -7.910815 -0.438901 4
-31.766537 -8.105496 -0.498210 5
-31.657627 -7.975731 -0.491418 5
-31.487087 -7.827230 -0.481605 5
-31.432762 -7.706559 -0.477427 5
-31.533930 -7.621214 -0.480754 5
-31.143158 -7.427142 -0.460450 4
-31.145838 -7.321156 -0.459092 4
-31.046518 -7.193632 -0.452862 4
-31.037680 -7.080602 -0.450924 4
-30.893248 -6.950538 -0.442661 4
-30.808039 -6.828327 -0.437189 4
-30.706652 -6.703679 -0.430972 4
-30.726336 -6.603442 -0.430559 4
-30.463079 -6.449235 -0.416677 4
-30.569214 -6.361033 -0.420362 4
-30.391197 -6.225252 -0.410604 4
-30.180235 -6.090042 -0.399376 4
-30.229259 -5.997197 -0.400467 4
-30.049612 -5.864629 -0.390723 4
-30.066372 -5.766691 -0.390321 4
-29.885687 -5.636069 -0.380585 4
-29.818033 -5.530145 -0.376286 4
-29.719181 -5.414873 -0.370478 4
-29.947590 -5.351134 -0.380153 4
-29.749224 -5.221257 -0.369685 4
-29.763737 -5.124372 -0.369288 4
-29.580177 -4.998909 -0.359574 4
-29.424454 -4.873890 -0.351151 4
-29.382336 -4.770550 -0.348152 4
-29.422361 -4.683433 -0.349084 4
-29.236885 -4.561928 -0.339387 4
-29.050898 -4.441763 -0.329696 4
-29.062695 -4.347321 -0.329311 4
-28.875786 -4.229150 -0.319628 4
-28.724108 -4.116464 -0.311624 4
-28.699036 -4.019149 -0.309571 4
-28.709360 -3.925936 -0.309191 4
-28.719358 -3.832689 -0.308812 4
-28.534246 -3.719589 -0.299335 4
-28.543526 -3.626954 -0.298958 4
-28.325741 -3.512817 -0.288005 3
-28.362154 -3.423450 -0.288930 3
-28.370399 -3.331417 -0.288556 3
-28.179628 -3.218037 -0.278894 3
-28.187159 -3.126643 -0.278524 3
-28.194016 -3.039794 -0.278171 3
-27.949873 -2.929874 -0.266132 3
-27.840807 -2.831182 -0.260395 3
-27.771238 -2.735928 -0.256513 3
-27.737209 -2.643447 -0.254298 3
-27.626797 -2.551182 -0.248588 3
-27.632002 -2.461721 -0.248226 3
-27.469543 -2.358958 -0.240081 3
-27.442150 -2.268481 -0.238244 3
-27.446371 -2.179667 -0.237885 3
-27.350475 -2.086639 -0.232908 3
-27.218306 -1.992908 -0.226273 3
-27.257504 -1.906137 -0.227579 3
-27.260460 -1.817970 -0.227224 3
-27.091358 -1.724967 -0.218936 3
-27.065722 -1.636692 -0.217292 3
-26.967865 -1.547087 -0.212330 3
-26.869614 -1.462513 -0.207389 3
-26.811092 -1.374845 -0.204276 3
-26.772287 -1.283484 -0.202068 3
-26.673182 -1.196299 -0.197117 3
-26.533794 -1.113946 -0.190345 3
-26.573944 -1.032612 -0.191859 3
-29.613163 -1.184218 -0.171197 3
-29.481691 -1.087508 -0.165504 3
13.987874 0.685653 0.283409 1
14.013598 0.631884 0.282365 1
14.019258 0.575975 0.282138 1
13.984939 0.516224 0.283544 1
14.033711 0.467267 0.281531 1
16.968693 0.672751 0.160976 1
16.867241 0.594017 0.165109 1
16.888412 0.532751 0.164201 1
16.877769 0.465554 0.164588 1
16.930655 0.403244 0.162356 1
16.895632 0.334297 0.163726 1
16.880295 0.266971 0.164278 1
16.900402 0.205388 0.163369 1
16.840727 0.135490 0.165725 1
16.876554 0.071562 0.164147 1
17.111702 0.018237 0.154366 1
17.099234 -0.049294 0.154753 1
17.102652 -0.119303 0.154470 1
17.072378 -0.250802 0.155423 1
17.126856 -0.315470 0.153018 1
17.089132 -0.380240 0.154406 1
17.073135 -0.514054 0.154692 1
17.094753 -0.580175 0.153601 1
16.772432 -0.649880 0.166679 1
17.137243 -0.709512 0.151431 1
16.754557 -0.781201 0.166975 1
14.601187 -0.866576 0.255526 1
14.341837 -0.926021 0.266007 1
14.174199 -0.983445 0.272703 1
14.090290 -1.039801 0.275940 1
14.305928 -1.096986 0.266805 1
16.698769 -1.238837 0.167447 1
16.681894 -1.303865 0.167846 1
16.684837 -1.365889 0.167433 1
16.687500 -1.431198 0.167006 1
16.669958 -1.496021 0.167407 1
16.672167 -1.561305 0.166981 1
16.738167 -1.625416 0.163921 1
16.665443 -1.756809 0.166199 6
16.638790 -1.820930 0.166933 3
16.608074 -1.881441 0.167846 1
16.624901 -1.947385 0.166758 1
16.589613 -2.010691 0.167825 1
16.574060 -2.074896 0.168064 1
16.502630 -2.132408 0.170639 1
16.566429 -2.201302 0.167561 1
16.494392 -2.261554 0.170125 1
16.481962 -2.325541 0.170200 1
16.369907 -2.378863 0.174441 1
16.599880 -2.464441 0.164370 1
16.606665 -2.530329 0.163614 1
16.569410 -2.592572 0.164686 1
16.528254 -2.650988 0.165938 1
16.558256 -2.718934 0.164184 1
16.544243 -2.782948 0.164260 1
16.533989 -2.847278 0.164170 1
16.921097 -2.952157 0.147427 1
16.493279 -2.970459 0.164837 1
16.486700 -3.031775 0.164594 1
16.471611 -3.095402 0.164673 1
16.479748 -3.164933 0.163738 1
16.460619 -3.224782 0.163996 1
16.436932 -3.287258 0.164409 1
16.436825 -3.352605 0.163821 1
16.464647 -3.418365 0.162077 1
16.412146 -3.480203 0.163647 1
16.403437 -3.544460 0.163394 1
16.398911 -3.606031 0.162986 1
16.377430 -3.671737 0.163222 1
16.360146 -3.734702 0.163304 1
16.374254 -3.802366 0.162048 1
16.293827 -3.852276 0.164821 1
16.339586 -3.921670 0.162239 1
16.281994 -3.978010 0.163997 1
16.338045 -4.056095 0.160886 1
16.322844 -4.122621 0.160790 1
16.288815 -4.179284 0.161557 1
16.305214 -4.247963 0.160133 1
16.270224 -4.307595 0.160889 1
16.286142 -4.376401 0.159465 1
16.301802 -4.445359 0.158040 1
16.262852 -4.500794 0.158977 1
16.258425 -4.566047 0.158392 1
16.199509 -4.617276 0.160171 1
16.201860 -4.687115 0.159238 1
16.106724 -4.733767 0.162520 1
16.105375 -4.799399 0.161769 1
16.095972 -4.863407 0.161354 1
16.043371 -4.918112 0.162790 1
16.037451 -4.982788 0.162208 1
16.035198 -5.048340 0.161458 1
16.017118 -5.110386 0.161381 1
15.999551 -5.169214 0.161317 1
15.984946 -5.232020 0.161072 1
15.978646 -5.293486 0.160503 1
15.952710 -5.350271 0.160777 1
15.933593 -5.411962 0.160703 1
15.922021 -5.475500 0.160291 1
15.906348 -5.538033 0.160048 1
15.843999 -5.588617 0.161832 1
15.858876 -5.658915 0.160239 1
15.869616 -5.728354 0.158815 1
15.775842 -5.770069 0.161953 1
15.732141 -5.824774 0.162896 1
15.749932 -5.896170 0.161135 1
15.744343 -5.961316 0.160388 1
15.753899 -6.030825 0.158964 1
15.752544 -6.094066 0.158059 1
15.799972 -6.174902 0.154942 1
15.812536 -6.246006 0.153347 1
15.775021 -6.302460 0.153954 1
15.775596 -6.370234 0.152868 1
15.749156 -6.429921 0.152968 1
15.760702 -6.501273 0.151373 1
15.737635 -6.562045 0.151304 1
15.699119 -6.617902 0.151914 1
15.717521 -6.691835 0.149979 1
15.674793 -6.746256 0.150760 1
15.686078 -6.814792 0.149176 1
15.635385 -6.866433 0.150298 1
15.618648 -6.929228 0.149892 1
15.639532 -7.004818 0.147786 1
15.622303 -7.067653 0.147380 1
15.642604 -7.143545 0.145274 1
15.643735 -7.213034 0.144017 1
15.652128 -7.285280 0.142420 1
15.641424 -7.350909 0.141674 1
15.634234 -7.417904 0.140758 1
15.600527 -7.475292 0.141033 1
15.589117 -7.540859 0.140288 1
15.582355 -7.604758 0.139383 1
15.581678 -7.674581 0.138126 1
15.573262 -7.741623 0.137210 1
15.601868 -7.823096 0.134589 1
15.578002 -7.884497 0.134355 1
15.565075 -7.950215 0.133609 1
15.555615 -8.017406 0.132693 1
15.579265 -8.098049 0.130240 1
15.572948 -8.166898 0.129153 1
15.570063 -8.237308 0.127895 1
15.541060 -8.297064 0.127833 1
15.530284 -8.364428 0.126917 1
15.568396 -8.448980 0.123789 1
15.557047 -8.516538 0.122873 1
15.523421 -8.574615 0.122983 1
15.507925 -8.640522 0.122238 1
15.477548 -8.699984 0.122178 1
15.470241 -8.765999 0.121103 1
15.385208 -8.877648 0.122002 7
15.339483 -8.929994 0.122630 9
15.282715 -8.977102 0.123773 4
15.327307 -9.071062 0.120116 1
15.382307 -9.170520 0.115943 1
15.415150 -9.260203 0.112797 1
15.436757 -9.345051 0.110166 3
15.459453 -9.427101 0.107545 4
15.449441 -9.493682 0.106469 3
15.487931 -9.587948 0.102976 3
15.510132 -9.678558 0.100159 3
15.551311 -9.775307 0.096492 3
15.570608 -9.861669 0.093856 3
15.646532 -9.977213 0.088467 3
15.721862 -10.093394 0.083076 3
15.776892 -10.196106 0.078727 3
15.799529 -10.282679 0.075925 3
15.816615 -10.370755 0.073283 1
15.854496 -10.470281 0.069607 5
16.031237 -10.648603 0.059029 5
16.053801 -10.741802 0.056038 20
15.928433 -10.755182 0.060283 8
15.915361 -10.829221 0.059016 43
15.797035 -10.845344 0.062921 24
15.612472 -10.823831 0.070106 35
15.419529 -10.792242 0.077824 28
15.293152 -10.804855 0.082073 34
15.345660 -10.914664 0.077534 64
15.255575 -10.943277 0.080072 32
15.187985 -10.980409 0.081586 42
15.049582 -10.979873 0.086546 32
14.808085 -10.917660 0.096692 47
14.742494 -10.957913 0.098030 52
14.683685 -11.001934 0.099024 43
14.621351 -11.043601 0.100192 32
14.453068 -11.020609 0.106723 22
14.464108 -11.102246 0.104272 34
14.381192 -11.130272 0.106483 34
14.281317 -11.147288 0.109561 27
14.086715 -11.104300 0.117488 31
14.075054 -11.175333 0.116069 31
13.985559 -11.197046 0.118634 22
13.803700 -11.155079 0.126063 21
13.791709 -11.225368 0.124647 16
13.467984 -11.092885 0.139352 22
13.392624 -11.120509 0.141234 24
13.197256 -11.068383 0.149362 46
13.075608 -11.063763 0.153677 45
13.013902 -11.098508 0.154873 34
12.968689 -11.144139 0.155202 31
12.959666 -11.214333 0.153622 34
12.904212 -11.252918 0.154473 22
2.452340 -4.122844 0.704089 19
2.406042 -4.112339 0.705947 32
2.346273 -4.093093 0.708498 41
2.302432 -4.085813 0.710178 55
2.262484 -4.079839 0.711689 60
2.219924 -4.070545 0.713377 69
2.173712 -4.059380 0.715237 81
2.134075 -4.052657 0.716750 17
2.061506 -4.043266 0.719431 0
2.063715 -4.067015 0.718683 0
2.043484 -4.073956 0.719154 0
2.000992 -4.063856 0.720845 0
2.000390 -4.084398 0.720275 0
1.983338 -4.093461 0.720573 0
2.038845 -4.158844 0.716862 0
1.968072 -4.126122 0.720124 0
1.925821 -4.115212 0.721819 0
1.908731 -4.123928 0.722118 0
1.879145 -4.122577 0.723116 0
1.812271 -4.090974 0.726209 0
1.789649 -4.093531 0.726862 1
1.778894 -4.106740 0.726814 1
1.749577 -4.104680 0.727815 1
1.697262 -4.105179 0.729469 74
1.689527 -4.120637 0.729248 106
1.651225 -4.110262 0.730775 108
1.625207 -4.110027 0.731604 108
1.602267 -4.112252 0.732258 108
1.582919 -4.116342 0.732740 108
1.557015 -4.115712 0.733571 108
1.537168 -4.120208 0.734051 108
1.520330 -4.127247 0.734358 109
1.498055 -4.128287 0.735016 108
1.478247 -4.132484 0.735498 106
1.457909 -4.137185 0.735979 108
1.441086 -4.143865 0.736286 108
1.421856 -4.147171 0.736772 108
1.399701 -4.147679 0.737433 108
1.379419 -4.151970 0.737914 108
1.356777 -4.152841 0.738574 108
1.337082 -4.156329 0.739059 108
1.311599 -4.154224 0.739895 108
1.286172 -4.151980 0.740731 108
1.267115 -4.154561 0.741219 108
1.248076 -4.157050 0.741708 108
1.225097 -4.157787 0.742368 109
1.208413 -4.163433 0.742680 109
1.189433 -4.165637 0.743170 109
1.169375 -4.168856 0.743656 109
1.149887 -4.171421 0.744144 109
1.136601 -4.179014 0.744283 109
1.113778 -4.179105 0.744946 109
1.094343 -4.181387 0.745436 109
1.074930 -4.183573 0.745926 109
1.053317 -4.182254 0.746594 108
1.034513 -4.183710 0.747086 109
1.017936 -4.188496 0.747401 109
0.990379 -4.181592 0.748420 109
0.971115 -4.183273 0.748912 110
0.951875 -4.184858 0.749404 109
0.934823 -4.189792 0.749719 109
0.915624 -4.191192 0.750212 109
0.893757 -4.189546 0.750881 110
0.875174 -4.190245 0.751377 109
0.858739 -4.194323 0.751695 109
0.842311 -4.198325 0.752013 109
0.826446 -4.201758 0.752333 110
0.807389 -4.202615 0.752828 109
0.785728 -4.200371 0.753500 109
0.771984 -4.207061 0.753643 109
0.755059 -4.211150 0.753961 109
0.738699 -4.214680 0.754281 110
0.717724 -4.211575 0.754956 109
0.698824 -4.211887 0.755453 109
0.682525 -4.215168 0.755774 110
0.663676 -4.215304 0.756272 109
0.644860 -4.215348 0.756770 109
0.626075 -4.215299 0.757269 109
0.610409 -4.217799 0.757592 110
0.592237 -4.217126 0.758093 110
0.578553 -4.223042 0.758239 109
0.559869 -4.222660 0.758739 109
0.541220 -4.222186 0.759239 110
0.525078 -4.224759 0.759563 110
0.506487 -4.224112 0.760064 110
0.490382 -4.226530 0.760388 109
0.481612 -4.238368 0.760183 110
0.458215 -4.231145 0.761038 110
0.444571 -4.236526 0.761186 110
0.428512 -4.238659 0.761512 110
0.413030 -4.240299 0.761839 110
0.397002 -4.242290 0.762165 108
0.383363 -4.247424 0.762314 110
0.364993 -4.246055 0.762818 110
0.351363 -4.251060 0.762968 109
0.333048 -4.249531 0.763472 110
0.321758 -4.257655 0.763445 110
0.301171 -4.252718 0.764127 110
0.284693 -4.254603 0.764454 110
0.264210 -4.249471 0.765137 110
0.255769 -4.260241 0.764935 110
0.237627 -4.258233 0.765441 110
0.224048 -4.262729 0.765593 110
0.202034 -4.253572 0.766456 110
0.190730 -4.261239 0.766431 110
0.179401 -4.268867 0.766406 111
0.161401 -4.266476 0.766913 110
0.147850 -4.270667 0.767067 110
0.132105 -4.271461 0.767397 111
0.114201 -4.268836 0.767906 110
0.098510 -4.269483 0.768237 110
0.087152 -4.276788 0.768214 110
0.069335 -4.273938 0.768723 110
0.055830 -4.277763 0.768877 110
0.040201 -4.278146 0.769210 109
0.027274 -4.281499 0.769366 109
0.013777 -4.285155 0.769521 110
-0.003892 -4.281940 0.770032 110
-0.019441 -4.282056 0.770365 109
-0.034966 -4.282104 0.770699 109
-0.046367 -4.288944 0.770677 109
-0.063906 -4.285431 0.771189 109
-0.079370 -4.285281 0.771523 109
-0.098838 -4.278160 0.772213 109
-0.108223 -4.288235 0.772015 109
-0.125615 -4.284423 0.772528 109
-0.140979 -4.284001 0.772863 109
-0.159679 -4.276233 0.773556 109
-0.170490 -4.282318 0.773537 109
-0.188287 -4.278524 0.774050 109
-0.203534 -4.277830 0.774386 109
-0.218185 -4.276758 0.774724 108
-0.233378 -4.275934 0.775061 109
-0.246650 -4.278562 0.775220 109
-0.262368 -4.277915 0.775557 109
-0.270017 -4.291026 0.775182 109
-0.288871 -4.282889 0.775876 109
-0.303960 -4.281752 0.776214 109
-0.316620 -4.283807 0.776376 109
-0.331664 -4.282547 0.776714 109
-0.343635 -4.288640 0.776696 110
-0.356280 -4.290545 0.776858 109
-0.370702 -4.288825 0.777198 109
-0.384465 -4.291193 0.777358 109
-0.397653 -4.293223 0.777520 109
-0.414324 -4.288011 0.778038 109
-0.424011 -4.297128 0.777844 109
-0.438901 -4.295394 0.778184 109
-0.453759 -4.293598 0.778525 109
-0.463504 -4.302594 0.778331 108
-0.478336 -4.300688 0.778672 109
-0.491468 -4.302349 0.778835 109
-0.507333 -4.296424 0.779356 109
-0.518781 -4.301615 0.779341 109
-0.530248 -4.306766 0.779326 109
-0.544969 -4.304569 0.779668 109
-0.564474 -4.291332 0.780546 107
-0.580682 -4.285329 0.781067 102
-0.585771 -4.304945 0.780340 105
-0.598815 -4.306186 0.780504 109
-0.609723 -4.310815 0.780491 109
-0.621220 -4.315648 0.780478 109
-0.636749 -4.309128 0.781001 109
-0.651275 -4.306473 0.781345 109
-0.662757 -4.311161 0.781332 109
-0.674255 -4.315809 0.781319 109
-0.685770 -4.320417 0.781307 109
-0.703162 -4.310114 0.782009 109
-0.717562 -4.307176 0.782354 109
-0.729046 -4.311633 0.782342 109
-0.740546 -4.316049 0.782330 109
-0.752061 -4.320426 0.782318 109
-0.767792 -4.313534 0.782843 109
-0.779298 -4.317815 0.782832 109
-0.790819 -4.322056 0.782821 109
-0.802355 -4.326257 0.782810 110
-0.815253 -4.326656 0.782978 109
-0.829474 -4.323239 0.783325 109
-0.839115 -4.330873 0.783136 109
-0.854608 -4.323579 0.783662 109
-0.864853 -4.331337 0.783474 109
-0.873855 -4.342849 0.783106 109
-0.886733 -4.342971 0.783275 109
-0.900853 -4.339250 0.783623 109
-0.911205 -4.346865 0.783435 109
-0.922827 -4.350646 0.783426 109
-0.934462 -4.354385 0.783417 110
-0.947934 -4.350280 0.783767 110
-0.957187 -4.361561 0.783401 110
-0.970037 -4.361363 0.783571 109
-0.981709 -4.364938 0.783563 107
-0.993393 -4.368472 0.783555 108
-1.005089 -4.371966 0.783547 110
-1.016798 -4.375419 0.783539 110
-1.027409 -4.382669 0.783353 109
-1.036961 -4.393729 0.782988 109
-1.047662 -4.400917 0.782801 109
-1.061611 -4.396520 0.783152 109
-1.072349 -4.403629 0.782966 109
-1.081489 -4.414402 0.782602 109
-1.093345 -4.417588 0.782596 108
-1.104196 -4.424596 0.782410 108
-1.115085 -4.431571 0.782225 107
-1.124031 -4.446254 0.781682 106
-1.133070 -4.460916 0.781140 106
-1.141237 -4.479434 0.780418 105
-1.148574 -4.501819 0.779518 104
-1.159800 -4.508655 0.779334 103
-1.167374 -4.531008 0.778434 102
-1.174186 -4.557241 0.777355 62
-1.182961 -4.575680 0.776635 61
-1.187703 -4.609550 0.775198 53
-1.195030 -4.635767 0.774120 52
-1.205094 -4.650266 0.773579 38
-1.211886 -4.680364 0.772321 31
-1.218050 -4.714368 0.770886 27
-1.222815 -4.756198 0.769092 26
-1.230406 -4.782244 0.768014 22
-1.233313 -4.835838 0.765684 18
-1.238905 -4.877696 0.763890 16
-1.243942 -4.927538 0.761739 13
-1.244172 -5.000819 0.758514 13
-1.247859 -5.054372 0.756184 9
-1.250450 -5.119867 0.753317 4
-1.243621 -5.240458 0.747945 2
0.041756 -12.646243 0.411259 39
-0.000201 -12.645424 0.411610 46
-0.046110 -12.620811 0.413035 42
-0.083947 -12.631169 0.412851 52
-0.122468 -12.637460 0.412845 73
-0.163663 -12.639997 0.413020 59
-0.208100 -12.634803 0.413552 62
-0.247470 -12.648890 0.413191 105
-0.288662 -12.650985 0.413367 103
-0.331550 -12.641067 0.414080 62
-0.368439 -12.658408 0.413542 55
-0.410163 -12.656115 0.413898 66
-0.453356 -12.657904 0.414077 71
-0.488371 -12.690710 0.412823 105
-0.528588 -12.683765 0.413361 106
-0.568346 -12.696764 0.413004 107
-0.612104 -12.693997 0.413363 104
-0.651037 -12.714651 0.412650 106
-0.690277 -12.715090 0.412831 107
-0.731547 -12.715618 0.413013 105
-0.775306 -12.692157 0.414270 101
-0.813645 -12.720215 0.413201 105
-0.856932 -12.720509 0.413385 105
-0.897789 -12.724428 0.413391 105
-0.937338 -12.720060 0.413755 104
-0.977497 -12.731661 0.413404 104
-1.018725 -12.731178 0.413590 107
-1.058978 -12.742499 0.413240 107
-1.100216 -12.741729 0.413427 106
-1.140561 -12.724723 0.414331 52
-1.183474 -12.727796 0.414341 34
-1.224354 -12.730576 0.414351 33
-1.264743 -12.741189 0.414004 34
-1.306142 -12.735706 0.414374 37
-1.346604 -12.746037 0.414028 37
-1.387546 -12.748248 0.414040 36
-1.428302 -12.754307 0.413874 40
-1.469634 -12.748248 0.414246 37
-1.508201 -12.757928 0.413902 41
-1.549031 -12.763567 0.413738 41
-1.590173 -12.761077 0.413932 39
-1.631166 -12.762437 0.413948 34
-1.672499 -12.751671 0.414501 34
-1.711018 -12.768672 0.413802 36
-1.751953 -12.773605 0.413641 35
-1.792989 -12.774401 0.413659 34
-1.833915 -12.783044 0.413320 34
-1.875026 -12.779557 0.413518 36
-1.916054 -12.783918 0.413360 34
-1.955072 -12.784133 0.413379 32
-1.994086 -12.792211 0.413041 34
-2.035198 -12.796156 0.412884 32
-2.076311 -12.795962 0.412907 34
-2.117424 -12.795626 0.412929 36
-2.158588 -12.799140 0.412774 36
-2.199711 -12.798516 0.412798 28
-2.241404 -12.825714 0.411571 34
-2.280463 -12.820855 0.411774 37
-2.323940 -12.827738 0.411443 35
-2.365162 -12.826536 0.411470 33
-2.406654 -12.833178 0.411139 32
-2.448046 -12.835680 0.410988 33
-2.489295 -12.834045 0.411016 33
-2.531075 -12.844242 0.410508 34
-2.570482 -12.846408 0.410358 34
-2.612387 -12.856318 0.409851 34
-2.653928 -12.858099 0.409703 32
-2.694785 -12.847767 0.410092 32
-2.736571 -12.853248 0.409766 32
-2.778403 -12.858580 0.409441 34
-2.820006 -12.859778 0.409295 33
-2.862207 -12.868801 0.408792 32
-2.903569 -12.865720 0.408826 34
-2.944920 -12.862494 0.408861 34
-2.987254 -12.871072 0.408360 32
-3.028969 -12.871535 0.408217 32
-3.071777 -12.883792 0.407539 32
-3.112443 -12.872023 0.407933 32
-3.156659 -12.875820 0.407615 32
-3.196778 -12.879872 0.407295 33
-3.236935 -12.883788 0.406974 32
-3.279204 -12.887345 0.406656 32
-3.321512 -12.890752 0.406339 30
-3.363404 -12.890038 0.406201 31
-3.406716 -12.901080 0.405528 33
-3.449155 -12.904032 0.405213 34
-3.492129 -12.910796 0.404720 34
-3.533633 -12.905517 0.404763 34
-3.576695 -12.911976 0.404271 35
-3.618742 -12.910360 0.404137 32
-3.662456 -12.920468 0.403467 33
-3.704561 -12.918550 0.403334 33
-3.747833 -12.924389 0.402845 33
-3.790572 -12.926120 0.402535 32
-3.835168 -12.939546 0.401690 32
-3.877393 -12.937016 0.401560 35
-3.920259 -12.938281 0.401251 35
-3.963155 -12.939392 0.400944 32
-4.003340 -12.936758 0.400812 35
-4.046961 -12.941508 0.400328 35
-4.089260 -12.938228 0.400200 32
-4.132967 -12.942664 0.399717 31
-4.176732 -12.946940 0.399234 32
-4.219821 -12.947127 0.398930 32
-4.263683 -12.951085 0.398449 33
-4.308358 -12.958805 0.397790 34
-4.352342 -12.962439 0.397310 32
-4.395594 -12.961991 0.397009 33
-4.439671 -12.965303 0.396530 35
-4.483800 -12.968452 0.396052 33
-4.529634 -12.979259 0.395218 33
-4.573894 -12.982077 0.394742 35
-4.616495 -12.976924 0.394622 31
-4.663431 -12.991122 0.393612 30
-4.706091 -12.985651 0.393494 30
-4.752325 -12.995605 0.392664 31
-4.795027 -12.989818 0.392547 30
-4.837722 -12.983877 0.392430 32
-4.884152 -12.993325 0.391602 33
-4.927643 -12.999223 0.390950 31
-4.972335 -13.000567 0.390480 31
-5.018047 -13.005620 0.389832 31
-5.061852 -13.002756 0.389541 28
-5.108683 -13.011337 0.388717 32
-5.155610 -13.019737 0.387893 28
-5.201604 -13.024095 0.387249 28
-5.245581 -13.020562 0.386960 24
-5.293798 -13.032284 0.385961 28
-5.339997 -13.036115 0.385319 29
-5.385180 -13.035922 0.384855 30
-5.433692 -13.047089 0.383858 27
-5.476771 -13.038870 0.383751 28
-5.520959 -13.034330 0.383467 26
-5.568569 -13.041122 0.382650 27
-5.611869 -13.040705 0.382186 27
-5.665222 -13.057969 0.380842 25
-5.711937 -13.060378 0.380206 25
-5.756332 -13.054977 0.379925 24
-5.803447 -13.065320 0.378931 23
-5.849456 -13.071675 0.378116 26
-5.899759 -13.076497 0.377308 23
-5.950149 -13.081112 0.376502 22
-5.996005 -13.078630 0.376048 23
-6.041891 -13.075975 0.375594 24
-6.089091 -13.076932 0.374963 23
-6.138940 -13.085265 0.373979 25
-6.186790 -13.094128 0.372992 25
-6.234208 -13.094524 0.372363 26
-6.284350 -13.102269 0.371382 28
-6.333251 -13.106050 0.370578 28
-6.378143 -13.098366 0.370307 28
-6.427800 -13.110048 0.369146 22
-6.476919 -13.113257 0.368345 23
-6.526115 -13.116271 0.367544 21
-6.576799 -13.122826 0.366567 26
-6.624732 -13.121708 0.365946 25
-6.679145 -13.130771 0.364798 28
-6.727212 -13.129254 0.364178 28
-6.773859 -13.123833 0.363735 28
-6.828762 -13.145061 0.362051 31
-6.877031 -13.142963 0.361433 25
-6.928352 -13.148079 0.360462 24
-6.976734 -13.145591 0.359846 22
-7.028219 -13.150294 0.358878 21
-7.079797 -13.154787 0.357910 21
-7.134580 -13.166429 0.356589 21
-7.181662 -13.159458 0.356153 19
-7.238247 -13.174326 0.354657 20
-7.288621 -13.174290 0.353870 20
-7.340666 -13.177709 0.352906 19
-7.392800 -13.180911 0.351944 20
-7.446653 -13.187545 0.350806 22
-7.493559 -13.183986 0.350193 23
-7.544281 -13.182918 0.349410 25
-7.602198 -13.191556 0.348103 34
-7.654759 -13.193673 0.347145 30
-7.710795 -13.202807 0.345835 29
-7.761838 -13.200862 0.345055 31
-7.816380 -13.205921 0.343924 32
-7.869292 -13.207148 0.342969 24
-7.924031 -13.211746 0.341840 30
-7.976744 -13.217155 0.340706 30
-8.033459 -13.224877 0.339402 33
-8.088517 -13.228777 0.338275 34
-8.143676 -13.232439 0.337150 37
-8.195317 -13.228739 0.336377 32
-8.254291 -13.239055 0.334901 28
-8.307912 -13.238455 0.333955 24
-8.359473 -13.238740 0.333004 26
-8.418809 -13.248313 0.331531 25
-8.480426 -13.256489 0.330065 26
-8.534404 -13.254944 0.329122 26
-8.588449 -13.253171 0.328181 28
-8.642562 -13.251170 0.327240 25
-8.704418 -13.262960 0.325597 24
-8.758505 -13.265152 0.324477 23
-8.824731 -13.278707 0.322666 21
-8.883137 -13.282688 0.321378 22
-8.937716 -13.279455 0.320442 21
-8.996319 -13.282932 0.319156 22
-9.056871 -13.294310 0.317514 22
-9.115713 -13.297262 0.316231 23
-9.176677 -13.303404 0.314772 23
-9.231687 -13.298939 0.313842 21
-9.292871 -13.304548 0.312386 20
-9.352133 -13.306451 0.311107 21
-9.413559 -13.311510 0.309653 19
-9.479261 -13.323120 0.307850 17
-9.540960 -13.327606 0.306399 18
-9.606980 -13.338611 0.304598 17
-9.666835 -13.339126 0.303325 18
-9.726785 -13.339373 0.302052 19
-9.786830 -13.339352 0.300781 17
-9.853410 -13.349172 0.298986 17
-9.920153 -13.358677 0.297191 19
-9.982717 -13.361156 0.295749 19
-10.045395 -13.363347 0.294307 19
-10.110378 -13.368591 0.292692 18
-10.171135 -13.371625 0.291246 17
-10.238590 -13.379605 0.289458 18
-10.306130 -13.382498 0.287853 19
-10.369404 -13.383213 0.286418 20
-10.432876 -13.388411 0.284802 17
-10.503160 -13.398427 0.282845 17
-10.575890 -13.411389 0.280714 18
-10.637385 -13.407603 0.279459 18
-10.701256 -13.406810 0.278030 18
-10.769842 -13.412244 0.276253 16
-10.838573 -13.417351 0.274477 16
-10.914440 -13.431865 0.272179 17
-10.981145 -13.433050 0.270581 17
-11.050321 -13.437149 0.268810 20
-11.114903 -13.434475 0.267389 19
-11.191460 -13.447564 0.265097 19
-11.258668 -13.447452 0.263504 18
-11.333183 -13.456610 0.261390 20
-11.412695 -13.471775 0.258928 23
-11.477900 -13.467459 0.257514 22
-11.552917 -13.475523 0.255404 22
-11.623219 -13.476890 0.253644 21
-11.701010 -13.487378 0.251363 20
-11.778991 -13.497476 0.249084 20
-11.847256 -13.494633 0.247503 20
-11.920593 -13.497722 0.245575 20
-12.001566 -13.509808 0.243126 23
-12.070528 -13.510796 0.241367 22
-12.149344 -13.519000 0.239096 22
-12.225462 -13.518834 0.237182 23
-12.299533 -13.520077 0.235262 22
-12.381760 -13.535066 0.232640 22
-12.458700 -13.538620 0.230549 22
-12.535791 -13.541790 0.228460 22
-12.618198 -13.550671 0.226025 22
-12.693013 -13.550009 0.224113 21
-12.775766 -13.558069 0.221681 22
-12.863936 -13.571748 0.218904 22
-12.944888 -13.580848 0.216468 22
-13.017671 -13.575609 0.214736 21
-13.103328 -13.580055 0.212320 20
-13.192286 -13.591964 0.209551 22
-13.273459 -13.594478 0.207304 23
-13.357464 -13.599544 0.204885 23
-13.444329 -13.607133 0.202295 23
-13.531385 -13.614268 0.199706 21
-13.615921 -13.618011 0.197293 21
-13.703342 -13.624245 0.194709 23
-13.799136 -13.638778 0.191607 20
-13.875998 -13.632429 0.189718 21
-13.966705 -13.640197 0.186967 21
-14.060372 -13.650374 0.184044 21
-14.145946 -13.651409 0.181642 21
-14.242792 -13.663485 0.178551 23
-14.334291 -13.669313 0.175807 22
-14.420379 -13.668955 0.173411 19
-14.523474 -13.685199 0.169980 19
-14.618373 -13.692381 0.167070 17
-14.716919 -13.706919 0.163807 17
-14.815078 -13.715891 0.160728 16
-14.899210 -13.710320 0.158515 17
-15.003469 -13.723864 0.155096 16
-15.102242 -13.731268 0.152024 17
-15.195469 -13.732592 0.149300 17
-15.291752 -13.736182 0.146405 18
-15.394014 -13.744760 0.143167 18
-15.496498 -13.752777 0.139932 16
-15.605034 -13.765698 0.136355 18
-15.707971 -13.772572 0.133124 18
-15.805250 -13.773458 0.130241 19
-15.843805 -13.719790 0.130802 13
-15.752166 -13.547595 0.138936 15
-15.781004 -13.486112 0.140012 24
-15.843085 -13.459043 0.139013 13
-16.345636 -13.820388 0.112750 14
-16.450064 -13.823240 0.109536 17
-16.569687 -13.838718 0.105466 16
-16.676785 -13.837809 0.102269 14
-16.799948 -13.854575 0.098033 16
-16.906021 -13.860201 0.094646 14
-17.023649 -13.870436 0.090759 16
-17.141529 -13.880005 0.086874 16
-17.250494 -13.881178 0.083507 16
-17.374969 -13.894575 0.079285 17
-17.493578 -13.902149 0.075409 19
-17.615507 -13.911596 0.071364 17
-17.743872 -13.925414 0.066979 17
-17.872522 -13.938493 0.062598 17
-17.992981 -13.948598 0.058549 18
-18.119057 -13.957734 0.054345 18
-18.253902 -13.968291 0.049814 18
-18.380508 -13.975935 0.045616 16
-18.510508 -13.985320 0.041250 20
-18.640772 -13.993956 0.036887 18
-18.771296 -14.001838 0.032528 20
-18.902077 -14.008966 0.028171 18
-19.039467 -14.020187 0.023476 18
-19.180325 -14.033020 0.018613 19
-19.324673 -14.047429 0.013583 19
-19.454245 -14.054471 0.009226 17
-19.595961 -14.064868 0.004374 17
-19.747616 -14.081539 -0.000987 18
-19.892202 -14.087115 -0.005819 18
-20.038019 -14.097300 -0.010831 18
-20.187370 -14.108958 -0.016010 20
-20.320761 -14.108117 -0.020333 16
-20.490225 -14.131933 -0.026528 21
-20.640469 -14.140922 -0.031696 21
-20.795259 -14.156879 -0.037215 19
-20.952654 -14.168646 -0.042716 20
-21.110361 -14.179473 -0.048213 20
-21.274971 -14.193869 -0.054047 17
-21.433298 -14.202787 -0.059536 17
-21.608496 -14.221920 -0.065871 18
-21.767450 -14.228888 -0.071352 13
-21.930019 -14.237115 -0.076999 15
-22.112917 -14.257549 -0.083662 19
-22.286160 -14.270310 -0.089810 19
-22.456383 -14.279848 -0.095783 19
-22.637001 -14.294846 -0.102262 14
-22.814602 -14.306591 -0.108567 17
-22.995913 -14.319397 -0.115037 14
-23.191097 -14.339604 -0.122180 15
-23.367397 -14.351765 -0.128487 21
-23.547405 -14.365006 -0.134959 15
-23.749426 -14.380074 -0.142241 15
-23.942682 -14.393509 -0.149196 15
-24.145473 -14.406028 -0.156467 12
-24.347397 -14.427095 -0.163936 16
-24.553137 -14.449015 -0.171569 16
-24.754732 -14.461678 -0.178842 13
-24.963583 -14.477138 -0.186448 13
-25.185537 -14.493281 -0.194538 13
-25.402098 -14.510066 -0.202471 13
-25.539261 -14.479877 -0.206511 3
-19.243793 -10.804354 0.101950 1
-19.295267 -10.753905 0.101365 1
-19.266340 -10.658413 0.104664 1
-19.257935 -10.574857 0.106949 1
-19.256163 -10.495323 0.108896 1
-19.385559 -10.483603 0.104614 1
-19.443117 -10.436150 0.103695 1
-19.430086 -10.350687 0.106148 3
-19.395493 -10.254187 0.109611 1
-19.318003 -10.135705 0.115094 1
-19.349728 -10.075200 0.115354 1
-19.361208 -9.931350 0.118217 6
-19.394236 -9.875544 0.118295 3
-19.440861 -9.818934 0.117895 3
-19.500074 -9.772304 0.116811 3
-19.539753 -9.719552 0.116555 1
-19.575119 -9.656972 0.116662 1
-19.621042 -9.599498 0.116265 1
-19.420540 -9.426775 0.127275 1
-19.954536 -9.607327 0.104033 1
-20.087645 -9.597403 0.099421 1
-20.339121 -9.560342 0.091071 1
-20.545149 -9.581563 0.083115 1
-20.758146 -9.596627 0.075025 1
-20.878990 -9.572327 0.071115 1
-21.182199 -9.629107 0.058833 2
-21.338457 -9.622302 0.053244 2
-21.563713 -9.636745 0.044673 2
-21.782007 -9.646458 0.036444 2
-22.327791 -9.804345 0.013137 2
-22.604509 -9.838696 0.002235 2
-29.825104 -8.050820 -0.242940 3
-29.760294 -7.931445 -0.238750 3
-29.660275 -7.701819 -0.231693 3
-29.695110 -7.608004 -0.231786 3
-29.698498 -7.506736 -0.230564 3
-29.646994 -7.392957 -0.227040 3
-29.652401 -7.297705 -0.226004 3
-29.650759 -7.195917 -0.224619 3
-29.703392 -7.106224 -0.225534 3
-29.712765 -7.006955 -0.224642 3
-29.706144 -6.904374 -0.223094 3
-29.776379 -6.823092 -0.224848 3
-29.805309 -6.722857 -0.224756 3
-29.891668 -6.639185 -0.227143 3
-29.968971 -6.558310 -0.229220 7
-30.142109 -6.485480 -0.235188 3
-30.431925 -6.438845 -0.246084 3
-30.489969 -6.346915 -0.247313 3
-32.910313 -6.687862 -0.346904 4
-33.361641 -6.663188 -0.364480 5
-33.126289 -6.503139 -0.353376 5
-36.890343 -5.669546 -0.494444 6
-36.708206 -5.522026 -0.485805 6
-36.525467 -5.375834 -0.477173 6
-36.345364 -5.237454 -0.468733 6
-36.062252 -5.082049 -0.456045 6
-35.976990 -4.951643 -0.451495 6
-35.791935 -4.810743 -0.442885 6
-35.804340 -4.698668 -0.442429 6
-35.816994 -4.580649 -0.441948 6
-35.233402 -4.396093 -0.417088 5
-35.046120 -4.260567 -0.408501 5
-34.981651 -4.138052 -0.404949 5
-34.868965 -4.011678 -0.399453 5
-34.879223 -3.896929 -0.398987 5
-34.599758 -3.643284 -0.385903 5
-34.318363 -3.393682 -0.372836 5
-33.927773 -3.252975 -0.356193 5
-34.333809 -3.173651 -0.371945 5
-34.041988 -3.041898 -0.359356 5
-33.949459 -2.918521 -0.354839 5
-33.955910 -2.806988 -0.354388 5
-33.662338 -2.685268 -0.341840 5
-33.468109 -2.570432 -0.333340 4
-33.373531 -2.456013 -0.328859 4
-33.178944 -2.332611 -0.320324 4
-33.183353 -2.223771 -0.319885 4
-33.430542 -2.019112 -0.328704 4
-33.325985 -1.906344 -0.323909 4
-33.161095 -1.792832 -0.316701 4
-32.799999 -1.676309 -0.301605 4
-32.608044 -1.458471 -0.292852 4
13.867766 0.599671 0.381193 1
13.925033 0.549369 0.379146 1
13.965958 0.499960 0.377670 1
13.955235 0.442759 0.378004 1
14.183233 0.406714 0.369923 1
14.192090 0.350552 0.369553 1
14.248565 0.298225 0.367499 1
14.213204 0.238405 0.368673 1
14.229449 0.182688 0.368022 1
14.281392 0.129407 0.366106 1
14.217491 0.068018 0.368266 1
14.253098 0.013430 0.366911 1
14.224676 -0.045228 0.367808 1
18.805595 0.087916 0.205963 2
18.781378 0.013893 0.206656 2
18.756897 -0.059947 0.207349 2
14.354878 -0.320753 0.362585 1
14.269384 -0.495023 0.365141 1
14.359019 -0.549288 0.361805 1
14.320520 -0.604557 0.362999 1
14.337849 -0.661178 0.362205 4
14.323007 -0.718506 0.362541 3
14.283980 -0.776085 0.363726 1
14.312706 -0.832607 0.362507 1
14.341234 -0.889327 0.361287 1
14.141815 -1.057146 0.367698 1
14.145576 -1.113515 0.367330 1
14.165131 -1.170059 0.366395 1
18.661301 -1.283927 0.206534 2
18.668238 -1.356178 0.205961 2
18.639023 -1.424167 0.206681 2
18.701418 -1.497684 0.204120 2
18.651564 -1.572274 0.205521 2
18.601553 -1.642909 0.206939 2
18.579268 -1.714145 0.207363 2
18.560863 -1.781793 0.207659 2
18.506144 -1.851455 0.209223 2
18.423235 -1.919513 0.211785 2
18.503813 -1.994785 0.208510 2
18.496283 -2.066147 0.208367 2
18.594742 -2.428309 0.202673 2
18.454126 -2.490444 0.207244 2
18.711943 -2.581671 0.197529 2
18.706354 -2.653960 0.197242 2
18.391253 -2.912335 0.206560 2
18.285038 -2.973921 0.209859 2
18.321482 -3.052634 0.207988 2
18.374264 -3.126177 0.205571 2
18.299208 -3.190061 0.207727 2
18.331230 -3.265294 0.206013 2
18.347494 -3.335415 0.204885 2
18.299576 -3.401769 0.206040 2
18.283192 -3.471655 0.206047 2
18.282433 -3.543429 0.205480 2
18.246187 -3.607128 0.206220 2
18.201353 -3.673101 0.207235 2
18.233793 -3.821195 0.204809 2
18.318867 -3.905296 0.201077 2
18.199366 -4.032338 0.204119 2
18.374443 -4.131189 0.197070 2
18.193621 -4.175752 0.202988 2
18.273260 -4.260735 0.199395 2
18.249979 -4.329548 0.199549 2
18.238882 -4.396682 0.199286 2
18.163914 -4.456564 0.201318 2
18.151785 -4.526929 0.201042 2
18.131538 -4.595853 0.201055 2
18.115627 -4.661880 0.200938 2
18.043818 -4.721188 0.202831 2
17.947613 -4.779082 0.205581 2
17.950062 -4.851706 0.204730 2
17.976467 -4.925512 0.203024 2
17.950941 -4.992878 0.203185 2
17.948694 -5.064879 0.202479 2
