# .PCD v.7 - Point Cloud Data file format
VERSION .7
FIELDS x y z intensity
SIZE 4 4 4 1
TYPE F F F U
COUNT 1 1 1 1
WIDTH 1539
HEIGHT 1
VIEWPOINT 0 0 0 1 0 0 0
POINTS 1539
DATA ascii
32.168304 12.063375 -0.243795 9
32.043018 11.891694 -0.239047 9
24.090843 9.142047 0.041837 4
24.088558 9.041617 0.042133 4
24.257948 8.993830 0.036369 4
24.228287 8.884953 0.037606 4
24.267153 8.796912 0.036417 4
26.721546 9.320842 -0.049675 5
27.086206 9.311450 -0.062343 5
24.216873 7.607255 0.039423 4
24.235907 7.514874 0.038782 4
26.949955 7.875537 -0.056645 5
26.938755 7.766366 -0.056270 5
27.331713 5.533428 -0.073672 5
27.172840 5.300735 -0.068685 5
26.886984 5.155594 -0.058917 5
26.691521 5.025325 -0.052348 5
26.630154 4.914957 -0.050526 5
26.496384 4.800496 -0.046136 5
26.358850 4.681504 -0.041639 5
19.697102 -0.119632 0.167092 3
-16.855513 1.025312 0.458329 1
-31.734634 1.164513 -0.041952 5
-31.653921 1.267689 -0.038412 5
-31.756798 1.367465 -0.041098 5
-31.595438 1.468882 -0.034879 5
-31.569633 1.571847 -0.033228 5
-31.699341 1.678245 -0.036804 5
-31.656822 1.780978 -0.034617 5
-31.681881 1.885469 -0.034706 5
-31.606510 1.991961 -0.031412 5
-31.546930 2.093347 -0.028699 5
-31.411318 2.186094 -0.023497 5
-31.387022 2.288002 -0.021992 5
-31.354387 2.389375 -0.020223 5
-31.177671 2.483191 -0.013667 5
-31.228195 2.588214 -0.014698 5
-31.154619 2.686420 -0.011609 5
-31.104654 2.785606 -0.009321 5
-24.236801 2.436638 0.219542 3
-24.062437 2.584206 0.226264 6
-23.901289 2.649583 0.232047 6
-23.744238 2.710368 0.237659 3
-23.552498 2.846981 0.244828 53
-23.418486 2.910930 0.249656 50
-23.272346 2.972854 0.254871 50
-23.141956 3.035319 0.259552 54
-23.023325 3.098092 0.263831 54
-22.888609 3.158415 0.268629 45
-22.773605 3.219951 0.272762 51
-22.638559 3.278513 0.277545 43
-22.511303 3.337067 0.282058 34
-22.400192 3.393063 0.286011 31
-22.260727 3.448531 0.290902 31
-22.128622 3.507564 0.295553 46
-21.992840 3.561656 0.300298 44
-21.773323 3.667150 0.308015 8
-21.491072 3.837554 0.318003 10
-21.342642 3.885038 0.323097 5
-21.076326 4.187233 0.332789 2
-21.033543 4.248552 0.334357 2
-21.014193 4.313732 0.335147 2
-21.013710 4.385646 0.335317 2
-21.006296 4.449522 0.335693 2
-21.040384 4.659037 0.334940 52
-21.073906 4.738173 0.333955 49
-21.115612 4.815827 0.332689 44
-21.149853 4.888876 0.331655 28
-21.194870 4.967978 0.330264 13
-21.220009 5.043324 0.329517 5
-21.244854 5.118894 0.328771 2
-21.320190 5.205745 0.326365 2
-21.414671 5.297494 0.323324 2
-21.446341 5.375906 0.322331 2
-21.738817 5.514323 0.312795 2
-28.709068 7.207062 0.084750 4
-28.723349 7.303987 0.084306 4
-28.697285 7.396431 0.085172 4
-28.647593 7.483100 0.086799 4
-28.605383 7.571417 0.088170 4
-28.613297 7.672158 0.087890 4
-28.578213 7.762190 0.089004 4
-28.554436 7.855057 0.089737 4
-28.507132 7.941763 0.091228 4
-28.459545 8.028223 0.092717 4
-28.477306 8.132112 0.092055 4
-28.436811 8.220411 0.093288 4
-28.411438 8.312781 0.094015 4
-28.247164 8.366179 0.099278 4
-28.280270 8.469696 0.098074 4
-28.373125 8.595814 0.094894 4
-28.085554 8.710893 0.104002 57
-27.909096 8.757322 0.109612 71
-27.778545 8.816532 0.113708 37
-27.818775 9.026237 0.111987 4
-19.240143 6.426427 0.393168 2
-18.748972 6.400979 0.408972 4
-18.585560 6.412437 0.414172 2
-18.475428 6.440363 0.417617 2
-18.032553 6.478343 0.431626 2
-17.930174 6.505695 0.434797 2
-17.723078 6.492735 0.441418 2
-17.703789 6.547721 0.441845 2
-17.400942 6.504532 0.451591 1
-17.287601 6.524448 0.455106 1
-17.241915 6.568317 0.456387 1
-16.967304 6.527509 0.465210 1
-16.854248 6.544929 0.468705 1
-16.834782 6.596882 0.469107 1
-16.654476 6.587567 0.474814 1
-16.515465 6.592863 0.479155 1
-16.562904 6.669720 0.477330 1
-16.368111 6.651928 0.483508 1
-16.348274 6.702183 0.483896 1
-16.153852 6.682423 0.490057 1
-16.007921 6.680891 0.494613 1
-15.859464 6.674471 0.499265 1
-15.707768 6.727583 0.503703 3
-15.613985 6.744478 0.506519 1
-15.534967 6.767052 0.508842 3
-15.411878 6.770202 0.512626 1
-15.425662 6.829091 0.511870 3
-15.185458 6.779852 0.519548 4
-15.143239 6.816282 0.520633 1
-15.050828 6.827398 0.523404 1
-15.008510 6.863208 0.524483 1
-14.870436 6.858051 0.528740 1
-14.846252 6.901410 0.529205 1
-14.865462 6.964829 0.528213 1
-14.761228 6.970913 0.531347 1
-11.745923 5.603797 0.632039 1
-11.702682 5.666807 0.632922 2
-11.539584 5.627658 0.638125 2
-11.465866 5.632991 0.640313 3
-11.418920 5.692117 0.641299 16
-11.421155 5.732413 0.640934 4
-11.275283 5.702086 0.645533 3
-11.169752 5.689143 0.648788 9
-11.118574 5.701366 0.650221 8
-11.045300 5.703843 0.652386 3
-10.985465 5.714856 0.654078 2
-10.958320 5.740729 0.654676 1
-10.867579 5.732648 0.657431 1
-10.806013 5.737579 0.659211 1
-10.744595 5.783894 0.660632 2
-10.703297 5.801033 0.661700 0
-10.648001 5.810185 0.663243 0
-10.600570 5.821405 0.664533 0
-10.496589 5.802448 0.667741 0
-10.462367 5.822337 0.668560 0
-10.396889 5.824155 0.670450 0
-10.366123 5.845575 0.671146 0
-10.273118 5.830624 0.673981 0
-10.225146 5.841395 0.675267 0
-10.180641 5.853926 0.676433 0
-10.089100 5.874756 0.678865 5
-10.007030 5.863746 0.681327 7
-9.908124 5.879994 0.683992 22
-9.853637 5.884529 0.685498 30
-9.802605 5.890863 0.686884 33
-9.751626 5.896900 0.688267 33
-9.704077 5.904784 0.689530 35
-9.656567 5.912396 0.690791 36
-9.599875 5.911905 0.692393 39
-9.559182 5.923302 0.693414 36
-9.510948 5.931414 0.694678 36
-9.463620 5.937931 0.695930 38
-9.420534 5.945087 0.697053 40
-9.373294 5.951084 0.698300 39
-9.319474 5.952341 0.699781 37
-9.272350 5.957777 0.701024 36
-9.235176 5.969719 0.701914 37
-9.194717 5.979193 0.702920 40
-9.150997 5.986163 0.704040 40
-9.104041 5.990597 0.705276 41
-9.050607 5.990156 0.706742 41
-9.007915 5.995119 0.707848 36
-8.969395 6.000957 0.708826 36
-9.053078 5.862905 0.758220 73
-9.008140 5.864691 0.759227 73
-8.977110 5.881342 0.759791 89
-8.953454 5.901208 0.760158 98
-8.877513 5.884016 0.762019 73
-8.837599 5.891884 0.762849 73
-8.794466 5.897202 0.763771 73
-8.748139 5.899934 0.764784 73
-8.711574 5.909468 0.765516 73
-8.692005 5.929462 0.765772 98
-8.648138 5.935082 0.766695 97
-8.589149 5.927344 0.768073 73
-8.546290 5.931253 0.768983 73
-8.506676 5.937335 0.769799 73
-8.460734 5.938357 0.770799 73
-8.432465 5.949025 0.771317 79
-8.411956 5.969143 0.771574 98
-8.371571 5.975573 0.772392 98
-8.314075 5.964758 0.773745 73
-8.270688 5.968198 0.774652 73
-8.228230 5.970294 0.775548 73
-8.192950 5.976063 0.776250 68
-8.159072 5.986325 0.776875 68
-8.142475 6.006853 0.777023 90
-8.103256 6.010688 0.777821 91
-8.054824 6.006686 0.778893 68
-7.984944 5.984542 0.780604 55
-7.949933 5.989119 0.781297 13
-7.935381 6.049940 0.780964 1
-7.961179 6.106047 0.779826 2
-7.978797 6.159272 0.778888 2
-7.960722 6.180249 0.779038 2
-7.954636 6.211668 0.778823 2
-7.738852 6.057503 0.784975 3
-7.667179 6.029996 0.786756 2
-7.628639 6.031283 0.787534 2
-7.596118 6.037698 0.788129 2
-7.557682 6.038592 0.788904 2
-7.522269 6.041967 0.789586 3
-7.492803 6.050555 0.790086 6
-7.459229 6.051661 0.790752 2
-7.432733 6.062670 0.791160 2
-7.409152 6.076283 0.791475 2
-7.365145 6.070622 0.792422 1
-7.367712 6.108701 0.791923 1
-7.346923 6.124785 0.792146 2
-7.366477 6.179557 0.791106 1
-7.366498 6.214128 0.790692 2
-7.408422 6.291533 0.788934 1
-7.172808 6.097808 0.795901 1
-7.096435 6.129484 0.796999 91
-7.077569 6.148273 0.797130 91
-7.070764 6.177499 0.796896 91
-7.059132 6.200134 0.796834 93
-7.046494 6.223635 0.796779 93
-7.030060 6.245120 0.796819 93
-7.015377 6.264790 0.796846 93
-6.998772 6.286179 0.796885 93
-6.988499 6.312455 0.796739 91
-6.982707 6.339887 0.796491 91
-6.970311 6.367909 0.796357 91
-6.958829 6.389491 0.796287 91
-6.936306 6.404830 0.796502 85
-6.915631 6.418348 0.796704 71
-6.904715 6.444500 0.796556 68
-6.896353 6.473615 0.796319 68
-6.882517 6.496774 0.796259 68
-6.876544 6.528876 0.795933 68
-6.869434 6.561860 0.795614 68
-6.879907 6.611209 0.794751 90
-6.868130 6.637403 0.794603 91
-6.845780 6.651472 0.794807 91
-6.836402 6.680637 0.794569 91
-6.838246 6.721138 0.793973 91
-6.820797 6.741184 0.794000 54
-6.820253 6.783469 0.793415 54
-6.824060 6.827203 0.792731 46
-6.831702 6.878037 0.791877 37
-6.832937 6.923666 0.791206 22
-6.843571 6.976978 0.790260 14
-6.852851 7.031279 0.789320 11
-6.849281 7.070135 0.788820 10
-6.857975 7.124665 0.787882 3
-6.878769 7.194999 0.786506 1
-6.898846 7.260686 0.785207 1
-6.911421 7.321990 0.784096 3
-6.918722 7.377139 0.783161 3
-6.930581 7.438751 0.782052 3
-9.837461 11.362732 0.675710 35
-9.781357 11.360061 0.676667 35
-9.721151 11.355286 0.677718 35
-9.675389 11.369474 0.678244 35
-9.627248 11.380251 0.678855 33
-9.569673 11.377915 0.679813 37
-9.516911 11.381772 0.680595 39
-9.454852 11.372418 0.681722 35
-9.402269 11.375760 0.682500 33
-9.353886 11.380831 0.683180 35
-9.306043 11.390243 0.683781 30
-9.258224 11.399447 0.684380 37
-9.203579 11.398599 0.685237 39
-9.153574 11.404076 0.685919 33
-9.105881 11.412629 0.686513 33
-9.051466 11.411057 0.687364 36
-8.997149 11.409234 0.688214 29
-8.949612 11.417124 0.688803 31
-8.902499 11.429350 0.689311 26
-8.861241 11.442301 0.689716 29
-8.809381 11.442911 0.690472 31
-8.761959 11.449991 0.691054 36
-8.708067 11.446788 0.691893 29
-8.654281 11.443336 0.692730 33
-8.609180 11.453136 0.693220 31
-8.557694 11.452602 0.693968 35
-8.512362 11.457473 0.694534 31
-8.465524 11.467826 0.695027 33
-8.416333 11.470040 0.695683 33
-8.373208 11.477744 0.696159 38
-8.322048 11.476131 0.696898 35
-8.275103 11.481142 0.697464 35
-8.222049 11.475653 0.698285 33
-8.175225 11.480243 0.698847 33
-8.128446 11.484633 0.699408 38
-8.085741 11.495736 0.699796 35
-8.039029 11.499744 0.700353 35
-7.992363 11.503555 0.700910 35
-7.949560 11.509599 0.701372 36
-7.903109 11.517549 0.701846 36
-7.856564 11.520782 0.702398 43
-7.812011 11.527314 0.702862 38
-7.765464 11.525645 0.703490 33
-7.717154 11.524789 0.704122 38
-7.674638 11.534271 0.704497 33
-7.630232 11.540063 0.704956 33
-7.583975 11.542144 0.705498 32
-7.539641 11.547566 0.705954 32
-7.499051 11.559893 0.706238 35
-7.452910 11.561418 0.706776 35
-7.412335 11.568909 0.707137 34
-7.366285 11.570069 0.707672 40
-7.313027 11.561270 0.708466 35
-7.268976 11.561092 0.708992 34
-7.226768 11.564320 0.709433 40
-7.180905 11.569205 0.709882 35
-7.135168 11.569402 0.710410 43
-7.087847 11.561316 0.711100 50
-7.049191 11.575546 0.711286 42
-7.005208 11.583295 0.711645 40
-6.959674 11.582757 0.712167 55
-6.920982 11.596520 0.712349 37
-6.877378 11.594771 0.712863 48
-6.837182 11.600118 0.713207 47
-6.793494 11.602518 0.713639 53
-6.749849 11.604743 0.714069 50
-6.702542 11.608449 0.714507 37
-6.655747 11.602994 0.715103 43
-6.614357 11.599381 0.715605 43
-6.570669 11.605364 0.715950 35
-6.528854 11.610371 0.716289 34
-6.491762 11.626253 0.716374 30
-6.445287 11.619898 0.716963 37
-6.406936 11.627333 0.717210 40
-6.361811 11.628777 0.717632 43
-6.325339 11.635152 0.717873 35
-6.283295 11.643667 0.718124 37
-6.235285 11.637173 0.718710 37
-6.192193 11.637165 0.719123 43
-6.153546 11.648150 0.719282 35
-6.112786 11.642640 0.719769 37
-6.072284 11.654057 0.719930 40
-6.029339 11.653399 0.720337 39
-5.986897 11.648129 0.720824 35
-5.946414 11.659069 0.720981 37
-5.906858 11.660976 0.721297 37
-5.865471 11.663420 0.721616 32
-5.822754 11.661944 0.722017 34
-5.782791 11.667831 0.722249 35
-5.739635 11.670460 0.722567 39
-5.701017 11.679811 0.722713 37
-5.662939 11.684599 0.722938 34
-5.621707 11.686108 0.723249 46
-5.579812 11.679251 0.723724 51
-5.536138 11.672858 0.724200 70
-5.500734 11.697283 0.724008 100
-5.454649 11.682967 0.724649 79
-5.414259 11.679274 0.725034 79
-5.378150 11.695075 0.725004 37
-5.339567 11.703126 0.725139 28
-5.299779 11.707220 0.725357 31
-5.258827 11.707345 0.725657 33
-5.217915 11.707314 0.725955 27
-5.175894 11.703299 0.726337 27
-5.138083 11.706235 0.726547 34
-5.098039 11.701363 0.726924 46
-5.059877 11.716632 0.726886 34
-5.020230 11.719695 0.727096 37
-4.980599 11.722611 0.727304 39
-4.940985 11.725382 0.727511 43
-4.903262 11.727492 0.727715 28
-4.863895 11.738207 0.727755 36
-4.824967 11.727956 0.728205 34
-4.783724 11.738875 0.728244 64
-4.744189 11.740923 0.728445 100
-4.710407 11.749616 0.728475 91
-4.667131 11.752338 0.728677 57
-4.626668 11.750076 0.728959 40
-4.591909 11.754515 0.729069 40
-4.548696 11.756763 0.729267 30
-4.509263 11.757950 0.729461 28
-4.473548 11.766343 0.729487 34
-4.434224 11.759027 0.729844 24
-4.393864 11.764121 0.729953 28
-4.357984 11.780358 0.729810 27
-4.321514 11.776117 0.730079 27
-4.283857 11.784293 0.730100 24
-4.239095 11.777484 0.730455 27
-4.199808 11.777542 0.730641 27
-4.166942 11.808804 0.730159 25
-4.090356 12.011569 0.726376 1
-3.915989 11.710667 0.733236 28
-3.877858 11.713490 0.733329 28
-3.842295 11.719790 0.733337 24
-3.809578 11.753884 0.732762 22
-3.801937 11.949893 0.728775 4
-3.779884 12.042752 0.726950 12
-3.736848 12.021399 0.727537 19
-3.684693 11.928471 0.729620 15
-3.625738 11.812187 0.732202 27
-3.592825 11.837423 0.731787 42
-3.552051 11.823272 0.732202 28
-3.515369 11.836679 0.732035 28
-3.477506 11.842042 0.732033 28
-3.439624 11.847271 0.732029 27
-3.400671 11.844440 0.732191 27
-3.362269 11.845436 0.732269 27
-3.327666 11.845819 0.732346 31
-3.285496 11.847019 0.732421 27
-3.247598 11.851579 0.732412 28
-3.212495 11.863733 0.732236 27
-3.175993 11.863852 0.732309 30
-3.137606 11.864053 0.732380 27
-3.098816 11.860142 0.732533 30
-3.060873 11.864050 0.732519 27
-3.021406 11.871990 0.732419 25
-2.982674 11.867665 0.732569 27
-2.948141 11.866840 0.732637 31
-2.909480 11.862254 0.732784 45
-2.869730 11.889730 0.732263 25
-2.834850 11.884562 0.732411 27
-2.792716 11.883851 0.732470 33
-2.758495 11.886413 0.732449 43
-2.718560 11.889265 0.732424 27
-2.682420 11.891720 0.732400 37
-2.644119 11.890182 0.732457 28
-2.606311 11.896495 0.732346 31
-2.568244 11.898684 0.732317 34
-2.531864 11.896646 0.732373 27
-2.492088 11.902662 0.732257 27
-2.456086 11.908360 0.732143 37
-2.417979 11.910025 0.732110 28
-2.380020 11.915552 0.731993 28
-2.339564 11.905027 0.732206 33
-2.303500 11.910222 0.732089 40
-2.265498 11.915351 0.731968 48
-2.225753 11.928391 0.731677 34
-2.189486 11.929211 0.731640 36
-2.151167 11.921947 0.731766 40
-2.113070 11.926545 0.731641 43
-2.075028 11.939009 0.731347 31
-2.038669 11.931331 0.731473 37
-1.998574 11.931544 0.731425 43
-1.960389 11.935611 0.731296 36
-1.922162 11.943542 0.731081 36
-1.883935 11.943343 0.731033 40
-1.847620 11.943029 0.730986 42
-1.809451 11.938571 0.731019 40
-1.769332 11.937944 0.730965 40
-1.733035 11.937251 0.730915 43
-1.694347 11.956381 0.730443 31
-1.655966 11.959384 0.730304 36
-1.618060 11.946263 0.730499 45
-1.579409 11.956992 0.730191 31
-1.541290 11.951600 0.730217 45
-1.502871 11.954066 0.730074 49
-1.464790 11.948407 0.730097 48
-1.429794 11.958780 0.729790 31
-1.387690 11.956662 0.729721 36
-1.348753 11.966576 0.729406 36
-1.310686 11.960382 0.729425 51
-1.275734 11.966270 0.729198 39
-1.236906 11.971795 0.728963 40
-1.198585 11.969203 0.728895 45
-1.159692 11.974455 0.728658 34
-1.120753 11.979568 0.728420 48
-1.079850 11.984390 0.728176 55
-1.042406 11.993366 0.727855 49
-1.004703 11.982127 0.727950 52
-0.967187 11.990847 0.727626 39
-0.925759 11.999078 0.727294 48
-0.889265 11.995586 0.727221 42
-0.848857 12.011676 0.726722 40
-0.811644 11.995797 0.726895 45
-0.770669 12.015576 0.726309 40
-0.731312 12.019306 0.726059 45
-0.692371 12.018922 0.725892 49
-0.652948 12.022372 0.725639 40
-0.615423 12.009802 0.725723 45
-0.574980 12.020913 0.725299 40
-0.534955 12.027908 0.724958 34
-0.493464 12.030540 0.724697 40
-0.458793 12.025877 0.724616 43
-0.418077 12.036411 0.724187 40
-0.377835 12.042837 0.723842 31
-0.338691 12.041203 0.723664 34
-0.298944 12.043385 0.723401 34
-0.257947 12.053329 0.722967 31
-0.221212 12.035468 0.723124 42
-0.182040 12.033278 0.722942 45
-0.140263 12.046735 0.722420 43
-0.100361 12.048202 0.722150 49
-0.057041 12.069232 0.721455 40
-0.022389 12.051043 0.721613 42
0.018312 12.056021 0.721255 43
0.059790 12.064784 0.720811 45
0.102084 12.077324 0.720280 43
0.141510 12.073986 0.720088 42
0.180938 12.070509 0.719895 45
0.219595 12.062967 0.719786 48
0.261369 12.070975 0.719335 33
0.301627 12.070990 0.719053 40
0.342725 12.074774 0.718685 35
0.380569 12.062755 0.718657 39
0.423401 12.074065 0.718115 35
0.462697 12.077820 0.717749 40
0.503777 12.089245 0.717211 37
0.541790 12.068437 0.717343 47
0.583264 12.063089 0.717132 48
0.621661 12.070623 0.716681 39
0.665934 12.076652 0.716211 42
0.707416 12.079082 0.715831 56
0.751792 12.093012 0.715193 56
0.792449 12.091241 0.714896 61
0.832165 12.093687 0.714518 43
0.876792 12.098877 0.714041 40
0.918618 12.108765 0.713489 47
0.957404 12.098648 0.713359 45
1.001301 12.107718 0.712798 47
1.042168 12.105034 0.712493 45
1.087105 12.109383 0.712008 45
1.127163 12.110777 0.711622 37
1.171144 12.110934 0.711220 37
1.210442 12.116426 0.710752 34
1.253132 12.104170 0.710599 34
1.298644 12.115912 0.709942 42
1.339727 12.112137 0.709628 43
1.383840 12.132358 0.708809 35
1.424648 12.120027 0.708658 45
1.467000 12.119609 0.708254 52
1.509828 12.127274 0.707682 53
1.557837 12.137362 0.707008 47
1.598909 12.145305 0.706441 37
1.640477 12.127751 0.706363 14
-0.279899 6.065915 0.844005 4
-0.301560 5.942464 0.846626 5
-0.300113 5.895560 0.847519 2
-0.297696 5.844043 0.848490 4
-0.285537 5.827167 0.848686 5
-0.275272 5.802420 0.849052 2
-0.263084 5.679222 0.851285 26
-0.265964 5.620691 0.852437 45
-0.253170 5.603199 0.852627 44
-0.250486 5.563799 0.853348 53
-0.244426 5.531617 0.853891 49
-0.242849 5.488240 0.854697 68
-0.235138 5.463864 0.855070 29
-0.230374 5.427703 0.855698 40
-0.220759 5.406755 0.855980 32
-0.217181 5.370930 0.856613 46
-0.210850 5.342556 0.857071 45
-0.205450 5.314497 0.857532 57
-0.200984 5.282444 0.858078 68
-0.196720 5.250412 0.858625 68
-0.194200 5.214713 0.859260 68
-0.188797 5.186418 0.859719 83
-0.163188 5.205961 0.859034 13
-0.164293 5.162930 0.859846 5
-0.162489 5.127293 0.860482 4
-0.153600 5.110322 0.860681 4
-0.154510 5.071394 0.861410 6
-0.145169 5.054112 0.861606 11
-0.145084 5.014624 0.862329 10
-0.139333 4.990065 0.862703 10
-0.128724 4.976418 0.862810 10
-0.126597 4.944604 0.863361 14
-0.108414 4.949370 0.863029 23
-0.083576 4.928798 0.863063 7
-0.052640 4.922798 0.862743 11
-0.044883 4.905674 0.862942 14
-0.034088 4.891457 0.863045 5
-0.020062 4.888968 0.862891 6
-0.012289 4.867196 0.863169 1
0.035573 4.928149 0.861399 1
0.086140 4.960687 0.860092 3
0.077854 4.910940 0.861090 4
0.072959 4.868383 0.861911 2
0.052177 4.797977 0.863453 8
0.047304 4.755288 0.864272 9
0.062325 4.751780 0.864109 5
0.083064 4.758760 0.863675 5
0.094286 4.748096 0.863691 1
0.107389 4.740903 0.863616 2
0.145246 4.747310 0.862924 12
0.176701 4.743319 0.862503 20
0.189133 4.736212 0.862430 20
0.208854 4.738694 0.862077 16
0.223937 4.734555 0.861908 16
0.243072 4.737251 0.861558 15
0.263636 4.743687 0.861120 15
0.274671 4.732468 0.861131 15
0.294558 4.734530 0.860775 13
0.307612 4.726637 0.860694 13
0.328984 4.732345 0.860249 11
0.348326 4.734544 0.859894 11
0.360727 4.726869 0.859816 11
0.375875 4.722135 0.859643 9
0.399553 4.730870 0.859103 9
0.419028 4.732735 0.858746 10
0.440703 4.737877 0.858296 9
0.450082 4.722334 0.858390 10
0.477705 4.737787 0.857668 9
0.495153 4.735944 0.857399 8
0.516371 4.741131 0.856950 9
0.536746 4.742017 0.856584 7
0.555850 4.743682 0.856225 7
0.573410 4.741505 0.855953 7
0.590985 4.739252 0.855680 7
0.610837 4.740219 0.855315 7
0.630726 4.741093 0.854948 7
0.646085 4.735310 0.854766 6
0.666026 4.736013 0.854398 5
0.686003 4.736623 0.854030 5
0.706016 4.737139 0.853660 5
0.733054 4.747312 0.853013 5
0.743809 4.734646 0.853012 5
0.768621 4.741354 0.852455 5
0.795877 4.751161 0.851804 5
0.817828 4.754873 0.851342 5
0.845920 4.763921 0.850684 5
0.860155 4.758288 0.850504 5
0.893206 4.773469 0.849657 4
0.912989 4.773541 0.849284 4
0.934123 4.772513 0.848901 4
0.957069 4.775057 0.848428 4
0.976956 4.774841 0.848053 5
1.004921 4.783470 0.847391 6
1.025562 4.782524 0.847009 6
1.051864 4.787220 0.846434 4
1.086894 4.805335 0.845492 4
1.105202 4.800908 0.845201 4
1.133586 4.808829 0.844533 5
1.160200 4.812954 0.843953 5
1.186219 4.817485 0.843376 4
1.210969 4.822988 0.842809 4
1.229445 4.818040 0.842513 3
1.255636 4.822200 0.841934 4
1.284477 4.829278 0.841258 3
1.314747 4.835058 0.840570 4
1.345024 4.846004 0.839809 4
1.368912 4.846553 0.839319 4
1.398764 4.852431 0.838632 3
1.424720 4.856316 0.838050 3
1.448770 4.856475 0.837557 3
1.472861 4.856514 0.837062 2
1.502325 4.862394 0.836376 2
1.531872 4.868115 0.835689 3
1.558815 4.870714 0.835096 2
1.599300 4.887938 0.834024 2
1.629802 4.892524 0.833326 2
1.651550 4.888770 0.832919 2
1.686955 4.899533 0.832034 2
1.711527 4.898437 0.831529 2
1.738202 4.900767 0.830934 2
1.771130 4.908105 0.830139 2
1.793766 4.903061 0.829721 2
1.837959 4.921570 0.828539 2
1.878162 4.938293 0.827463 2
1.905903 4.939158 0.826855 2
1.936504 4.942727 0.826148 2
1.995093 4.946537 0.824828 1
2.026588 4.948920 0.824111 2
2.059617 4.955337 0.823309 2
2.104852 4.972064 0.822110 2
2.135921 4.974580 0.821395 2
2.167056 4.976929 0.820678 2
2.206914 4.987412 0.819668 2
2.235315 4.986634 0.819045 2
2.269570 4.991202 0.818226 1
2.312651 5.003792 0.817113 2
2.347100 5.007948 0.816291 1
2.386793 5.018105 0.815278 1
2.424363 5.024569 0.814354 1
2.456127 5.025425 0.813624 2
2.499795 5.036857 0.812501 2
2.543596 5.048033 0.811376 2
2.581569 5.053618 0.810444 2
2.622626 5.061645 0.809412 1
2.660794 5.066788 0.808477 2
2.693038 5.066444 0.807737 2
2.731370 5.071173 0.806798 2
2.775844 5.080912 0.805660 2
2.841688 5.108614 0.803828 1
2.874296 5.107385 0.803080 1
2.913061 5.111142 0.802133 1
2.964159 5.124965 0.800787 2
3.012341 5.135920 0.799538 2
3.066820 5.151689 0.798088 2
3.148405 5.159478 0.796074 1
3.209523 5.179385 0.794417 1
3.260029 5.193219 0.793073 1
3.302774 5.197445 0.792008 1
3.345611 5.201423 0.790941 2
3.382259 5.200203 0.790071 2
3.434708 5.211100 0.788700 2
3.484879 5.218277 0.787418 2
3.533695 5.227061 0.786150 1
3.584111 5.233633 0.784863 1
3.636348 5.244264 0.783490 1
3.699035 5.260835 0.781803 1
3.771506 5.284213 0.779812 1
3.863460 5.321455 0.777212 1
3.981476 5.377110 0.773801 2
14.039690 12.717899 0.459366 6
14.289702 12.727671 0.453090 20
14.415051 12.731460 0.449942 20
14.524334 12.722922 0.447295 17
14.676211 12.743760 0.443324 14
14.785873 12.733832 0.440665 21
14.918641 12.739273 0.437289 18
15.041780 12.737110 0.434212 10
15.168406 12.736491 0.431026 18
15.355984 12.780904 0.425925 15
15.483158 12.778604 0.422725 15
15.597243 12.766647 0.419928 11
15.734756 12.769549 0.416409 16
15.952574 12.824536 0.410427 20
16.104109 12.834292 0.406481 20
16.252577 12.840953 0.402631 17
16.428183 12.864074 0.397951 13
16.540203 12.845120 0.395215 13
16.736670 12.879171 0.389902 13
16.882872 12.879986 0.386122 13
17.049641 12.892655 0.381717 13
17.196348 12.891644 0.377922 13
17.387527 12.917030 0.372777 14
17.510893 12.899497 0.369689 14
17.630951 12.879172 0.366700 14
17.820963 12.904922 0.361559 15
17.982552 12.907593 0.357310 15
18.180876 12.926158 0.351984 15
18.351301 12.936337 0.347437 15
18.589724 12.980228 0.340873 10
18.835615 13.026606 0.334087 16
18.832405 12.928060 0.334796 16
18.849607 12.841555 0.334880 16
18.859499 12.751143 0.335173 16
18.900406 12.678397 0.334526 16
13.581504 9.556142 0.494849 5
13.531925 9.388357 0.497140 5
13.518868 9.311508 0.497922 8
13.508994 9.236734 0.498601 8
13.509392 9.167737 0.498966 8
13.495330 9.091412 0.499753 11
13.495117 9.022661 0.500120 16
13.487504 8.950347 0.500700 19
13.497378 8.887280 0.500752 19
13.492733 8.817015 0.501229 22
13.516990 8.697391 0.501149 35
13.522271 8.632699 0.501310 46
13.530883 8.569822 0.501366 57
13.557233 8.515703 0.500889 90
13.565374 8.452830 0.500946 82
13.580486 8.393432 0.500789 100
13.591758 8.332312 0.500739 52
13.606413 8.272898 0.500583 73
13.635353 8.220198 0.499999 104
13.678650 8.174062 0.498986 100
13.753910 8.076216 0.497277 5
14.029670 8.066672 0.489647 2
14.127501 8.042925 0.487005 5
14.247368 8.028135 0.483712 5
14.427309 8.045175 0.478628 2
14.600179 8.047772 0.473783 2
14.946614 8.059840 0.464033 3
15.166974 8.081859 0.457777 3
15.337133 8.078168 0.453001 3
15.535899 8.088400 0.447373 3
15.763385 8.112346 0.440891 3
15.952840 8.112342 0.435540 3
16.152451 8.118597 0.429878 3
16.359772 8.126447 0.423987 3
16.577312 8.140486 0.417785 3
16.782698 8.140911 0.411952 3
16.998308 8.147470 0.405808 3
17.255394 8.168001 0.398448 3
17.565357 8.206230 0.389539 3
17.774424 8.205308 0.383574 3
32.119648 13.322261 -0.035216 15
33.130493 13.404819 -0.064283 16
34.523064 13.625905 -0.104550 17
33.628777 13.177217 -0.078279 16
35.491196 13.661833 -0.132435 18
35.616398 13.565488 -0.135939 18
36.030453 13.549420 -0.147864 19
36.252663 13.475097 -0.154214 19
36.337833 13.355147 -0.156582 20
37.653038 13.627277 -0.194823 23
23.727922 9.086236 0.211188 7
23.694921 8.977502 0.212198 7
23.656836 8.774788 0.213375 6
23.639214 8.667062 0.213909 6
23.600657 8.558359 0.215043 6
23.603870 8.462358 0.214949 6
23.607992 8.376462 0.214822 6
23.647678 8.281518 0.213645 6
23.663998 8.194396 0.213143 6
23.677408 8.101701 0.212716 6
23.615988 7.993413 0.214462 6
23.730249 7.923588 0.211074 6
23.783989 7.846591 0.209445 6
23.805056 7.751173 0.208753 6
23.843962 7.665200 0.207535 6
23.877556 7.582560 0.206467 6
23.935287 7.501105 0.204681 6
24.453472 7.538352 0.189458 7
27.253613 7.795699 0.107158 8
36.924770 7.109859 -0.182930 18
36.761166 6.938763 -0.178665 18
36.575043 6.779436 -0.173693 18
36.417942 6.612080 -0.169638 18
31.648865 2.148524 -0.050314 12
19.440386 -0.133710 0.300913 4
16.957239 -0.933491 0.367671 3
16.447187 -1.005061 0.382253 3
16.472494 -1.138104 0.379967 3
16.484787 -1.204795 0.378823 6
16.496840 -1.271597 0.377679 6
-17.158001 1.046523 0.536725 2
-41.368938 1.542385 -0.134341 18
-40.963020 1.672866 -0.122014 18
-41.060226 1.817921 -0.123614 18
-41.057129 1.954392 -0.122498 18
-40.714008 2.074521 -0.112041 18
-40.853893 2.214311 -0.114912 18
-40.749512 2.346566 -0.111046 18
-40.744572 2.481949 -0.109941 18
-40.639282 2.613123 -0.106085 17
-40.493610 2.741764 -0.101135 17
-40.359493 2.869995 -0.096523 17
-40.220959 2.997102 -0.091809 17
-24.719822 2.263614 0.334852 4
-24.331305 2.398594 0.346539 37
-23.807203 2.672112 0.362805 4
-23.476831 2.790289 0.372680 49
-23.382797 2.857741 0.375678 66
-23.252716 2.921307 0.379648 60
-23.134398 2.985113 0.383285 64
-23.003954 3.046950 0.387240 58
-22.865383 3.107094 0.391405 65
-22.750509 3.168797 0.394912 63
-22.615583 3.227571 0.398953 63
-22.500772 3.284068 0.402418 65
-22.369514 3.341562 0.406337 58
-22.245630 3.402651 0.410061 66
-22.137878 3.461289 0.413320 59
-22.014097 3.517205 0.417002 57
-21.893686 3.576280 0.420598 57
-21.689919 3.683002 0.426693 6
-21.601215 3.740760 0.429386 9
-21.504435 3.796794 0.432288 6
-21.362991 3.852555 0.436412 6
-21.103983 4.012637 0.444158 100
-21.057804 4.073703 0.445650 100
-21.027212 4.137087 0.446715 100
-21.008240 4.202291 0.447459 100
-20.985106 4.266722 0.448308 100
-20.973566 4.333107 0.448839 100
-20.961796 4.399452 0.449369 100
-20.962200 4.464599 0.449554 40
-21.098673 4.835858 0.446832 55
-21.124323 4.910651 0.446313 55
-21.157511 4.987300 0.445586 68
-21.209957 5.068372 0.444337 65
-21.242525 5.145647 0.443614 65
-35.364574 8.795388 0.066537 26
-35.029797 8.838987 0.075679 25
-34.695126 8.880345 0.084802 25
-34.341148 8.914710 0.094426 24
-34.014503 8.953450 0.103305 23
-33.695736 8.991962 0.111959 34
-33.369350 9.026365 0.120803 33
-33.050850 9.060596 0.129422 21
-32.740234 9.094740 0.137817 21
-32.429760 9.126815 0.146196 20
-32.142597 9.163092 0.153939 20
-31.832420 9.191113 0.162284 19
-31.537828 9.221357 0.170202 19
-31.239542 9.248561 0.178206 18
-30.958254 9.273118 0.185744 17
-30.691042 9.305359 0.192897 17
-30.425415 9.330870 0.199996 17
-30.146978 9.356218 0.207428 16
-29.868715 9.379725 0.214845 24
-29.612116 9.413206 0.221671 24
-29.364765 9.442495 0.228242 24
-19.079922 6.332553 0.502841 2
-18.968733 6.366336 0.505775 2
-18.622667 6.385166 0.514932 5
-18.208927 6.439822 0.525813 2
-18.102724 6.466955 0.528583 2
-17.864153 6.447984 0.534885 2
-17.848795 6.504774 0.535215 2
-21.659918 7.974275 0.433117 11
-17.259077 6.540590 0.550615 2
-17.164537 6.566418 0.553038 2
-16.987516 6.561075 0.557666 2
-16.945524 6.605075 0.558673 2
-16.778217 6.595530 0.563045 2
-16.742645 6.644086 0.563866 2
-16.496288 6.605177 0.570344 2
-16.498962 6.664605 0.570136 2
-16.300518 6.644906 0.575318 2
-16.157127 6.648568 0.579013 2
-16.077950 6.674191 0.580988 2
-15.920979 6.667696 0.585049 2
-15.865094 6.698772 0.586399 2
-15.609996 6.708504 0.592916 2
-15.575232 6.749881 0.593679 4
-15.398931 6.725132 0.598264 4
-15.278686 6.731606 0.601312 4
-15.214575 6.758908 0.602854 4
-15.118496 6.769060 0.605264 2
-15.047075 6.792263 0.606996 2
-15.000185 6.828749 0.608053 2
-14.962540 6.863725 0.608875 2
-14.938330 6.907415 0.609320 2
-14.899443 6.944320 0.610158 2
-11.804372 5.605700 0.693492 1
-11.695031 5.593869 0.696287 3
-11.709507 5.684267 0.695533 12
-11.495243 5.622165 0.701162 2
-11.425163 5.629021 0.702878 2
-11.359547 5.635576 0.704481 2
-11.303916 5.648729 0.705801 4
-11.259026 5.666941 0.706826 5
-11.174894 5.664995 0.708918 2
-11.105130 5.669806 0.710618 11
-11.046105 5.679688 0.712024 4
-11.026141 5.709528 0.712360 2
-10.991917 5.731850 0.713083 1
-10.862227 5.703468 0.716416 2
-10.728892 5.749102 0.719420 91
-10.673647 5.758564 0.720710 71
-10.625445 5.771561 0.721805 76
-10.573765 5.782336 0.722994 91
-10.511652 5.786941 0.724469 91
-10.439170 5.785264 0.726228 67
-10.395435 5.797513 0.727206 91
-10.336163 5.804483 0.728588 91
-10.276013 5.804725 0.730029 91
-10.222943 5.816450 0.731224 91
-10.164701 5.820914 0.732586 72
-10.116846 5.831154 0.733658 91
-10.060415 5.832133 0.734994 91
-10.001523 5.837016 0.736358 91
-9.957220 5.848444 0.737329 91
-9.910376 5.856147 0.738382 91
-9.844851 5.855852 0.739929 82
-9.783681 5.855888 0.741367 82
-9.742937 5.868300 0.742234 82
-9.695440 5.876215 0.743288 85
-9.664850 5.894596 0.743867 100
-9.592177 5.882091 0.745654 82
-9.727012 5.805222 0.796357 55
-9.669460 5.806872 0.797417 56
-9.625529 5.816704 0.798189 56
-9.564740 5.815575 0.799315 51
-9.517530 5.822698 0.800153 55
-9.473725 5.831717 0.800918 57
-9.426596 5.838312 0.801752 61
-9.376164 5.842447 0.802655 61
-9.323304 5.842803 0.803617 59
-9.278824 5.852052 0.804383 48
-9.235224 5.859771 0.805137 53
-9.191660 5.867245 0.805890 54
-9.141517 5.869979 0.806782 57
-9.094744 5.874682 0.807601 55
-9.042293 5.873340 0.808549 52
-9.006354 5.883111 0.809144 52
-8.958888 5.888264 0.809966 56
-8.926267 5.899924 0.810487 56
-8.865842 5.895314 0.811585 58
-8.822662 5.900770 0.812321 59
-8.786876 5.909470 0.812907 55
-8.746152 5.918007 0.813579 50
-8.703951 5.921596 0.814301 52
-8.664159 5.928502 0.814961 55
-8.621190 5.932806 0.815688 57
-8.581477 5.939266 0.816344 56
-8.533078 5.937144 0.817198 54
-8.492600 5.944284 0.817858 52
-8.456203 5.952488 0.818439 51
-8.417524 5.956933 0.819080 55
-8.383475 5.968317 0.819597 57
-8.347147 5.975942 0.820174 57
-8.307701 5.980901 0.820817 58
-8.259762 5.977098 0.821658 56
-8.220430 5.981604 0.822298 55
-8.184263 5.988400 0.822868 49
-8.148124 5.995005 0.823437 51
-8.118217 6.006470 0.823866 51
-8.072845 6.005104 0.824637 51
-8.030642 6.006030 0.825338 35
-7.970934 5.990324 0.826439 28
-7.942059 5.999956 0.826855 7
-7.922187 6.054540 0.826813 1
-7.937906 6.103919 0.826214 1
-7.953353 6.153468 0.825615 2
-7.947381 6.184840 0.825493 2
-7.945187 6.217820 0.825296 2
-7.923903 6.236037 0.825512 2
-7.707973 6.081792 0.830125 1
-7.644516 6.062880 0.831288 2
-7.602096 6.062288 0.831976 2
-7.564491 6.062183 0.832580 2
-7.531976 6.068244 0.833056 2
-7.493595 6.068732 0.833664 2
-7.464976 6.076196 0.834063 1
-7.447193 6.095380 0.834198 1
-7.422612 6.109986 0.834474 0
-7.405608 6.128071 0.834602 1
-7.401238 6.161772 0.834408 1
-7.414938 6.211152 0.833806 1
-7.423519 6.254187 0.833332 2
-7.571597 6.434757 0.829597 1
-7.203562 6.113316 0.837863 0
-7.140037 6.086706 0.839056 1
-7.107045 6.159613 0.838962 68
-7.091784 6.180390 0.839021 69
-7.079243 6.203979 0.839013 69
-7.062894 6.225570 0.839077 69
-7.051073 6.248208 0.839062 69
-7.029919 6.263063 0.839251 68
-7.017010 6.286513 0.839242 68
-6.998495 6.304132 0.839364 66
-6.986333 6.326632 0.839347 64
-6.973142 6.349986 0.839337 62
-6.961631 6.377116 0.839266 57
-6.943743 6.393671 0.839380 57
-6.932958 6.419882 0.839303 59
-6.921099 6.446949 0.839231 60
-6.908340 6.469306 0.839213 62
-6.897199 6.495477 0.839135 59
-6.888594 6.524624 0.838991 63
-6.882496 6.556773 0.838782 64
-6.878871 6.591953 0.838508 63
-6.878674 6.629332 0.838163 64
-6.865188 6.651656 0.838143 72
-6.845399 6.668743 0.838259 81
-6.828149 6.688801 0.838310 78
-6.827926 6.731008 0.837911 63
-6.831044 6.775500 0.837443 53
-6.834928 6.819232 0.836969 48
-6.829885 6.854674 0.836695 44
-6.834830 6.902494 0.836163 44
-6.844568 6.956610 0.835502 46
-6.848942 7.004659 0.834971 41
-6.858063 7.059034 0.834311 38
-6.854360 7.097941 0.833975 33
-6.867874 7.158804 0.833188 34
-6.877151 7.212701 0.832524 32
-6.882559 7.264439 0.831932 31
-6.895040 7.325756 0.831147 28
-6.897365 7.374581 0.830620 31
-6.914022 7.442533 0.829709 30
-6.918143 7.494774 0.829119 16
-9.822870 11.380615 0.751668 28
-9.762537 11.376020 0.752487 38
-9.707114 11.377542 0.753176 42
-9.654721 11.386578 0.753744 38
-9.603629 11.389477 0.754357 33
-9.548429 11.390245 0.755040 38
-9.498011 11.397234 0.755595 38
-9.438295 11.391009 0.756401 35
-9.390334 11.400771 0.756888 33
-9.349331 11.420115 0.757183 27
-9.292179 11.416400 0.757920 29
-9.243832 11.420980 0.758457 38
-9.185059 11.418017 0.759198 42
-9.135024 11.423400 0.759739 36
-9.086861 11.427316 0.760271 31
-9.034684 11.428952 0.760872 33
-8.984817 11.433671 0.761408 29
-8.937222 11.441495 0.761879 29
-8.885241 11.442446 0.762475 27
-8.839931 11.453187 0.762880 27
-8.794629 11.463739 0.763283 31
-8.740643 11.460674 0.763937 33
-8.686761 11.457361 0.764588 27
-8.636961 11.456006 0.765168 31
-8.587871 11.463509 0.765635 31
-8.542769 11.473030 0.766030 31
-8.495568 11.478971 0.766486 31
-8.450237 11.483577 0.766934 29
-8.398932 11.482305 0.767512 31
-8.349794 11.484219 0.768026 36
-8.300722 11.485917 0.768538 34
-8.251716 11.487402 0.769049 31
-8.204821 11.492110 0.769496 31
-8.151874 11.486285 0.770128 42
-8.109143 11.497478 0.770446 40
-8.066237 11.503976 0.770819 40
-8.025513 11.518293 0.771073 36
-7.976972 11.523088 0.771519 29
-7.928210 11.518626 0.772074 34
-7.885426 11.524415 0.772441 40
-7.838991 11.532087 0.772820 38
-7.790548 11.531545 0.773314 40
-7.744020 11.529782 0.773801 36
-7.699553 11.535855 0.774169 40
-7.657072 11.549779 0.774418 29
-7.610749 11.551968 0.774844 31
-7.566356 11.557494 0.775208 32
-7.521975 11.558330 0.775625 36
-7.479500 11.562532 0.775980 38
-7.437053 11.571077 0.776278 38
-7.390960 11.572338 0.776697 34
-7.344892 11.577911 0.777059 38
-7.293456 11.572575 0.777603 36
-7.249399 11.572313 0.778013 34
-7.201780 11.569209 0.778487 40
-7.156010 11.569490 0.778899 40
-7.117305 11.583966 0.779064 40
-7.068134 11.576688 0.779595 38
-7.029553 11.586351 0.779813 38
-6.985550 11.594017 0.780102 40
-6.943561 11.596144 0.780440 40
-6.906514 11.613474 0.780537 40
-6.855826 11.606107 0.781066 40
-6.812097 11.608580 0.781405 40
-6.766760 11.607233 0.781804 40
-6.724982 11.608518 0.782136 40
-6.684644 11.617775 0.782348 40
-6.637852 11.612239 0.782804 40
-6.597809 11.616694 0.783071 38
-6.554076 11.622606 0.783345 38
-6.514076 11.626751 0.783609 31
-6.473802 11.635217 0.783816 31
-6.428880 11.632469 0.784204 35
-6.387103 11.636923 0.784468 37
-6.345013 11.645679 0.784675 35
-6.303270 11.649808 0.784937 33
-6.260419 11.645606 0.785315 35
-6.217268 11.645695 0.785636 37
-6.180444 11.656034 0.785768 35
-6.137359 11.655804 0.786086 33
-6.093910 11.659853 0.786345 37
-6.050919 11.659279 0.786660 35
-6.008424 11.654090 0.787031 35
-5.968369 11.660666 0.787222 33
-5.929709 11.670843 0.787352 30
-5.889647 11.677127 0.787540 30
-5.848223 11.679502 0.787788 30
-5.806830 11.681717 0.788035 31
-5.764129 11.680007 0.788341 35
-5.727336 11.688789 0.788461 35
-5.690526 11.697445 0.788580 31
-5.648659 11.703482 0.788765 33
-5.603513 11.693574 0.789187 33
-5.564859 11.702435 0.789305 35
-5.523663 11.703567 0.789543 35
-5.483122 11.700128 0.789838 37
-5.442615 11.709164 0.789956 48
-5.398493 11.693996 0.790429 58
-5.356274 11.690684 0.790722 63
-5.318234 11.706876 0.790715 56
-5.285049 11.725594 0.790642 33
-5.246391 11.733309 0.790751 24
-5.201220 11.726136 0.791103 24
-5.162176 11.725327 0.791328 28
-5.123559 11.732601 0.791433 31
-5.083055 11.740282 0.791540 31
-5.048497 11.754423 0.791520 26
-5.004068 11.733820 0.792042 31
-4.966828 11.752607 0.791964 28
-4.927122 11.755325 0.792124 24
-4.888263 11.753527 0.792341 29
-4.851522 11.759315 0.792436 24
-4.806922 11.750506 0.792775 31
-4.766462 11.756997 0.792872 28
-4.725881 11.755106 0.793086 29
-4.689275 11.768571 0.793059 29
-4.649647 11.762039 0.793329 43
-4.605348 11.744175 0.793780 73
-4.569682 11.761117 0.793689 40
-4.534884 11.773601 0.793656 28
-4.487118 11.747923 0.794224 36
-4.454963 11.780058 0.793890 26
-4.417397 11.780472 0.794034 26
-4.377974 11.781178 0.794178 28
-4.338412 11.789966 0.794201 28
-4.301744 11.793884 0.794282 21
-4.262355 11.794168 0.794422 22
-4.224879 11.793914 0.794560 26
-4.182047 11.786471 0.794819 35
-4.165277 11.887862 0.793397 28
-4.145159 11.985718 0.792035 24
-4.112896 12.024682 0.791571 18
-4.068354 12.000703 0.792064 16
-3.980436 11.744632 0.796091 26
-3.937816 11.724085 0.796521 28
-3.897496 11.715178 0.796771 31
-3.860530 11.713668 0.796900 28
-3.826513 11.739939 0.796609 22
-3.805189 11.853169 0.794999 14
-3.800025 12.044656 0.792190 11
-3.761432 12.038854 0.792374 13
-3.718451 12.017426 0.792797 14
-3.655928 11.869374 0.795136 28
-3.611323 11.831734 0.795796 29
-3.570993 11.833756 0.795856 29
-3.532564 11.835355 0.795915 31
-3.497157 11.844469 0.795854 28
-3.460064 11.841582 0.795971 29
-3.419755 11.843042 0.796027 31
-3.382387 11.852036 0.795962 28
-3.343457 11.849000 0.796076 29
-3.306042 11.857731 0.796008 26
-3.268104 11.862363 0.796000 26
-3.231119 11.858695 0.796111 22
-3.193179 11.863065 0.796100 21
-3.155660 11.871278 0.796029 26
-3.117676 11.875384 0.796016 29
-3.081168 11.875184 0.796063 28
-3.041666 11.883200 0.795987 24
-3.005161 11.882745 0.796032 29
-2.967874 11.894291 0.795895 28
-2.929456 11.893758 0.795937 35
-2.887454 11.873326 0.796276 40
-2.852996 11.896273 0.795957 31
-2.814927 11.899323 0.795936 26
-2.774645 11.898394 0.795972 26
-2.738188 11.897045 0.796009 33
-2.700117 11.899693 0.795985 35
-2.662293 11.906201 0.795899 35
-2.623947 11.904593 0.795932 36
-2.587526 11.902741 0.795965 35
-2.548175 11.916948 0.795754 28
-2.509433 11.906951 0.795904 31
-2.471702 11.916792 0.795753 29
-2.433563 11.918510 0.795720 31
-2.397486 11.924017 0.795628 31
-2.359031 11.917482 0.795714 33
-2.319114 11.922869 0.795616 33
-2.282746 11.920001 0.795641 35
-2.244909 11.933055 0.795423 35
-2.206895 11.941978 0.795264 35
-2.168670 11.942773 0.795223 36
-2.130256 11.931437 0.795363 42
-2.092116 11.935964 0.795260 42
-2.053982 11.944356 0.795096 36
-2.015709 11.936618 0.795172 36
-1.979428 11.944740 0.795008 38
-1.941188 11.948740 0.794901 33
-1.901050 11.944597 0.794911 36
-1.862711 11.956323 0.794682 33
-1.826450 11.947941 0.794755 36
-1.790118 11.947436 0.794706 36
-1.752105 11.934780 0.794835 38
-1.713638 11.945982 0.794601 33
-1.674986 11.961048 0.794305 31
-1.635021 11.951933 0.794367 36
-1.598414 11.958789 0.794193 35
-1.560571 11.945469 0.794316 35
-1.523454 11.964066 0.793958 31
-1.483589 11.954399 0.794016 33
-1.446491 11.968740 0.793716 31
-1.407775 11.974869 0.793533 29
-1.369655 11.968880 0.793531 35
-1.330426 11.982723 0.793224 33
-1.292065 11.980458 0.793159 35
-1.253711 11.978059 0.793092 36
-1.214825 11.983507 0.792903 33
-1.176745 11.976849 0.792895 36
-1.137510 11.986012 0.792643 42
-1.098201 11.995036 0.792390 38
-1.057878 11.991802 0.792314 31
-1.020385 12.000705 0.792062 26
-0.984590 11.989560 0.792113 29
-0.945105 11.998035 0.791855 31
-0.906311 11.998406 0.791718 33
-0.865922 12.014561 0.791336 33
-0.829087 11.994760 0.791501 42
-0.788573 12.010631 0.791116 43
-0.749244 12.014425 0.790913 35
-0.710775 12.010131 0.790831 38
-0.670928 12.017620 0.790564 38
-0.631014 12.024965 0.790297 33
-0.594925 12.016527 0.790276 33
-0.555440 12.019629 0.790068 33
-0.515396 12.026556 0.789796 33
-0.475288 12.033338 0.789524 35
-0.435115 12.039973 0.789250 35
-0.396558 12.034582 0.789159 35
-0.355149 12.048847 0.788760 29
-0.315975 12.047133 0.788605 33
-0.275588 12.053189 0.788326 30
-0.235755 12.055145 0.788107 30
-0.197777 12.045109 0.788072 33
-0.158561 12.042837 0.787912 35
-0.119299 12.052583 0.787572 33
-0.081961 12.050361 0.787415 37
-0.040074 12.051284 0.787185 37
0.000449 12.044172 0.787077 43
0.039935 12.053352 0.786732 35
0.081435 12.062037 0.786380 39
0.122282 12.066635 0.786089 35
0.162433 12.067155 0.785858 41
0.200314 12.055753 0.785811 46
0.241667 12.072064 0.785336 41
0.281470 12.060000 0.785282 43
0.319775 12.060341 0.785052 41
0.362499 12.071887 0.784629 41
0.401995 12.067623 0.784453 35
0.444034 12.074945 0.784089 31
0.487225 12.077776 0.783780 37
0.524849 12.073502 0.783606 37
0.569895 12.083817 0.783171 33
0.605761 12.071469 0.783118 35
0.648084 12.078018 0.782748 33
0.692419 12.083943 0.782371 35
0.733952 12.086277 0.782060 39
0.774554 12.092815 0.781692 39
0.815227 12.090962 0.781441 61
0.856904 12.092837 0.781126 37
0.896690 12.095055 0.780816 54
0.939387 12.092249 0.780555 41
0.982322 12.105771 0.780055 39
1.025246 12.110883 0.779672 37
1.069133 12.111444 0.779344 37
1.110058 12.108512 0.779084 33
1.154233 12.116985 0.778634 33
1.195471 12.121988 0.778253 35
1.236512 12.118593 0.777989 42
1.277859 12.123293 0.777604 38
1.321216 12.127269 0.777212 36
1.363497 12.127244 0.776881 34
1.407761 12.126472 0.776541 42
1.447007 12.122892 0.776278 38
1.490576 12.126212 0.775880 38
1.537350 12.132570 0.775409 42
1.580327 12.139971 0.774952 40
1.626561 12.150391 0.774423 34
-0.299348 6.039256 0.875720 2
-0.302335 5.968626 0.876726 5
-0.300290 5.917326 0.877420 3
-0.290843 5.888788 0.877732 4
-0.282878 5.856462 0.878109 5
-0.273330 5.831990 0.878362 3
-0.268401 5.792122 0.878866 2
-0.267446 5.689885 0.880260 35
-0.262000 5.653883 0.880702 28
-0.256784 5.617900 0.881145 40
-0.250404 5.585687 0.881524 39
-0.245635 5.549742 0.881968 30
-0.243306 5.510382 0.882480 43
-0.241219 5.471056 0.882992 40
-0.234262 5.442654 0.883309 32
-0.228170 5.410232 0.883687 37
-0.215698 5.396722 0.883747 29
-0.210724 5.364611 0.884129 27
-0.205952 5.332519 0.884511 19
-0.203645 5.297051 0.884962 32
-0.192445 5.279491 0.885083 21
-0.192852 5.236371 0.885661 39
-0.179592 5.226489 0.885657 27
-0.169505 5.209203 0.885782 28
-0.157567 5.156223 0.886356 4
-0.153365 5.128230 0.886680 3
-0.156676 5.081641 0.887325 6
-0.104501 5.119706 0.886271 22
-0.105680 5.080746 0.886790 5
-0.124693 5.001510 0.888025 15
-0.120764 4.973292 0.888347 16
-0.109256 4.963546 0.888346 9
-0.094707 4.956736 0.888272 9
-0.075700 4.925581 0.888458 108
-0.068935 4.904574 0.888650 108
-0.044771 4.919520 0.888185 31
-0.038128 4.898454 0.888376 39
-0.020945 4.898888 0.888173 29
0.087430 5.014516 0.885453 4
0.100337 5.003427 0.885439 3
0.095942 4.960694 0.886024 2
0.093125 4.921587 0.886544 2
0.094971 4.893523 0.886870 6
0.076700 4.826274 0.887923 6
0.109541 4.758536 0.888351 1
0.118151 4.744654 0.888412 2
0.139038 4.751347 0.888070 1
0.194187 4.756935 0.887304 10
0.203980 4.742085 0.887356 10
0.222437 4.745262 0.887080 12
0.237551 4.741071 0.886934 12
0.260141 4.750984 0.886523 10
0.277999 4.749695 0.886304 9
0.290452 4.742252 0.886228 9
0.307672 4.741220 0.886012 8
0.326992 4.743527 0.885729 7
0.346357 4.745745 0.885444 7
0.367869 4.751275 0.885091 6
0.380982 4.743126 0.885008 6
0.396194 4.738318 0.884857 6
0.417822 4.743585 0.884501 6
0.439516 4.748746 0.884145 6
0.459110 4.750438 0.883856 6
0.474395 4.745327 0.883702 6
0.494048 4.746851 0.883411 6
0.515939 4.751625 0.883052 6
0.530607 4.746727 0.882900 5
0.548801 4.744224 0.882672 5
0.561234 4.735883 0.882588 5
0.587760 4.746920 0.882088 5
0.606969 4.748358 0.881797 5
0.627527 4.748808 0.881496 5
0.647467 4.749612 0.881199 5
0.666788 4.750781 0.880906 4
0.684500 4.748130 0.880677 3
0.711477 4.758453 0.880170 3
0.729918 4.755144 0.879934 3
0.754065 4.762436 0.879499 3
0.774255 4.762654 0.879197 3
0.796838 4.766007 0.878825 3
0.817767 4.765542 0.878516 3
0.838070 4.765462 0.878212 3
0.864924 4.775394 0.877702 3
0.889471 4.781992 0.877261 3
0.912342 4.784778 0.876884 3
0.937693 4.790631 0.876436 3
0.954037 4.783156 0.876261 3
0.981942 4.791939 0.875741 3
1.011737 4.804247 0.875154 6
1.033102 4.802767 0.874837 3
1.055647 4.805371 0.874458 3
1.083889 4.813595 0.873933 3
1.112225 4.821668 0.873406 3
1.128091 4.814032 0.873231 3
1.159083 4.824948 0.872631 3
1.185119 4.829506 0.872172 3
1.213770 4.837015 0.871640 3
1.240627 4.840735 0.871172 3
1.259181 4.835672 0.870922 3
1.280315 4.833585 0.870600 4
1.311828 4.843592 0.869992 3
1.340178 4.850962 0.869460 3
1.369287 4.857605 0.868920 3
1.399158 4.863505 0.868374 3
1.420548 4.860793 0.868046 3
1.454489 4.873590 0.867365 3
1.480599 4.877220 0.866898 2
1.510110 4.883099 0.866352 2
1.529019 4.876915 0.866092 2
1.564017 4.888447 0.865399 2
1.589050 4.887332 0.864987 2
1.623572 4.899127 0.864297 2
1.658895 4.910103 0.863600 2
1.677999 4.903305 0.863334 2
1.713500 4.913939 0.862634 2
1.735402 4.909822 0.862294 2
1.773841 4.923003 0.861518 2
1.798598 4.921509 0.861103 2
1.826164 4.922771 0.860614 2
1.862136 4.932502 0.859906 2
1.900325 4.945566 0.859129 2
1.936532 4.954886 0.858417 2
1.967224 4.958316 0.857849 2
1.992341 4.955914 0.857426 5
2.025988 4.961855 0.856783 2
2.062567 4.970421 0.856064 2
2.099254 4.978780 0.855343 2
2.133186 4.984138 0.854694 2
2.172949 4.994874 0.853896 2
2.198427 4.991515 0.853465 2
2.238389 5.001842 0.852664 2
2.269770 5.003680 0.852082 2
2.312858 5.016318 0.851202 2
2.338563 5.012309 0.850766 2
2.384801 5.027225 0.849808 2
2.422377 5.033731 0.849071 2
2.451205 5.031918 0.848556 2
2.497823 5.046102 0.847592 2
2.520853 5.038560 0.847223 2
2.561745 5.046932 0.846404 2
2.608012 5.061185 0.845441 2
2.651428 5.072524 0.844550 2
2.686672 5.074886 0.843875 2
2.731028 5.084942 0.842973 1
2.763422 5.084259 0.842369 2
2.817803 5.100829 0.841229 2
2.870928 5.118741 0.840101 2
2.913471 5.124291 0.839257 1
2.945500 5.123569 0.838654 2
2.996703 5.137217 0.837587 2
3.051136 5.153113 0.836441 2
3.135761 5.163641 0.834749 1
3.187527 5.176108 0.833671 1
3.242555 5.190775 0.832514 1
3.288386 5.197605 0.831584 1
3.334327 5.204166 0.830651 1
3.380378 5.210457 0.829716 1
3.423390 5.214008 0.828855 2
3.469647 5.219769 0.827915 1
3.531827 5.237491 0.826589 1
3.571992 5.237780 0.825797 1
3.631308 5.252388 0.824542 1
3.683670 5.262791 0.823447 1
3.768878 5.295928 0.821567 1
3.838359 5.316563 0.820070 0
3.946616 5.365331 0.817639 2
14.004505 12.729647 0.575707 13
14.209105 12.707084 0.571736 27
14.350537 12.722969 0.568808 23
14.479257 12.728712 0.566186 23
14.624528 12.745262 0.563166 23
14.734134 12.735627 0.560999 24
14.873384 12.745977 0.558122 24
15.003047 12.748662 0.555473 15
15.106575 12.732450 0.553446 25
15.292761 12.772041 0.549449 25
15.426462 12.774573 0.546700 21
15.561651 12.781606 0.543894 15
15.645926 12.749249 0.542316 15
15.882251 12.812765 0.537151 22
16.051647 12.839253 0.533532 22
16.196695 12.844085 0.530510 22
16.335281 12.843698 0.527639 17
16.494270 12.855463 0.524284 17
16.656933 12.868414 0.520842 17
16.809772 12.873955 0.517630 18
16.973034 12.884954 0.514170 18
17.129814 12.890727 0.510862 18
17.286861 12.895549 0.507546 18
17.468033 12.914062 0.503661 19
17.598331 12.900254 0.500969 19
17.756153 12.902226 0.497629 19
17.910793 12.901184 0.494361 46
18.210432 12.890196 0.488042 100
18.746054 13.012146 0.476198 21
18.832928 12.965743 0.474501 21
18.864172 12.887137 0.474097 21
18.877724 12.798602 0.474099 21
18.885382 12.711796 0.474215 21
